# .PCD v0.7 - Point Cloud Data file format
VERSION 0.7
FIELDS x y z
SIZE 4 4 4
TYPE F F F
COUNT 1 1 1
WIDTH 1366
HEIGHT 1
VIEWPOINT 0 0 0 1 0 0 0
POINTS 1366
DATA ascii
0.17943928 -0.10372218 0.29255319
0.17970888 -0.10353359 0.29202127
0.18017338 -0.10345816 0.29180852
0.1807688 -0.10345816 0.29180852
0.18143034 -0.10349587 0.29191488
0.18202598 -0.10349587 0.29191488
0.18255508 -0.10345816 0.29180852
0.18288341 -0.10330728 0.29138297
0.18321003 -0.10315643 0.29095745
0.18360211 -0.10304327 0.2906383
0.18419515 -0.10304327 0.2906383
0.18499111 -0.10315643 0.29095745
0.18578836 -0.10326958 0.2912766
0.18645076 -0.10330728 0.29138297
0.18690874 -0.10323185 0.29117021
0.18743435 -0.10319413 0.29106382
-0.0038095007 -0.0072000162 0.020425532
-0.0042191767 -0.0080625182 0.02287234
-0.004580054 -0.0088500204 0.025106383
-0.0047782944 -0.0093375212 0.026489362
-0.0048570535 -0.0096000219 0.027234042
-0.0048389952 -0.0096750222 0.027446808
-0.0047459132 -0.0096000219 0.027234042
-0.0045620915 -0.0093375212 0.026489362
-0.0042545768 -0.0088125197 0.025
-0.0038100397 -0.0079875179 0.022659574
0.052589059 -0.056925129 0.16148937
0.052988295 -0.057000127 0.16170213
0.05349363 -0.057187628 0.16223404
0.054001141 -0.057375133 0.16276596
0.0544753 -0.057525128 0.16319148
0.054879747 -0.057600129 0.16340426
0.058242444 -0.057300128 0.16255319
0.058497462 -0.05722513 0.16234043
0.05871306 -0.05711263 0.16202128
0.058849819 -0.056925129 0.16148937
0.059023391 -0.05677513 0.16106384
0.059312832 -0.056737624 0.16095744
0.059641261 -0.056737624 0.16095744
0.060048964 -0.056812629 0.16117021
0.060417678 -0.056850128 0.16127659
0.060786828 -0.056887627 0.16138297
0.061075836 -0.056850128 0.16127659
0.061364412 -0.056812629 0.16117021
0.061652556 -0.05677513 0.16106384
0.062022138 -0.056812629 0.16117021
0.062351 -0.056812629 0.16117021
0.062638491 -0.05677513 0.16106384
0.062883951 -0.056700125 0.16085106
0.063212164 -0.056700125 0.16085106
0.063540377 -0.056700125 0.16085106
0.06386859 -0.056700125 0.16085106
0.064154342 -0.056662627 0.16074468
0.064482339 -0.056662627 0.16074468
0.064767443 -0.056625128 0.1606383
0.0650521 -0.056587625 0.16053191
0.065379664 -0.056587625 0.16053191
0.065794311 -0.056662627 0.16074468
0.066122308 -0.056662627 0.16074468
0.066362344 -0.056587625 0.16053191
0.066557325 -0.056475129 0.16021277
0.066795409 -0.056400128 0.16
0.067032628 -0.05632513 0.15978724
0.067358665 -0.05632513 0.15978724
0.067594573 -0.056250125 0.15957446
0.067829624 -0.056175128 0.15936171
0.068063803 -0.056100126 0.15914893
0.068251401 -0.05598763 0.15882979
0.068391763 -0.055837628 0.15840426
0.068438083 -0.055612624 0.15776595
0.06857454 -0.055462625 0.15734042
0.068755835 -0.055350121 0.15702127
0.069076233 -0.055350121 0.15702127
0.069819786 -0.055687629 0.15797873
0.071228512 -0.056550127 0.16042553
0.072884478 -0.057600129 0.16340426
0.14645733 -0.10785024 0.30595744
0.14708161 -0.10785024 0.30595744
0.1476032 -0.10777524 0.30574468
0.14812392 -0.10770024 0.30553192
0.14854017 -0.10755024 0.30510637
0.1489547 -0.10740025 0.30468085
0.14931525 -0.10721274 0.30414894
0.14972608 -0.10706274 0.30372339
0.15018784 -0.10695024 0.30340424
0.1506483 -0.10683774 0.30308512
0.15105435 -0.10668774 0.30265957
0.15151198 -0.10657524 0.30234042
0.15191479 -0.10642524 0.3019149
0.15231584 -0.10627524 0.30148935
0.1526612 -0.10608774 0.30095744
0.15295021 -0.10586274 0.30031914
0.15318224 -0.10560024 0.29957446
0.15352044 -0.10541274 0.29904255
0.15391131 -0.10526274 0.29861704
0.15441051 -0.10518774 0.29840425
0.15496415 -0.10515024 0.29829788
0.15568377 -0.10522524 0.29851064
0.15634857 -0.10526274 0.29861704
0.1570138 -0.10530023 0.2987234
0.15745494 -0.10518774 0.29840425
0.15772572 -0.10496274 0.29776597
0.1579939 -0.10473774 0.29712766
0.15837303 -0.10458773 0.29670212
0.15880744 -0.10447524 0.29638299
0.15924054 -0.10436274 0.29606384
0.15955748 -0.10417524 0.29553193
0.15987222 -0.10398773 0.29499999
0.16030055 -0.10387524 0.29468086
0.16084376 -0.10383774 0.29457447
0.16150314 -0.10387524 0.29468086
0.16222146 -0.10395024 0.29489362
0.16294065 -0.10402524 0.29510638
0.16360177 -0.10406274 0.29521278
0.16426331 -0.10410023 0.29531914
0.16498469 -0.10417524 0.29553193
0.1656473 -0.10421273 0.29563829
0.1661309 -0.10413773 0.29542553
0.16655359 -0.10402524 0.29510638
0.16685444 -0.10383774 0.29457447
0.16739504 -0.10380023 0.29446808
0.16793521 -0.10376274 0.29436171
0.16859674 -0.10380023 0.29446808
0.16919759 -0.10380023 0.29446808
0.16973712 -0.10376274 0.29436171
0.17021461 -0.10368773 0.29414892
0.1706295 -0.10357524 0.2938298
0.17098106 -0.10342523 0.29340425
0.17145532 -0.10335024 0.29319149
0.17199112 -0.10331273 0.2930851
0.17265181 -0.10335024 0.29319149
0.1731872 -0.10331273 0.2930851
0.17372215 -0.10327524 0.29297873
0.17413007 -0.10316274 0.29265958
0.17460021 -0.10308774 0.29244682
0.1751332 -0.10305023 0.29234043
0.1758576 -0.10312523 0.29255319
0.17658287 -0.10320023 0.29276595
0.17730904 -0.10327524 0.29297873
0.17790684 -0.10327524 0.29297873
0.17850466 -0.10327524 0.29297873
0.17890736 -0.10316274 0.29265958
0.17930877 -0.10305023 0.29234043
0.17970888 -0.10293773 0.29202127
0.18023905 -0.10290023 0.29191488
0.1809006 -0.10293773 0.29202127
0.18156259 -0.10297523 0.29212767
0.18215866 -0.10297523 0.29212767
0.18262163 -0.10290023 0.29191488
0.18281665 -0.10267524 0.2912766
0.18307607 -0.10248774 0.29074469
0.1834677 -0.10237523 0.29042554
0.18419515 -0.10245023 0.2906383
0.18499111 -0.10256273 0.29095745
0.18578836 -0.10267524 0.2912766
0.1863827 -0.10267524 0.2912766
0.18690874 -0.10263773 0.29117021
0.18736586 -0.10256273 0.29095745
-0.00383112 -0.0071210554 0.020319149
-0.0040475945 -0.0076057347 0.021702128
-0.0044154176 -0.0083886785 0.023936171
-0.0047159027 -0.0090597719 0.025851063
-0.004855054 -0.0094326017 0.026914893
-0.0048949993 -0.0096190171 0.027446808
-0.0048202393 -0.0095817344 0.027340425
-0.0046902969 -0.0094326017 0.026914893
-0.0044521615 -0.0090597719 0.025851063
-0.0040916353 -0.0084259612 0.024042552
-0.0036311648 -0.0075684516 0.021595744
0.052796919 -0.056819312 0.16212766
0.053162597 -0.056856595 0.16223404
0.053633939 -0.057005726 0.16265957
0.054107022 -0.05715486 0.1630851
0.054546326 -0.057266708 0.16340426
0.054951206 -0.057341274 0.16361701
0.058356795 -0.057080295 0.16287234
0.058650799 -0.057043012 0.16276596
0.058828715 -0.056893881 0.16234043
0.059004892 -0.056744751 0.1619149
0.059179332 -0.056595616 0.16148937
0.059430439 -0.056521047 0.16127659
0.059720103 -0.056483768 0.16117021
0.060009331 -0.056446485 0.16106384
0.060337976 -0.056446485 0.16106384
0.060666621 -0.056446485 0.16106384
0.060954973 -0.056409199 0.16095744
0.061283402 -0.056409199 0.16095744
0.061611831 -0.056409199 0.16095744
0.061981201 -0.056446485 0.16106384
0.062268686 -0.056409199 0.16095744
0.062555745 -0.056371916 0.16085106
0.062883951 -0.056371916 0.16085106
0.063253969 -0.056409199 0.16095744
0.063582398 -0.056409199 0.16095744
0.063953072 -0.056446485 0.16106384
0.064239256 -0.056409199 0.16095744
0.064525008 -0.056371916 0.16085106
0.064767443 -0.056297351 0.1606383
0.065008998 -0.056222785 0.16042553
0.065379664 -0.056260064 0.16053191
0.06575077 -0.056297351 0.1606383
0.066122308 -0.056334633 0.16074468
0.066406325 -0.056297351 0.1606383
0.066601515 -0.056185503 0.16031915
0.066795409 -0.056073651 0.16
0.067077249 -0.056036368 0.15989362
0.067358665 -0.055999089 0.15978724
0.067639641 -0.055961806 0.15968086
0.067874901 -0.055887237 0.15946808
0.068063803 -0.055775385 0.15914893
0.068251401 -0.055663541 0.15882979
0.068299897 -0.055439841 0.15819149
0.068391941 -0.055253427 0.15765958
0.068528175 -0.055104293 0.15723404
0.068755835 -0.055029728 0.15702127
0.069076233 -0.055029728 0.15702127
0.069584697 -0.055178858 0.1574468
0.070331074 -0.05551441 0.15840426
0.071081348 -0.055849954 0.15936171
0.071549527 -0.055961806 0.15968086
0.07130073 -0.05551441 0.15840426
0.070998617 -0.055029728 0.15702127
0.070690863 -0.054545049 0.15563829
0.14645733 -0.10722595 0.30595744
0.14708161 -0.10722595 0.30595744
0.14765456 -0.10718866 0.30585107
0.14822707 -0.10715138 0.30574468
0.14869554 -0.10703953 0.30542552
0.1489547 -0.10677855 0.30468085
0.14926302 -0.10655485 0.30404255
0.14967364 -0.10640573 0.30361703
0.15013519 -0.10629387 0.30329788
0.15054254 -0.10614473 0.30287233
0.15100124 -0.10603289 0.30255318
0.15151198 -0.10595832 0.30234042
0.1519683 -0.10584647 0.30202127
0.15236959 -0.10569734 0.30159575
0.15271518 -0.10551093 0.30106384
0.15305859 -0.10532451 0.30053192
0.15339983 -0.1051381 0.30000001
0.15379351 -0.10498896 0.29957446
0.15424028 -0.10487711 0.29925531
0.15479587 -0.10483984 0.29914895
0.15540627 -0.10483984 0.29914895
0.15607214 -0.10487711 0.29925531
0.15673847 -0.1049144 0.29936171
0.15729338 -0.10487711 0.29925531
0.15767948 -0.10472799 0.29882979
0.15800747 -0.10454158 0.29829788
0.1583333 -0.10435516 0.29776597
0.15865695 -0.10416874 0.29723403
0.15897843 -0.10398232 0.29670212
0.15941221 -0.10387048 0.29638299
0.15978721 -0.10372134 0.29595745
0.1601605 -0.10357222 0.29553193
0.16064776 -0.10349764 0.29531914
0.16119228 -0.10346036 0.29521278
0.16185294 -0.10349764 0.29531914
0.16245553 -0.10349764 0.29531914
0.16311687 -0.10353493 0.29542553
0.16371967 -0.10353493 0.29542553
0.16432248 -0.10353493 0.29542553
0.16498469 -0.10357222 0.29553193
0.1656473 -0.10360949 0.29563829
0.1661309 -0.10353493 0.29542553
0.16655359 -0.10342308 0.29510638
0.16697496 -0.10331123 0.29478723
0.16751599 -0.10327395 0.29468086
0.16817796 -0.10331123 0.29478723
0.16877946 -0.10331123 0.29478723
0.16938098 -0.10331123 0.29478723
0.16992114 -0.10327395 0.29468086
0.17039929 -0.10319938 0.29446808
0.17081481 -0.10308753 0.29414892
0.17116705 -0.1029384 0.2937234
0.17164196 -0.10286384 0.29351065
0.17217842 -0.10282655 0.29340425
0.1727771 -0.10282655 0.29340425
0.17337579 -0.10282655 0.29340425
0.17391139 -0.10278928 0.29329789
0.17444655 -0.10275199 0.29319149
0.17491779 -0.10267742 0.29297873
0.17545186 -0.10264014 0.29287234
0.17611341 -0.10267742 0.29297873
0.17677538 -0.1027147 0.2930851
0.1774378 -0.10275199 0.29319149
0.17797144 -0.1027147 0.2930851
0.17843984 -0.10264014 0.29287234
0.17877731 -0.10249101 0.29244682
0.17917828 -0.10237916 0.29212767
0.17970888 -0.10234188 0.29202127
0.18037044 -0.10237916 0.29212767
0.18116422 -0.10249101 0.29244682
0.18189318 -0.10256557 0.29265958
0.18249035 -0.10256557 0.29265958
0.18282129 -0.10241643 0.29223403
0.1829502 -0.10215545 0.29148936
0.18314303 -0.10193176 0.29085106
0.18353489 -0.10181991 0.2905319
0.18426257 -0.10189448 0.29074469
0.18512636 -0.10204361 0.29117021
0.18592407 -0.10215545 0.29148936
0.18645076 -0.10211817 0.29138297
0.18690874 -0.10204361 0.29117021
0.18736586 -0.10196904 0.29095745
-0.0039314111 -0.0072649252 0.020851064
-0.0042460058 -0.0079321116 0.022765957
-0.0045920345 -0.0086734304 0.024893617
-0.0048323451 -0.0092294198 0.026489362
-0.0049126237 -0.0094888816 0.027234042
-0.0048949993 -0.009563013 0.027446808
-0.0048014834 -0.0094888816 0.027234042
-0.0046161423 -0.0092294198 0.026489362
-0.00432391 -0.0087475628 0.025106383
-0.0039286944 -0.0080433097 0.023085106
-0.0034701773 -0.0071907928 0.020638298
0.053108711 -0.056822088 0.1630851
0.053406622 -0.056785025 0.16297872
0.053739175 -0.056785025 0.16297872
0.054142315 -0.056859154 0.16319148
0.054546326 -0.056933288 0.16340426
0.058585495 -0.056970354 0.16351064
0.058804128 -0.056859154 0.16319148
0.059021469 -0.056747958 0.16287234
0.059159964 -0.056562632 0.16234043
0.059374258 -0.056451432 0.16202128
0.059548046 -0.05630317 0.16159575
0.059798937 -0.056229033 0.16138297
0.060009331 -0.05611784 0.16106384
0.060298115 -0.05608077 0.16095744
0.060586475 -0.056043703 0.16085106
0.060914688 -0.056043703 0.16085106
0.061242897 -0.056043703 0.16085106
0.06157111 -0.056043703 0.16085106
0.061940257 -0.05608077 0.16095744
0.062227532 -0.056043703 0.16085106
0.062555745 -0.056043703 0.16085106
0.06292554 -0.05608077 0.16095744
0.063337587 -0.056154903 0.16117021
0.063708477 -0.05619197 0.16127659
0.064037554 -0.05619197 0.16127659
0.064324178 -0.056154903 0.16117021
0.064567685 -0.05608077 0.16095744
0.064810328 -0.05600664 0.16074468
0.0650521 -0.055932507 0.16053191
0.065336339 -0.05589544 0.16042553
0.065707222 -0.055932507 0.16053191
0.066034786 -0.055932507 0.16053191
0.06627439 -0.055858377 0.16031915
0.066468932 -0.055747177 0.16
0.066662177 -0.055635981 0.15968086
0.066987999 -0.055635981 0.15968086
0.06731382 -0.055635981 0.15968086
0.067684703 -0.055673048 0.15978724
0.067920186 -0.055598915 0.15957446
0.068109304 -0.055487718 0.15925533
0.068251401 -0.055339456 0.15882979
0.068299897 -0.055117056 0.15819149
0.068391941 -0.054931726 0.15765958
0.06848181 -0.054746401 0.15712766
0.068755835 -0.05470933 0.15702127
0.069076233 -0.05470933 0.15702127
0.069443651 -0.054746401 0.15712766
0.069717027 -0.05470933 0.15702127
0.069989979 -0.054672264 0.15691489
0.070214823 -0.054598134 0.15670213
0.07039091 -0.054486934 0.15638298
0.070565701 -0.054375738 0.15606382
0.070739187 -0.054264542 0.15574469
0.07091137 -0.054153342 0.15542553
0.14645733 -0.10660165 0.30595744
0.14708161 -0.10660165 0.30595744
0.14765456 -0.10656459 0.30585107
0.14827864 -0.10656459 0.30585107
0.1496212 -0.10574914 0.30351064
0.15008251 -0.10563794 0.30319148
0.15048967 -0.10548968 0.30276597
0.15094817 -0.10537848 0.30244681
0.15151198 -0.1053414 0.30234042
0.15202184 -0.10526728 0.30212766
0.15247709 -0.10515608 0.30180851
0.15282311 -0.10497075 0.30127659
0.15316695 -0.10478542 0.30074468
0.15356301 -0.10463715 0.30031914
0.15401196 -0.10452596 0.30000001
0.15456927 -0.10448889 0.29989362
0.1551812 -0.10448889 0.29989362
0.1558484 -0.10452596 0.30000001
0.15646054 -0.10452596 0.30000001
0.15696126 -0.10445182 0.29978722
0.15740521 -0.10434062 0.29946807
0.15784788 -0.10422944 0.29914895
0.15823287 -0.10408117 0.2987234
0.15867271 -0.10396997 0.29840425
0.15899767 -0.10378464 0.29787233
0.15932046 -0.10359931 0.29734042
0.15969829 -0.10345105 0.29691491
0.1600744 -0.10330278 0.29648936
0.16050641 -0.10319158 0.2961702
0.16099499 -0.10311745 0.29595745
0.16154079 -0.10308038 0.29585105
0.16208617 -0.10304333 0.29574469
0.16268963 -0.10304333 0.29574469
0.16329309 -0.10304333 0.29574469
0.16383758 -0.10300625 0.29563829
0.16444083 -0.10300625 0.29563829
0.16504407 -0.10300625 0.29563829
0.1656473 -0.10300625 0.29563829
0.1661309 -0.10293213 0.29542553
0.16661362 -0.10285799 0.29521278
0.16709547 -0.10278385 0.29499999
0.16769741 -0.10278385 0.29499999
0.16836004 -0.10282093 0.29510638
0.1689622 -0.10282093 0.29510638
0.16956435 -0.10282093 0.29510638
0.17010516 -0.10278385 0.29499999
0.17052244 -0.10267267 0.29468086
0.17087659 -0.1025244 0.29425532
0.17129102 -0.1024132 0.29393616
0.17176637 -0.10233907 0.2937234
0.17236571 -0.10233907 0.2937234
0.17296503 -0.10233907 0.2937234
0.17356437 -0.10233907 0.2937234
0.17410062 -0.102302 0.29361701
0.17463645 -0.10226494 0.29351065
0.17517182 -0.10222787 0.29340425
0.17564306 -0.10215374 0.29319149
0.17630525 -0.10219081 0.29329789
0.17696787 -0.10222787 0.29340425
0.17763095 -0.10226494 0.29351065
0.17810065 -0.10219081 0.29329789
0.17843984 -0.10204254 0.29287234
0.17871226 -0.10185722 0.29234043
0.17911303 -0.10174602 0.29202127
0.17970888 -0.10174602 0.29202127
0.18056749 -0.10189428 0.29244682
0.18149373 -0.10207961 0.29297873
0.1822899 -0.10219081 0.29329789
0.18288836 -0.10219081 0.29329789
0.1830875 -0.10196841 0.29265958
0.1831505 -0.10167188 0.29180852
0.18334401 -0.10144948 0.29117021
0.1837365 -0.10133828 0.29085106
0.18446483 -0.10141242 0.29106382
0.18532929 -0.10156068 0.29148936
0.18605977 -0.10163482 0.29170212
0.18658692 -0.10159776 0.29159576
0.18697704 -0.10148656 0.2912766
-0.0037509287 -0.006817041 0.01968085
-0.0040317019 -0.0074066231 0.021382978
-0.0044245762 -0.0082172984 0.023723405
-0.0047490271 -0.0089174267 0.02574468
-0.0049099727 -0.0093227644 0.026914893
-0.0049510035 -0.0095070088 0.027446808
-0.0048949993 -0.0095070088 0.027446808
-0.0047639715 -0.0093596131 0.027021276
-0.0045234486 -0.008991125 0.025957447
-0.0041773366 -0.0084015429 0.024255319
-0.0037476486 -0.0076277168 0.022021277
-0.0033807396 -0.0069644367 0.020106383
0.053316578 -0.056710415 0.16372341
0.053580925 -0.056636713 0.16351064
0.05380933 -0.056526165 0.16319148
0.054177612 -0.05656302 0.16329788
0.058699846 -0.056747261 0.16382979
0.058957465 -0.056673564 0.16361701
0.059137117 -0.056526165 0.16319148
0.059315037 -0.056378778 0.16276596
0.059491213 -0.05623138 0.16234043
0.059704855 -0.056120832 0.16202128
0.059917197 -0.056010284 0.16170213
0.060167875 -0.05593659 0.16148937
0.060377825 -0.055826042 0.16117021
0.060626544 -0.055752341 0.16095744
0.060954973 -0.055752341 0.16095744
0.061323911 -0.055789195 0.16106384
0.061693277 -0.055826042 0.16117021
0.062022138 -0.055826042 0.16117021
0.062351 -0.055826042 0.16117021
0.062679864 -0.055826042 0.16117021
0.063050315 -0.055862889 0.16127659
0.06346301 -0.05593659 0.16148937
0.063834548 -0.055973437 0.16159575
0.064164281 -0.055973437 0.16159575
0.064409092 -0.055899736 0.16138297
0.064610362 -0.055789195 0.16106384
0.064853221 -0.055715494 0.16085106
0.0650521 -0.055604946 0.16053191
0.065293014 -0.055531248 0.16031915
0.065620139 -0.055531248 0.16031915
0.065947264 -0.055531248 0.16031915
0.066186436 -0.055457551 0.16010638
0.066336349 -0.05531016 0.15968086
0.066528939 -0.055199612 0.15936171
0.066854112 -0.055199612 0.15936171
0.067268968 -0.055273306 0.15957446
0.067639641 -0.05531016 0.15968086
0.067920186 -0.055273306 0.15957446
0.068109304 -0.055162765 0.15925533
0.068251401 -0.055015367 0.15882979
0.068345822 -0.054831121 0.15829787
0.068438083 -0.054646876 0.15776595
0.068528175 -0.054462634 0.15723404
0.068755835 -0.054388933 0.15702127
0.069029436 -0.054352086 0.15691489
0.06939663 -0.054388933 0.15702127
0.069764264 -0.054425783 0.15712766
0.070084877 -0.054425783 0.15712766
0.070357822 -0.054388933 0.15702127
0.070582449 -0.054315235 0.15680851
0.070710003 -0.054167841 0.15638298
0.070835821 -0.054020446 0.15595745
0.070959903 -0.053873051 0.15553191
0.071082249 -0.053725656 0.15510638
0.14650825 -0.10601421 0.30606383
0.14708161 -0.10597735 0.30595744
0.14765456 -0.10594051 0.30585107
0.15094817 -0.10476135 0.30244681
0.1515653 -0.10476135 0.30244681
0.15212889 -0.10472449 0.30234042
0.15258457 -0.10461394 0.30202127
0.15298499 -0.10446655 0.30159575
0.1532753 -0.10424545 0.30095744
0.15361741 -0.10406122 0.30042553
0.15412119 -0.10398751 0.30021277
0.15473378 -0.10398751 0.30021277
0.15545644 -0.10406122 0.30042553
0.15612471 -0.10409807 0.30053192
0.15673794 -0.10409807 0.30053192
0.15712836 -0.10395066 0.30010638
0.15751706 -0.10380328 0.29968086
0.157904 -0.10365587 0.29925531
0.15840192 -0.10358218 0.29904255
0.15895554 -0.10354532 0.29893616
0.15939517 -0.10343479 0.29861704
0.15977646 -0.10328738 0.29819149
0.16009882 -0.10310315 0.29765958
0.16047645 -0.10295574 0.29723403
0.16079468 -0.1027715 0.29670212
0.16122648 -0.10266096 0.29638299
0.16165698 -0.10255042 0.29606384
0.16220278 -0.10251356 0.29595745
0.16280667 -0.10251356 0.29595745
0.16341056 -0.10251356 0.29595745
0.16401446 -0.10251356 0.29595745
0.16461834 -0.10251356 0.29595745
0.16522223 -0.10251356 0.29595745
0.16576651 -0.10247671 0.29585105
0.16625054 -0.10240301 0.29563829
0.16673371 -0.10232932 0.29542553
0.16733651 -0.10232932 0.29542553
0.16793932 -0.10232932 0.29542553
0.16854212 -0.10232932 0.29542553
0.16914493 -0.10232932 0.29542553
0.16974774 -0.10232932 0.29542553
0.17022786 -0.10225562 0.29521278
0.17058398 -0.10210823 0.29478723
0.17093839 -0.10196083 0.29436171
0.17135303 -0.10185029 0.29404256
0.17195301 -0.10185029 0.29404256
0.17261541 -0.10188713 0.29414892
0.17334092 -0.10196083 0.29436171
0.17387868 -0.10192398 0.29425532
0.17441602 -0.10188713 0.29414892
0.17488962 -0.10181343 0.29393616
0.17536238 -0.10173973 0.2937234
0.17589797 -0.10170288 0.29361701
0.17656104 -0.10173973 0.2937234
0.17735288 -0.10185029 0.29404256
0.17801723 -0.10188713 0.29414892
0.17842364 -0.10177658 0.2938298
0.17863429 -0.10155549 0.29319149
0.17884234 -0.10133439 0.29255319
0.17924352 -0.10122385 0.29223403
0.1799053 -0.1012607 0.29234043
0.18076453 -0.10140809 0.29276595
0.18175733 -0.10162919 0.29340425
0.18255436 -0.10173973 0.2937234
0.1831537 -0.10173973 0.2937234
0.18342027 -0.10155549 0.29319149
0.18341757 -0.10122385 0.29223403
0.18361196 -0.10100276 0.29159576
0.18400533 -0.10089222 0.2912766
0.18473451 -0.10096591 0.29148936
0.18559983 -0.1011133 0.29191488
0.1863312 -0.10118701 0.29212767
0.18685921 -0.10115016 0.29202127
0.18725018 -0.1010396 0.29170212
-0.0038117545 -0.0068867784 0.02
-0.0041921679 -0.0076560467 0.022234043
-0.0045833052 -0.0084619457 0.024574468
-0.0048471475 -0.0090480549 0.026276596
-0.0049487869 -0.0093411086 0.027127659
-0.0049510035 -0.0094510047 0.027446808
-0.0048760264 -0.009414373 0.027340425
-0.0046889489 -0.0091579501 0.026595745
-0.0044122166 -0.0087183686 0.02531915
-0.0040124422 -0.0080223642 0.023297872
-0.0035666027 -0.0072164652 0.020957448
-0.003255527 -0.0066669881 0.019361703
0.058403455 -0.056449603 0.16393617
0.058737963 -0.056449603 0.16393617
0.058995802 -0.056376342 0.16372341
0.05917567 -0.056229815 0.16329788
0.059315037 -0.056046657 0.16276596
0.059530199 -0.055936761 0.16244681
0.059783258 -0.055863496 0.16223404
0.060035456 -0.055790234 0.16202128
0.060286779 -0.055716969 0.16180851
0.060537241 -0.055643708 0.16159575
0.060826901 -0.055607077 0.16148937
0.061116122 -0.055570439 0.16138297
0.061485928 -0.055607077 0.16148937
0.061856162 -0.055643708 0.16159575
0.062226832 -0.055680338 0.16170213
0.062556781 -0.055680338 0.16170213
0.06288673 -0.055680338 0.16170213
0.063216671 -0.055680338 0.16170213
0.06354662 -0.055680338 0.16170213
0.063876569 -0.055680338 0.16170213
0.064164281 -0.055643708 0.16159575
0.064409092 -0.055570439 0.16138297
0.064653039 -0.055497181 0.16117021
0.064853221 -0.055387281 0.16085106
0.0650521 -0.055277385 0.16053191
0.065249689 -0.055167492 0.16021277
0.065533049 -0.055130858 0.16010638
0.065815978 -0.055094227 0.16
0.066054501 -0.055020966 0.15978724
0.066247955 -0.05491107 0.15946808
0.066440113 -0.054801174 0.15914893
0.066809483 -0.054837808 0.15925533
0.067224123 -0.05491107 0.15946808
0.067594573 -0.0549477 0.15957446
0.067920186 -0.0549477 0.15957446
0.068109304 -0.054837808 0.15925533
0.068251401 -0.054691281 0.15882979
0.068345822 -0.054508116 0.15829787
0.068438083 -0.054324958 0.15776595
0.06857454 -0.054178432 0.15734042
0.068709254 -0.054031905 0.15691489
0.068935841 -0.053958643 0.15670213
0.069302604 -0.053995274 0.15680851
0.069717027 -0.054068536 0.15702127
0.07013233 -0.054141801 0.15723404
0.07045316 -0.054141801 0.15723404
0.070726112 -0.05410517 0.15712766
0.070854314 -0.053958643 0.15670213
0.07098078 -0.053812116 0.1562766
0.071056977 -0.053628959 0.15574469
0.071130998 -0.053445797 0.15521276
0.07134977 -0.053372536 0.155
0.15183185 -0.10432737 0.30297872
0.15239654 -0.10429073 0.30287233
0.15279956 -0.10414421 0.30244681
0.15314688 -0.10396105 0.3019149
0.15338366 -0.10370462 0.3011702
0.15367182 -0.10348484 0.30053192
0.15412119 -0.10337494 0.30021277
0.15473378 -0.10337494 0.30021277
0.1555115 -0.10348484 0.30053192
0.15629052 -0.10359474 0.30085108
0.15690438 -0.10359474 0.30085108
0.15729547 -0.1034482 0.30042553
0.15757297 -0.10322841 0.29978722
0.15796015 -0.10308189 0.29936171
0.15851462 -0.10304525 0.29925531
0.15918182 -0.10308189 0.29936171
0.15979266 -0.10308189 0.29936171
0.16023248 -0.10297199 0.29904255
0.16055658 -0.10278884 0.29851064
0.16076364 -0.10253242 0.29776597
0.16096763 -0.10227598 0.29702127
0.16122648 -0.10205621 0.29638299
0.16159889 -0.10190967 0.29595745
0.16208617 -0.10183641 0.29574469
0.16274814 -0.10187303 0.29585105
0.16341056 -0.10190967 0.29595745
0.16413236 -0.10198293 0.2961702
0.16473669 -0.10198293 0.2961702
0.165341 -0.10198293 0.2961702
0.16594534 -0.10198293 0.2961702
0.16648984 -0.10194631 0.29606384
0.16703391 -0.10190967 0.29595745
0.1676378 -0.10190967 0.29595745
0.16824169 -0.10190967 0.29595745
0.16884558 -0.10190967 0.29595745
0.16938856 -0.10187303 0.29585105
0.16993111 -0.10183641 0.29574469
0.17041188 -0.10176315 0.29553193
0.17070709 -0.10157998 0.29499999
0.17100015 -0.10139682 0.29446808
0.17147702 -0.10132356 0.29425532
0.17213964 -0.10136019 0.29436171
0.17292757 -0.10147009 0.29468086
0.17365415 -0.10154335 0.29489362
0.17425586 -0.10154335 0.29489362
0.17466834 -0.10143346 0.29457447
0.17507952 -0.10132356 0.29425532
0.17555292 -0.1012503 0.29404256
0.1761529 -0.1012503 0.29404256
0.17694473 -0.10136019 0.29436171
0.17780203 -0.10150672 0.29478723
0.17846791 -0.10154335 0.29489362
0.17881122 -0.10139682 0.29446808
0.17895837 -0.1011404 0.2937234
0.17910248 -0.10088398 0.29297873
0.17950453 -0.10077409 0.29265958
0.18016715 -0.10081071 0.29276595
0.18096159 -0.10092061 0.2930851
0.18188913 -0.10110377 0.29361701
0.1826205 -0.10117704 0.2938298
0.18322004 -0.10117704 0.2938298
0.18355337 -0.10103051 0.29340425
0.18361789 -0.10073745 0.29255319
0.1838799 -0.10055429 0.29202127
0.18434136 -0.10048103 0.29180852
0.18513905 -0.10059093 0.29212767
0.18600567 -0.10073745 0.29255319
0.18673833 -0.10081071 0.29276595
0.18726765 -0.10077409 0.29265958
0.1877965 -0.10073745 0.29255319
-0.0039334064 -0.007064458 0.020638298
-0.0043726922 -0.0079384111 0.023191489
-0.0047221938 -0.0086667063 0.02531915
-0.0049060197 -0.0091036828 0.026595745
-0.0049681938 -0.0093221711 0.027234042
-0.0049510035 -0.0093950005 0.027446808
-0.0048380806 -0.0092857564 0.027127659
-0.0046139257 -0.008958024 0.026170213
-0.0042639063 -0.0083753876 0.024468085
-0.0038292257 -0.0076106787 0.022234043
-0.0033674522 -0.0067731394 0.019787233
0.058699846 -0.056078684 0.16382979
0.058919132 -0.055969439 0.16351064
0.059098568 -0.055823781 0.1630851
0.059276264 -0.055678122 0.16265957
0.059491213 -0.055568881 0.16234043
0.059783258 -0.055532463 0.16223404
0.060153715 -0.055568881 0.16234043
0.060445324 -0.055532463 0.16223404
0.060736507 -0.055496048 0.16212766
0.061027251 -0.055459633 0.16202128
0.061357852 -0.055459633 0.16202128
0.061728954 -0.055496048 0.16212766
0.062100489 -0.055532463 0.16223404
0.062431522 -0.055532463 0.16223404
0.062762558 -0.055532463 0.16223404
0.063093588 -0.055532463 0.16223404
0.063383035 -0.055496048 0.16212766
0.063630238 -0.055423222 0.1619149
0.063876569 -0.055350389 0.16170213
0.064164281 -0.055313975 0.16159575
0.064451553 -0.055277564 0.16148937
0.064738385 -0.055241145 0.16138297
0.064896114 -0.055095486 0.16095744
0.0650521 -0.054949824 0.16053191
0.065163031 -0.054767754 0.16
0.065445967 -0.054731339 0.15989362
0.06577222 -0.054731339 0.15989362
0.066010527 -0.054658514 0.15968086
0.066203766 -0.054549266 0.15936171
0.066440113 -0.054476436 0.15914893
0.066809483 -0.054512855 0.15925533
0.067179278 -0.054549266 0.15936171
0.067549512 -0.05458568 0.15946808
0.067829624 -0.054549266 0.15936171
0.067972809 -0.054403607 0.15893617
0.068159968 -0.054294363 0.15861702
0.068299897 -0.054148704 0.15819149
0.068484232 -0.054039456 0.15787233
0.06857454 -0.053857386 0.15734042
0.068709254 -0.053711727 0.15691489
0.068935841 -0.053638898 0.15670213
0.069255583 -0.053638898 0.15670213
0.069717027 -0.053748138 0.15702127
0.070179783 -0.053857386 0.15734042
0.070548497 -0.053893797 0.1574468
0.070821874 -0.053857386 0.15734042
0.070998617 -0.053748138 0.15702127
0.071077414 -0.053566065 0.15648936
0.071154051 -0.053383995 0.15595745
0.071277261 -0.053238336 0.15553191
0.071447708 -0.053129088 0.15521276
0.15220504 -0.10396405 0.30372339
0.15266418 -0.10385481 0.30340424
0.15301454 -0.10367274 0.30287233
0.15325481 -0.10341784 0.30212766
0.15349203 -0.10316294 0.30138299
0.15372621 -0.10290802 0.30063829
0.15412119 -0.10276237 0.30021277
0.15473378 -0.10276237 0.30021277
0.15556653 -0.10290802 0.30063829
0.15634577 -0.10301727 0.30095744
0.15701535 -0.10305369 0.30106384
0.15740685 -0.10290802 0.30063829
0.15768482 -0.10268954 0.30000001
0.15807241 -0.10254388 0.29957446
0.15862732 -0.10250746 0.29946807
0.15935153 -0.10258029 0.29968086
0.16007657 -0.10265312 0.29989362
0.16063149 -0.10261671 0.29978722
0.16095711 -0.10243464 0.29925531
0.16105081 -0.10210691 0.29829788
0.16114059 -0.10177917 0.29734042
0.16122648 -0.10145144 0.29638299
0.16148272 -0.10123295 0.29574469
0.16196957 -0.10116012 0.29553193
0.16268963 -0.10123295 0.29574469
0.16341056 -0.10130578 0.29595745
0.16419132 -0.10141502 0.2962766
0.16479586 -0.10141502 0.2962766
0.1654004 -0.10141502 0.2962766
0.16606456 -0.10145144 0.29638299
0.16666932 -0.10145144 0.29638299
0.16727409 -0.10145144 0.29638299
0.16787884 -0.10145144 0.29638299
0.1684836 -0.10145144 0.29638299
0.16902766 -0.10141502 0.2962766
0.16957128 -0.1013786 0.2961702
0.17005336 -0.10130578 0.29595745
0.17047322 -0.10119653 0.29563829
0.17083023 -0.10105088 0.29521278
0.17112371 -0.10086881 0.29468086
0.171601 -0.10079597 0.29446808
0.17232628 -0.10086881 0.29468086
0.17317729 -0.10101446 0.29510638
0.17396738 -0.10112371 0.29542553
0.17450731 -0.10108729 0.29531914
0.17492066 -0.10097804 0.29499999
0.17526941 -0.10083239 0.29457447
0.17580697 -0.10079597 0.29446808
0.17647156 -0.10083239 0.29457447
0.17726447 -0.10094164 0.29489362
0.17812285 -0.10108729 0.29531914
0.17878982 -0.10112371 0.29542553
0.17913422 -0.10097804 0.29499999
0.17928246 -0.10072314 0.29425532
0.17942764 -0.10046824 0.29351065
0.17983079 -0.100359 0.29319149
0.18042903 -0.100359 0.29319149
0.18115865 -0.10043182 0.29340425
0.18188913 -0.10050465 0.29361701
0.18255436 -0.10054107 0.2937234
0.18308735 -0.10050465 0.29361701
0.18348683 -0.10039542 0.29329789
0.18375142 -0.10021333 0.29276595
0.18408087 -0.10006768 0.29234043
0.18467738 -0.10006768 0.29234043
0.18547615 -0.10017692 0.29265958
0.18634386 -0.10032258 0.2930851
0.18707761 -0.10039542 0.29329789
0.18767609 -0.10039542 0.29329789
0.18820624 -0.100359 0.29319149
-0.0045732739 -0.0082530659 0.024255319
-0.0048412406 -0.0088322284 0.025957447
-0.0049648918 -0.0091580078 0.026914893
-0.0049876007 -0.0093027987 0.027340425
-0.0049318136 -0.0093027987 0.027340425
-0.0047811624 -0.0091218101 0.026808511
-0.0045013907 -0.0086874375 0.025531914
-0.004097058 -0.0079996828 0.023510639
-0.0036276875 -0.0071671368 0.021063831
0.058585495 -0.055635802 0.16351064
0.058842469 -0.055563409 0.16329788
0.059021469 -0.055418618 0.16287234
0.05919873 -0.055273827 0.16244681
0.059452225 -0.05520143 0.16223404
0.059822466 -0.055237629 0.16234043
0.06023255 -0.055310022 0.16255319
0.060564235 -0.055310022 0.16255319
0.060856067 -0.055273827 0.16244681
0.061147466 -0.055237629 0.16234043
0.061478715 -0.055237629 0.16234043
0.06185047 -0.055273827 0.16244681
0.062222656 -0.055310022 0.16255319
0.062554345 -0.055310022 0.16255319
0.062886022 -0.055310022 0.16255319
0.063217707 -0.055310022 0.16255319
0.063466214 -0.055237629 0.16234043
0.063672043 -0.055129036 0.16202128
0.063834548 -0.054984245 0.16159575
0.064122036 -0.054948047 0.16148937
0.064451553 -0.054948047 0.16148937
0.064738385 -0.054911848 0.16138297
0.064939007 -0.05480326 0.16106384
0.065008998 -0.054586068 0.16042553
0.065163031 -0.054441277 0.16
0.065402426 -0.054368887 0.15978724
0.065728463 -0.054368887 0.15978724
0.066054501 -0.054368887 0.15978724
0.066247955 -0.054260291 0.15946808
0.066484526 -0.054187898 0.15925533
0.066854112 -0.054224096 0.15936171
0.067224123 -0.054260291 0.15946808
0.067549512 -0.054260291 0.15946808
0.067739062 -0.054151695 0.15914893
0.067881808 -0.054006904 0.1587234
0.068022825 -0.053862114 0.15829787
0.068253964 -0.053789724 0.15808511
0.068438083 -0.053681128 0.15776595
0.068620905 -0.053572532 0.1574468
0.068755835 -0.053427741 0.15702127
0.068982638 -0.053355351 0.15680851
0.069302604 -0.053355351 0.15680851
0.069764264 -0.053463943 0.15712766
0.070179783 -0.053536337 0.15734042
0.070596166 -0.053608734 0.1575532
0.070869759 -0.053572532 0.1574468
0.071046725 -0.053463943 0.15712766
0.071125738 -0.053282958 0.15659575
0.071251124 -0.053138167 0.15617022
0.071374774 -0.052993376 0.15574469
0.071594618 -0.052920979 0.15553191
0.15201005 -0.1036339 0.30457446
0.15241829 -0.10348911 0.30414894
0.15282477 -0.10334431 0.30372339
0.15317579 -0.10316332 0.30319148
0.15341669 -0.10290994 0.30244681
0.15360038 -0.10262036 0.30159575
0.15383501 -0.10236698 0.30085108
0.15428504 -0.10225839 0.30053192
0.15489827 -0.10225839 0.30053192
0.15567663 -0.10236698 0.30085108
0.15645629 -0.10247557 0.3011702
0.15712631 -0.10251177 0.30127659
0.15757395 -0.10240318 0.30095744
0.15790847 -0.10222219 0.30042553
0.15829696 -0.1020774 0.30000001
0.15885274 -0.1020412 0.29989362
0.15957779 -0.1021136 0.30010638
0.16030371 -0.10218599 0.30031914
0.16085951 -0.1021498 0.30021277
0.16118599 -0.10196881 0.29968086
0.16128054 -0.10164303 0.2987234
0.1612559 -0.10124485 0.29755318
0.16134222 -0.10091908 0.29659575
0.16159889 -0.10070189 0.29595745
0.16208617 -0.10062949 0.29574469
0.16274814 -0.10066569 0.29585105
0.1634693 -0.10073809 0.29606384
0.16419132 -0.10081048 0.2962766
0.16479586 -0.10081048 0.2962766
0.1654004 -0.10081048 0.2962766
0.16606456 -0.10084669 0.29638299
0.16672914 -0.10088287 0.29648936
0.16745418 -0.10095527 0.29670212
0.16811986 -0.10099147 0.29680851
0.16866501 -0.10095527 0.29670212
0.16920973 -0.10091908 0.29659575
0.16975401 -0.10088287 0.29648936
0.17017561 -0.10077428 0.2961702
0.1705959 -0.10066569 0.29585105
0.17089178 -0.1004847 0.29531914
0.17118548 -0.10030371 0.29478723
0.171601 -0.10019512 0.29446808
0.17232628 -0.10026752 0.29468086
0.17317729 -0.10041231 0.29510638
0.17396738 -0.1005209 0.29542553
0.17457019 -0.1005209 0.29542553
0.17498374 -0.10041231 0.29510638
0.17545931 -0.10033991 0.29489362
0.17599751 -0.10030371 0.29478723
0.17666276 -0.10033991 0.29489362
0.17745632 -0.1004485 0.29521278
0.17831534 -0.10059329 0.29563829
0.17891859 -0.10059329 0.29563829
0.17932802 -0.1004847 0.29531914
0.17954172 -0.10026752 0.29468086
0.17975281 -0.10005033 0.29404256
0.18015704 -0.099941738 0.2937234
0.18075638 -0.099941738 0.2937234
0.1813557 -0.099941738 0.2937234
0.18188913 -0.099905536 0.29361701
0.18242213 -0.099869341 0.29351065
0.18288836 -0.099796951 0.29329789
0.18335371 -0.099724546 0.2930851
0.18375142 -0.099615954 0.29276595
0.18421483 -0.099543564 0.29255319
0.18487899 -0.099579759 0.29265958
0.18574584 -0.099724546 0.2930851
0.18661442 -0.099869341 0.29351065
0.18734902 -0.099941738 0.2937234
0.18788028 -0.099905536 0.29361701
0.18841112 -0.099869341 0.29351065
-0.0037691169 -0.0065484671 0.019361703
-0.0039960109 -0.007016215 0.020744681
-0.0043997383 -0.0078077875 0.023085106
-0.0047337399 -0.0084914193 0.025106383
-0.0049404465 -0.0089591667 0.026489362
-0.0050041401 -0.0091750501 0.027127659
-0.0049876007 -0.0092470115 0.027340425
-0.0048934338 -0.0091750501 0.027127659
-0.0046862978 -0.0088872053 0.026276596
-0.0043701003 -0.0083834771 0.024787234
-0.0039302092 -0.0076278844 0.022553191
-0.0034627924 -0.0068003312 0.020106383
0.058471143 -0.055194221 0.16319148
0.058765799 -0.055158243 0.1630851
0.058982916 -0.055050302 0.16276596
0.05919873 -0.054942358 0.16244681
0.059530199 -0.054942358 0.16244681
0.059940066 -0.05501432 0.16265957
0.060350809 -0.055086281 0.16287234
0.060683146 -0.055086281 0.16287234
0.060935773 -0.05501432 0.16265957
0.061267674 -0.05501432 0.16265957
0.061599575 -0.05501432 0.16265957
0.061971985 -0.055050302 0.16276596
0.062304102 -0.055050302 0.16276596
0.062595278 -0.05501432 0.16265957
0.062886022 -0.054978337 0.16255319
0.063217707 -0.054978337 0.16255319
0.063466214 -0.054906379 0.16234043
0.063630238 -0.054762457 0.1619149
0.063792527 -0.054618534 0.16148937
0.064037554 -0.054546572 0.16127659
0.064409092 -0.054582551 0.16138297
0.064738385 -0.054582551 0.16138297
0.064939007 -0.054474611 0.16106384
0.0650521 -0.054294705 0.16053191
0.065206356 -0.054150783 0.16010638
0.065533049 -0.054150783 0.16010638
0.065859742 -0.054150783 0.16010638
0.066142455 -0.054114804 0.16
0.066336349 -0.054006867 0.15968086
0.066573344 -0.053934902 0.15946808
0.066898733 -0.053934902 0.15946808
0.067268968 -0.053970881 0.15957446
0.067594573 -0.053970881 0.15957446
0.067739062 -0.053826958 0.15914893
0.067836314 -0.053647056 0.15861702
0.068022825 -0.053539112 0.15829787
0.068208039 -0.053431176 0.15797873
0.068438083 -0.05335921 0.15776595
0.068667278 -0.053287253 0.1575532
0.068849005 -0.053179309 0.15723404
0.069123037 -0.05314333 0.15712766
0.069443651 -0.05314333 0.15712766
0.069811501 -0.053179309 0.15723404
0.070227228 -0.05325127 0.1574468
0.070596166 -0.053287253 0.1575532
0.070869759 -0.05325127 0.1574468
0.071046725 -0.05314333 0.15712766
0.071174055 -0.052999407 0.15670213
0.071299657 -0.052855484 0.1562766
0.071423523 -0.052711561 0.15585107
0.071692564 -0.052675582 0.15574469
0.071961164 -0.0526396 0.15563829
0.15160009 -0.10315635 0.30500001
0.15206315 -0.10304841 0.30468085
0.1525249 -0.10294046 0.3043617
0.15293184 -0.10279655 0.30393618
0.15328327 -0.10261663 0.30340424
0.15357858 -0.10240076 0.30276597
0.15387128 -0.10218487 0.30212766
0.15416138 -0.10196898 0.30148935
0.15455811 -0.10182507 0.30106384
0.15517242 -0.10182507 0.30106384
0.15584177 -0.10186104 0.3011702
0.15656684 -0.10193301 0.30138299
0.1571818 -0.10193301 0.30138299
0.15768535 -0.10186104 0.3011702
0.15813215 -0.10175311 0.30085108
0.15863374 -0.10168114 0.30063829
0.15924719 -0.10168114 0.30063829
0.15986063 -0.10168114 0.30063829
0.16047406 -0.10168114 0.30063829
0.1609735 -0.10160918 0.30042553
0.1612432 -0.1013933 0.29978722
0.16133799 -0.10106947 0.29882979
0.16142885 -0.10074565 0.29787233
0.16157369 -0.1004578 0.29702127
0.16188931 -0.1002779 0.29648936
0.1623777 -0.10020594 0.2962766
0.16298224 -0.10020594 0.2962766
0.16364552 -0.10024192 0.29638299
0.16425028 -0.10024192 0.29638299
0.16479586 -0.10020594 0.2962766
0.165341 -0.10016996 0.2961702
0.16600494 -0.10020594 0.2962766
0.16678897 -0.10031388 0.29659575
0.16757429 -0.10042182 0.29691491
0.16824038 -0.1004578 0.29702127
0.16878597 -0.10042182 0.29691491
0.16933112 -0.10038584 0.29680851
0.16981493 -0.10031388 0.29659575
0.17029788 -0.10024192 0.29638299
0.17065726 -0.100098 0.29595745
0.17095335 -0.099918097 0.29542553
0.17118548 -0.099702209 0.29478723
0.171601 -0.099594265 0.29446808
0.17220186 -0.099594265 0.29446808
0.17292757 -0.09966623 0.29468086
0.17371678 -0.099774167 0.29499999
0.17438158 -0.099810153 0.29510638
0.17504683 -0.099846132 0.29521278
0.1755859 -0.099810153 0.29510638
0.17612453 -0.099774167 0.29499999
0.17672648 -0.099774167 0.29499999
0.17745632 -0.099846132 0.29521278
0.17818701 -0.099918097 0.29542553
0.17898297 -0.10002604 0.29574469
0.17952183 -0.099990055 0.29563829
0.17986581 -0.099846132 0.29521278
0.18014301 -0.09966623 0.29468086
0.18054855 -0.099558294 0.29436171
0.18101823 -0.099486321 0.29414892
0.18155275 -0.09945035 0.29404256
0.18202095 -0.099378392 0.2938298
0.18242213 -0.099270448 0.29351065
0.18282202 -0.099162504 0.29319149
0.18322061 -0.09905456 0.29287234
0.18368466 -0.098982602 0.29265958
0.18428183 -0.098982602 0.29265958
0.1850806 -0.099090546 0.29297873
0.18588069 -0.09919849 0.29329789
0.18668205 -0.099306419 0.29361701
0.18734902 -0.099342406 0.2937234
0.18788028 -0.099306419 0.29361701
0.18841112 -0.099270448 0.29351065
-0.0039555016 -0.006830832 0.020319149
-0.0042624115 -0.0074388119 0.02212766
-0.0046227663 -0.0081540821 0.024255319
-0.0048741475 -0.0086905342 0.025851063
-0.0049999696 -0.0090124067 0.026808511
-0.005023764 -0.0091554606 0.027234042
-0.0049681938 -0.0091554606 0.027234042
-0.0048358641 -0.0090124067 0.026808511
-0.0045914333 -0.0086547714 0.02574468
-0.0042012981 -0.0080110282 0.023829788
-0.0037633609 -0.0072599938 0.021595744
-0.0033711842 -0.0065804874 0.019574469
0.058433026 -0.05482547 0.1630851
0.058727466 -0.054789707 0.16297872
0.058982916 -0.054718185 0.16276596
0.059276264 -0.054682415 0.16265957
0.059647154 -0.054718185 0.16276596
0.060096875 -0.05482547 0.1630851
0.060508486 -0.054896999 0.16329788
0.06080205 -0.054861233 0.16319148
0.061055332 -0.054789707 0.16297872
0.061307747 -0.054718185 0.16276596
0.061639864 -0.054718185 0.16276596
0.062012486 -0.054753948 0.16287234
0.062344823 -0.054753948 0.16287234
0.062636219 -0.054718185 0.16276596
0.062927179 -0.054682415 0.16265957
0.063176341 -0.054610893 0.16244681
0.063424625 -0.054539364 0.16223404
0.063588426 -0.054396309 0.16180851
0.063708477 -0.054217491 0.16127659
0.063953072 -0.054145966 0.16106384
0.064281717 -0.054145966 0.16106384
0.064653039 -0.054181729 0.16117021
0.064939007 -0.054145966 0.16106384
0.065181434 -0.054074436 0.16085106
0.065422997 -0.054002915 0.1606383
0.06575077 -0.054002915 0.1606383
0.066034786 -0.053967144 0.16053191
0.06627439 -0.053895622 0.16031915
0.066424735 -0.053752568 0.15989362
0.066617757 -0.053645276 0.15957446
0.066943362 -0.053645276 0.15957446
0.06740351 -0.053752568 0.15989362
0.067729764 -0.053752568 0.15989362
0.067920186 -0.053645276 0.15957446
0.068018302 -0.053466458 0.15904255
0.068114258 -0.05328764 0.15851064
0.068299897 -0.053180348 0.15819149
0.068484232 -0.053073056 0.15787233
0.068667278 -0.052965771 0.1575532
0.068895586 -0.052894242 0.15734042
0.069169834 -0.052858479 0.15723404
0.069490671 -0.052858479 0.15723404
0.069811501 -0.052858479 0.15723404
0.070227228 -0.052930005 0.1574468
0.070596166 -0.052965771 0.1575532
0.070869759 -0.052930005 0.1574468
0.071046725 -0.052822717 0.15712766
0.07122238 -0.052715424 0.15680851
0.071396731 -0.052608132 0.15648936
0.071569785 -0.052500844 0.15617022
0.071790501 -0.052429315 0.15595745
0.072010353 -0.052357793 0.15574469
0.072278738 -0.052322023 0.15563829
0.15160009 -0.102534 0.30500001
0.15206315 -0.10242672 0.30468085
0.1525249 -0.10231942 0.3043617
0.15298536 -0.10221213 0.30404255
0.15339077 -0.10206908 0.30361703
0.15384839 -0.10196179 0.30329788
0.15419637 -0.10178297 0.30276597
0.15454216 -0.10160416 0.30223405
0.1549404 -0.1014611 0.30180851
0.15544657 -0.10138957 0.30159575
0.15600692 -0.1013538 0.30148935
0.1566221 -0.1013538 0.30148935
0.1571818 -0.10131805 0.30138299
0.15774105 -0.10128228 0.30127659
0.1583558 -0.10128228 0.30127659
0.15897055 -0.10128228 0.30127659
0.1595853 -0.10128228 0.30127659
0.16014346 -0.10124651 0.3011702
0.16064443 -0.10117499 0.30095744
0.1609735 -0.10099617 0.30042553
0.16112876 -0.10071006 0.29957446
0.16128054 -0.10042395 0.2987234
0.16154416 -0.10020937 0.29808509
0.16186304 -0.10003056 0.29755318
0.16229592 -0.099923261 0.29723403
0.16272752 -0.09981598 0.29691491
0.16321631 -0.099744447 0.29670212
0.163763 -0.099708691 0.29659575
0.16425028 -0.099637166 0.29638299
0.16479586 -0.099601395 0.2962766
0.165341 -0.099565633 0.2961702
0.16606456 -0.099637166 0.29638299
0.16690861 -0.099780217 0.29680851
0.16769436 -0.099887505 0.29712766
0.16830064 -0.099887505 0.29712766
0.16884644 -0.099851735 0.29702127
0.16933112 -0.099780217 0.29680851
0.16993675 -0.099780217 0.29680851
0.17048125 -0.099744447 0.29670212
0.17084129 -0.099601395 0.2962766
0.17113803 -0.099422581 0.29574469
0.17137082 -0.099207997 0.29510638
0.171663 -0.099029183 0.29457447
0.17207743 -0.098921888 0.29425532
0.17267784 -0.098921888 0.29425532
0.17340356 -0.098993413 0.29446808
0.17425586 -0.099136472 0.29489362
0.17510991 -0.099279523 0.29531914
0.1757758 -0.099315286 0.29542553
0.17625158 -0.099243768 0.29521278
0.17672648 -0.099172227 0.29499999
0.17726447 -0.099136472 0.29489362
0.17805868 -0.099243768 0.29521278
0.17898297 -0.099422581 0.29574469
0.17978023 -0.09952987 0.29606384
0.18031952 -0.099494107 0.29595745
0.18066329 -0.099351056 0.29553193
0.18094003 -0.099172227 0.29499999
0.18128011 -0.099029183 0.29457447
0.18168412 -0.098921888 0.29425532
0.18215275 -0.098850362 0.29404256
0.18255436 -0.098743074 0.2937234
0.18288836 -0.098600022 0.29329789
0.18328717 -0.098492727 0.29297873
0.18375142 -0.098421194 0.29276595
0.18434881 -0.098421194 0.29276595
0.18514779 -0.098528489 0.2930851
0.18601553 -0.098671548 0.29351065
0.18668205 -0.098707303 0.29361701
0.18728116 -0.098707303 0.29361701
0.18774414 -0.098635778 0.29340425
0.18820624 -0.098564252 0.29319149
-0.0039132559 -0.0066471854 0.019893616
-0.0041211769 -0.0070737428 0.021170212
-0.0044878274 -0.0077846716 0.023297872
-0.004805244 -0.0084245084 0.025212767
-0.0049744388 -0.0088155186 0.026382979
-0.0050594928 -0.0090643438 0.027127659
-0.0050433879 -0.0091354363 0.027340425
-0.0049487869 -0.0090643438 0.027127659
-0.0047591045 -0.0088155186 0.026382979
-0.0044396506 -0.0083178682 0.024893617
-0.0040324959 -0.0076424857 0.02287234
-0.0036521286 -0.0070026503 0.020957448
-0.0033528625 -0.0065049999 0.019468086
0.058394913 -0.054457158 0.16297872
0.058689132 -0.054421611 0.16287234
0.058944363 -0.054350514 0.16265957
0.059315037 -0.054386064 0.16276596
0.059764106 -0.054492701 0.1630851
0.060253683 -0.054634888 0.16351064
0.060666163 -0.054705981 0.16372341
0.060960595 -0.054670431 0.16361701
0.061135035 -0.054528248 0.16319148
0.061387885 -0.054457158 0.16297872
0.061720438 -0.054457158 0.16297872
0.062133998 -0.054528248 0.16319148
0.062466983 -0.054528248 0.16319148
0.062759034 -0.054492701 0.1630851
0.062968343 -0.054386064 0.16276596
0.063217707 -0.054314971 0.16255319
0.063424625 -0.054208331 0.16223404
0.063588426 -0.054066144 0.16180851
0.063708477 -0.053888414 0.16127659
0.063953072 -0.053817321 0.16106384
0.064281717 -0.053817321 0.16106384
0.064653039 -0.053852867 0.16117021
0.0649819 -0.053852867 0.16117021
0.06535387 -0.053888414 0.16127659
0.065682948 -0.053888414 0.16127659
0.066012032 -0.053888414 0.16127659
0.066297352 -0.053852867 0.16117021
0.066406325 -0.053675137 0.1606383
0.066468932 -0.053461853 0.16
0.066662177 -0.053355217 0.15968086
0.067032628 -0.053390764 0.15978724
0.0674932 -0.0534974 0.16010638
0.067910023 -0.053568494 0.16031915
0.068146579 -0.0534974 0.16010638
0.068245791 -0.053319667 0.15957446
0.068342827 -0.053141937 0.15904255
0.068437688 -0.052964207 0.15851064
0.068530388 -0.052786473 0.15797873
0.068713635 -0.052679833 0.15765958
0.068942167 -0.05260874 0.1574468
0.069216639 -0.052573193 0.15734042
0.069490671 -0.05253765 0.15723404
0.069764264 -0.052502103 0.15712766
0.07013233 -0.05253765 0.15723404
0.070500828 -0.052573193 0.15734042
0.070821874 -0.052573193 0.15734042
0.071094826 -0.05253765 0.15723404
0.071270697 -0.052431006 0.15691489
0.071493804 -0.052359916 0.15670213
0.071667291 -0.052253276 0.15638298
0.071888447 -0.052182186 0.15617022
0.072059542 -0.052075546 0.15585107
0.072278738 -0.052004449 0.15563829
0.072348207 -0.051826719 0.15510638
0.15154721 -0.10187612 0.30489361
0.15195696 -0.10173393 0.3044681
0.15247159 -0.10166283 0.30425531
0.15298536 -0.10159174 0.30404255
0.15355201 -0.1015562 0.30393618
0.15406424 -0.1014851 0.30372339
0.15446727 -0.10134292 0.30329788
0.15486854 -0.10120073 0.30287233
0.15526809 -0.10105855 0.30244681
0.15572073 -0.10095191 0.30212766
0.15617207 -0.10084527 0.30180851
0.1566221 -0.10073863 0.30148935
0.1571818 -0.10070308 0.30138299
0.15779677 -0.10070308 0.30138299
0.15852356 -0.10077418 0.30159575
0.1591951 -0.10080973 0.30170214
0.15981071 -0.10080973 0.30170214
0.16025661 -0.10070308 0.30138299
0.16058765 -0.10052536 0.30085108
0.1608025 -0.10027652 0.30010638
0.16095711 -0.099992149 0.29925531
0.16122313 -0.099778883 0.29861704
0.16160183 -0.099636689 0.29819149
0.16215239 -0.099601142 0.29808509
0.16270255 -0.099565595 0.29797873
0.16313565 -0.099458955 0.29765958
0.16350892 -0.099316768 0.29723403
0.16388047 -0.099174589 0.29680851
0.16430923 -0.099067949 0.29648936
0.16479586 -0.098996855 0.2962766
0.1654598 -0.099032402 0.29638299
0.16624337 -0.099139035 0.29670212
0.16696844 -0.099210136 0.29691491
0.16769436 -0.099281229 0.29712766
0.16824038 -0.099245675 0.29702127
0.16878597 -0.099210136 0.29691491
0.16939181 -0.099210136 0.29691491
0.17005856 -0.099245675 0.29702127
0.17066462 -0.099245675 0.29702127
0.171148 -0.099174589 0.29680851
0.17144583 -0.098996855 0.2962766
