# .PCD v0.7 - Point Cloud Data file format
VERSION 0.7
FIELDS x y z
SIZE 4 4 4
TYPE F F F
COUNT 1 1 1
WIDTH 1415
HEIGHT 1
VIEWPOINT 0 0 0 1 0 0 0
POINTS 1415
DATA ascii
-0.15974647 0.12576471 0.28638297
-0.15880741 0.12548439 0.28574467
-0.15792987 0.12525082 0.28521276
-0.15711319 0.12506394 0.28478724
-0.15629824 0.12487707 0.28436169
-0.1555433 0.12473693 0.28404257
-0.15484767 0.12464347 0.28382978
-0.15415293 0.12455004 0.28361702
-0.15351665 0.12450332 0.28351063
-0.1529382 0.12450332 0.28351063
-0.15230259 0.12445661 0.28340426
-0.15161045 0.12436318 0.2831915
-0.15097591 0.12431645 0.28308511
-0.15045486 0.12436318 0.2831915
-0.14998966 0.12445661 0.28340426
-0.1494675 0.12450332 0.28351063
-0.14888905 0.12450332 0.28351063
-0.1481993 0.12440989 0.28329787
-0.14756586 0.12436318 0.2831915
-0.14698806 0.12436318 0.2831915
-0.14663026 0.12455004 0.28361702
-0.1463255 0.12478364 0.28414893
-0.14601858 0.12501723 0.28468084
-0.1456008 0.12515737 0.285
-0.1451817 0.12529753 0.28531915
-0.14465348 0.12534426 0.28542554
-0.14412481 0.12539096 0.28553191
-0.14359573 0.12543769 0.2856383
-0.14306618 0.12548439 0.28574467
-0.14258929 0.12557785 0.28595746
-0.14205866 0.12562455 0.28606382
-0.14142239 0.12557785 0.28595746
-0.14078656 0.12553112 0.28585106
-0.14020333 0.12553112 0.28585106
-0.13972402 0.12562455 0.28606382
-0.13934734 0.12581143 0.28648937
-0.13896891 0.1259983 0.28691489
-0.13864008 0.12623189 0.2874468
-0.13830906 0.12646547 0.28797871
-0.13787411 0.12660563 0.28829786
-0.1372859 0.12660563 0.28829786
-0.13654636 0.12646547 0.28797871
-0.13575789 0.12627861 0.28755319
-0.13512118 0.12623189 0.2874468
-0.13448492 0.12618518 0.28734043
-0.13384908 0.12613845 0.28723404
-0.13321368 0.12609175 0.28712767
-0.13267699 0.12613845 0.28723404
-0.1322377 0.12627861 0.28755319
-0.13179712 0.12641877 0.28787234
-0.13140373 0.12660563 0.28829786
-0.1310086 0.12679251 0.28872341
-0.13061172 0.12697938 0.28914893
-0.13006961 0.1270261 0.28925532
-0.12947944 0.1270261 0.28925532
-0.12884186 0.12697938 0.28914893
-0.12815754 0.12688594 0.28893617
-0.12752104 0.12683922 0.28882977
-0.12693174 0.12683922 0.28882977
-0.12648204 0.12697938 0.28914893
-0.12612368 0.12721296 0.28968084
-0.12567094 0.12735312 0.28999999
-0.12512514 0.12739985 0.29010639
-0.12457891 0.12744656 0.29021278
-0.12403222 0.12749328 0.29031914
-0.12362082 0.12768015 0.29074469
-0.12325268 0.12791374 0.2912766
-0.12279279 0.1280539 0.29159576
-0.12210867 0.12796046 0.29138297
-0.12129233 0.12772687 0.29085106
-0.12052232 0.12753999 0.29042554
-0.11992977 0.12753999 0.29042554
-0.11951205 0.12772687 0.29085106
-0.11904912 0.12786701 0.29117021
-0.11845504 0.12786701 0.29117021
-0.11768872 0.12768015 0.29074469
-0.11683843 0.12739985 0.29010639
-0.11599076 0.12711953 0.28946808
-0.11523051 0.12693267 0.28904256
-0.11459857 0.12688594 0.28893617
-0.11396708 0.12683922 0.28882977
-0.11337777 0.12683922 0.28882977
-0.11274693 0.12679251 0.28872341
-0.11224049 0.12688594 0.28893617
-0.11181542 0.12707283 0.28936172
-0.11155216 0.12744656 0.29021278
-0.11120407 0.12772687 0.29085106
-0.11069156 0.1278203 0.29106382
-0.10997698 0.12768015 0.29074469
-0.10914364 0.12739985 0.29010639
-0.10827309 0.12707283 0.28936172
-0.10740557 0.12674579 0.28861701
-0.10665921 0.12655891 0.2881915
-0.10607121 0.12655891 0.2881915
-0.10563896 0.12674579 0.28861701
-0.10524369 0.12697938 0.28914893
-0.10476925 0.12711953 0.28946808
-0.10421694 0.12716626 0.28957447
-0.10362612 0.12716626 0.28957447
-0.10303529 0.12716626 0.28957447
-0.10255738 0.12730642 0.28989363
-0.10207816 0.12744656 0.29021278
-0.10152324 0.12749328 0.29031914
-0.10089391 0.12744656 0.29021278
-0.10022825 0.12735312 0.28999999
-0.099636555 0.12735312 0.28999999
-0.099044867 0.12735312 0.28999999
-0.098417066 0.12730642 0.28989363
-0.097753786 0.12721296 0.28968084
-0.097055711 0.12707283 0.28936172
-0.096358925 0.12693267 0.28904256
-0.095698684 0.12683922 0.28882977
-0.09500429 0.12669908 0.28851065
-0.0943112 0.12655891 0.2881915
-0.093584806 0.12637204 0.28776595
-0.09282577 0.12613845 0.28723404
-0.092068911 0.12590487 0.28670213
-0.091348171 0.125718 0.28627661
-0.090696611 0.12562455 0.28606382
-0.090112954 0.12562455 0.28606382
-0.089562595 0.12567128 0.28617021
-0.088945635 0.12562455 0.28606382
-0.088230535 0.12543769 0.2856383
-0.087419234 0.12511066 0.2848936
-0.086643413 0.12483036 0.28425533
-0.085934602 0.12464347 0.28382978
-0.085323513 0.12459677 0.28372341
-0.084681071 0.12450332 0.28351063
-0.083976395 0.12431645 0.28308511
-0.083210759 0.12403615 0.2824468
-0.082541108 0.12389599 0.28212765
-0.081903666 0.12380256 0.28191489
-0.081297785 0.12375585 0.28180853
-0.080692336 0.12370913 0.28170213
-0.080057062 0.12361569 0.28148937
-0.079422653 0.12352224 0.28127658
-0.078759305 0.12338211 0.28095746
-0.078038029 0.1231485 0.28042552
-0.077348329 0.12296163 0.28
-0.076689526 0.12282148 0.27968085
-0.076118894 0.12282148 0.27968085
-0.075548254 0.12282148 0.27968085
-0.07492058 0.12272805 0.27946809
-0.074265473 0.12258789 0.27914894
-0.073583581 0.12240103 0.27872342
-0.072959155 0.12230758 0.27851063
-0.072307952 0.12216742 0.27819148
-0.071685493 0.12207399 0.27797872
-0.071036674 0.12193384 0.27765957
-0.070443168 0.12188713 0.2775532
-0.069850087 0.1218404 0.27744681
-0.069230877 0.12174697 0.27723405
-0.068559833 0.1215601 0.2768085
-0.067864403 0.12132651 0.27627659
-0.067197055 0.12113964 0.27585107
-0.066582836 0.12104621 0.27563831
-0.066020451 0.12104621 0.27563831
-0.065432794 0.12099949 0.27553192
-0.064820528 0.12090605 0.27531916
-0.064184308 0.12076589 0.27500001
-0.063549377 0.12062574 0.27468085
-0.062940158 0.1205323 0.27446809
-0.062307619 0.12039215 0.27414894
-0.061700348 0.12029872 0.27393618
-0.061117686 0.120252 0.27382979
-0.06055899 0.120252 0.27382979
-0.060023602 0.12029872 0.27393618
-0.059487779 0.12034543 0.27404255
-0.058882892 0.120252 0.27382979
-0.058278877 0.12015856 0.27361703
-0.057630844 0.11997169 0.27319148
-0.057006773 0.11983152 0.27287233
-0.056428023 0.11978482 0.27276596
-0.055871494 0.11978482 0.27276596
-0.055336539 0.11983152 0.27287233
-0.05473708 0.11973809 0.27265957
-0.054096214 0.11955123 0.27223405
-0.053478003 0.11941107 0.2719149
-0.052923214 0.11941107 0.2719149
-0.052409396 0.1195045 0.27212766
-0.051894713 0.11959794 0.27234042
-0.051319003 0.11955123 0.27223405
-0.050723881 0.11945778 0.27202126
-0.050149255 0.11941107 0.2719149
-0.049613863 0.11945778 0.27202126
-0.049078044 0.1195045 0.27212766
-0.048522819 0.1195045 0.27212766
-0.047930092 0.11941107 0.2719149
-0.047356762 0.11936435 0.27180851
-0.046820506 0.11941107 0.2719149
-0.046265718 0.11941107 0.2719149
-0.04569304 0.11936435 0.27180851
-0.045103133 0.11927092 0.27159575
-0.044514094 0.11917748 0.27138299
-0.043943156 0.11913076 0.27127659
-0.043389663 0.11913076 0.27127659
-0.04280258 0.11903733 0.27106383
-0.042216364 0.1189439 0.27085108
-0.041647375 0.11889718 0.27074468
-0.041094974 0.11889718 0.27074468
-0.040542569 0.11889718 0.27074468
-0.039974451 0.11885045 0.27063829
-0.039406769 0.11880374 0.27053192
-0.038839519 0.11875702 0.27042553
-0.038272709 0.11871031 0.27031916
-0.037676636 0.11857016 0.27000001
-0.037111122 0.11852343 0.26989362
-0.036531635 0.11843 0.26968086
-0.035981402 0.11843 0.26968086
-0.035431169 0.11843 0.26968086
-0.034867175 0.11838327 0.26957446
-0.034317158 0.11838327 0.26957446
-0.033767141 0.11838327 0.26957446
-0.033230234 0.11843 0.26968086
-0.032692891 0.11847671 0.26978722
-0.032142442 0.11847671 0.26978722
-0.031579535 0.11843 0.26968086
-0.030992581 0.11828984 0.2693617
-0.030394904 0.11810296 0.26893616
-0.029822579 0.11800953 0.2687234
-0.029274298 0.11800953 0.2687234
-0.028748762 0.11810296 0.26893616
-0.028233513 0.11824312 0.26925531
-0.027695088 0.11828984 0.2693617
-0.027145507 0.11828984 0.2693617
-0.026595924 0.11828984 0.2693617
-0.026046341 0.11828984 0.2693617
-0.025476621 0.11819641 0.26914895
-0.024888061 0.11800953 0.2687234
-0.02430124 0.11782266 0.26829788
-0.023716152 0.11763579 0.26787233
-0.023160409 0.11758908 0.26776597
-0.022614082 0.11758908 0.26776597
-0.022067755 0.11758908 0.26776597
-0.02152143 0.11758908 0.26776597
-0.020975104 0.11758908 0.26776597
-0.020428777 0.11758908 0.26776597
-0.019882452 0.11758908 0.26776597
-0.019336125 0.11758908 0.26776597
-0.018782333 0.11754236 0.26765957
-0.018228974 0.11749563 0.26755318
-0.017676054 0.11744892 0.26744682
-0.017123563 0.1174022 0.26734042
-0.016564911 0.11730877 0.26712766
-0.016013507 0.11726204 0.26702127
-0.015462538 0.11721534 0.2669149
-0.014912003 0.11716861 0.26680851
-0.01436763 0.11716861 0.26680851
-0.013823257 0.11716861 0.26680851
-0.013273589 0.11712189 0.26670212
-0.012724357 0.11707518 0.26659575
-0.012180418 0.11707518 0.26659575
-0.011641122 0.11712189 0.26670212
-0.011096966 0.11712189 0.26670212
-0.010552811 0.11712189 0.26670212
-0.010004664 0.11707518 0.26659575
-0.0094569493 0.11702845 0.26648936
-0.0089096697 0.11698174 0.26638299
-0.0083628241 0.11693502 0.2662766
-0.0078164125 0.1168883 0.2661702
-0.007273342 0.1168883 0.2661702
-0.0067302715 0.1168883 0.2661702
-0.006187201 0.1168883 0.2661702
-0.0056441305 0.1168883 0.2661702
-0.0051051383 0.11698174 0.26638299
-0.0045616338 0.11698174 0.26638299
-0.0040181293 0.11698174 0.26638299
-0.0034704616 0.11684159 0.26606384
-0.0029229259 0.11665471 0.26563829
-0.0023771266 0.11646785 0.26521277
-0.0018345367 0.1163744 0.26499999
-0.0012943734 0.11642113 0.26510638
-0.0007543806 0.11656128 0.26542553
-0.00021325606 0.11679487 0.26595744
0.00032990726 0.11698174 0.26638299
0.00087376055 0.11702845 0.26648936
0.0014169164 0.11698174 0.26638299
0.0019572892 0.11679487 0.26595744
0.0024959256 0.116608 0.26553193
0.0030328254 0.11642113 0.26510638
0.003569423 0.11628097 0.26478723
0.0041047181 0.11614081 0.26446807
0.0046424479 0.1160941 0.26436171
0.0051818285 0.1160941 0.26436171
0.0057212091 0.1160941 0.26436171
0.0062631085 0.11614081 0.26446807
0.0068054427 0.11618754 0.26457447
0.0073452573 0.11618754 0.26457447
0.0078850714 0.11618754 0.26457447
0.0084248865 0.11618754 0.26457447
0.0089610955 0.11614081 0.26446807
0.0095006935 0.11614081 0.26446807
0.010040291 0.11614081 0.26446807
0.010579889 0.11614081 0.26446807
0.011119486 0.11614081 0.26446807
0.011654395 0.1160941 0.26436171
0.012188868 0.11604737 0.26425532
0.012722908 0.11600067 0.26414895
0.013256513 0.11595394 0.26404256
0.013773008 0.11576707 0.26361701
0.01428777 0.1155802 0.26319149
0.014806786 0.11544005 0.26287234
0.01533071 0.11534661 0.26265958
0.015860191 0.11529989 0.26255319
0.016389238 0.11525318 0.26244682
0.016924711 0.11525318 0.26244682
0.017460186 0.11525318 0.26244682
0.017988363 0.11520646 0.26234043
0.018508596 0.11511303 0.26212767
0.01903569 0.1150663 0.26202127
0.019570295 0.1150663 0.26202127
0.0201049 0.1150663 0.26202127
0.020656265 0.11515974 0.26223403
0.021191305 0.11515974 0.26223403
0.021726344 0.11515974 0.26223403
0.022261383 0.11515974 0.26223403
0.022787176 0.11511303 0.26212767
0.023321999 0.11511303 0.26212767
0.023866501 0.11515974 0.26223403
0.02440154 0.11515974 0.26223403
0.024936579 0.11515974 0.26223403
0.025450954 0.1150663 0.26202127
0.025953908 0.11492614 0.26170212
0.026466327 0.11483271 0.26148936
0.026999848 0.11483271 0.26148936
0.027544569 0.11487944 0.26159576
0.028078306 0.11487944 0.26159576
0.028612044 0.11487944 0.26159576
0.029145781 0.11487944 0.26159576
0.029667446 0.11483271 0.26148936
0.03018868 0.11478599 0.26138297
0.030709481 0.11473928 0.2612766
0.031242566 0.11473928 0.2612766
0.031749777 0.11464585 0.26106384
0.032256115 0.1145524 0.26085106
0.032748219 0.11441225 0.2605319
0.033239018 0.1142721 0.26021278
0.03374232 0.11417866 0.25999999
0.034272801 0.11417866 0.25999999
0.034817524 0.11422538 0.26010638
0.03536268 0.1142721 0.26021278
0.035878919 0.11422538 0.26010638
0.036394726 0.11417866 0.25999999
0.036910102 0.11413195 0.25989363
0.037440367 0.11413195 0.25989363
0.037970629 0.11413195 0.25989363
0.038500894 0.11413195 0.25989363
0.0389992 0.1140385 0.25968084
0.039464258 0.11385164 0.25925532
0.039943986 0.11371148 0.25893617
0.040439043 0.11361805 0.25872341
0.040966921 0.11361805 0.25872341
0.041528918 0.11371148 0.25893617
0.042091787 0.11380491 0.25914893
0.04263803 0.11385164 0.25925532
0.043166991 0.11385164 0.25925532
0.043678019 0.11380491 0.25914893
0.044170473 0.11371148 0.25893617
0.044643689 0.11357132 0.25861701
0.045097027 0.11338446 0.2581915
0.045548622 0.11319758 0.25776595
0.046036515 0.11310415 0.25755319
0.046542767 0.11305743 0.2574468
0.047087491 0.11310415 0.25755319
0.04761298 0.11310415 0.25755319
0.048098706 0.11301072 0.25734043
0.048603658 0.11296399 0.25723404
0.049108181 0.11291728 0.25712767
0.049632799 0.11291728 0.25712767
0.05017817 0.11296399 0.25723404
0.050723977 0.11301072 0.25734043
0.051270217 0.11305743 0.2574468
0.051774088 0.11301072 0.25734043
0.052234281 0.11287056 0.25702128
0.052671332 0.11268368 0.25659573
0.053128712 0.11254354 0.25627661
0.05360705 0.11245009 0.25606382
0.0541295 0.11245009 0.25606382
0.054629248 0.11240339 0.25595745
0.055151481 0.11240339 0.25595745
0.055627435 0.11230995 0.2557447
0.056102518 0.1122165 0.25553191
0.056553159 0.11207635 0.25521275
0.057026293 0.11198292 0.255
0.057522569 0.1119362 0.25489363
0.057994179 0.11184276 0.25468084
0.058464926 0.11174933 0.25446808
0.058934804 0.1116559 0.25425532
0.059478436 0.11170261 0.25436169
0.060072694 0.11184276 0.25468084
0.060668252 0.11198292 0.255
0.061239585 0.11207635 0.25521275
0.061734557 0.11202964 0.25510639
0.06217717 0.11188948 0.25478724
0.062670834 0.11184276 0.25468084
0.06319046 0.11184276 0.25468084
0.063710093 0.11184276 0.25468084
0.064149231 0.11170261 0.25436169
0.064614117 0.11160918 0.25414893
0.065078132 0.11151574 0.25393617
0.06562373 0.11156246 0.25404257
0.066169746 0.11160918 0.25414893
0.066716209 0.1116559 0.25425532
0.067234971 0.1116559 0.25425532
0.067725375 0.11160918 0.25414893
0.068215355 0.11156246 0.25404257
0.068704896 0.11151574 0.25393617
0.069252014 0.11156246 0.25404257
0.06979955 0.11160918 0.25414893
0.070347533 0.1116559 0.25425532
0.070836633 0.11160918 0.25414893
0.071295448 0.11151574 0.25393617
0.071753383 0.11142231 0.25372341
0.072210446 0.11132886 0.25351062
0.072727688 0.11132886 0.25351062
0.073306412 0.11142231 0.25372341
0.073916949 0.11156246 0.25404257
0.07449761 0.1116559 0.25425532
0.075047754 0.11170261 0.25436169
0.075566731 0.11170261 0.25436169
0.076022066 0.11160918 0.25414893
0.076444492 0.11146902 0.25382978
0.076833367 0.11128215 0.25340426
0.077252969 0.11114199 0.25308511
0.077703968 0.11104856 0.25287235
0.078186996 0.11100184 0.25276595
0.078735843 0.11104856 0.25287235
0.079285115 0.11109527 0.25297871
0.079801276 0.11109527 0.25297871
0.08031743 0.11109527 0.25297871
0.080833584 0.11109527 0.25297871
0.08131554 0.11104856 0.25287235
0.081797048 0.11100184 0.25276595
0.08224348 0.1109084 0.25255319
0.082689054 0.11081497 0.25234044
0.083133742 0.11072153 0.25212765
0.083683461 0.11076825 0.25223404
0.084269114 0.11086168 0.2524468
0.084855653 0.11095513 0.25265959
0.085443042 0.11104856 0.25287235
0.085995138 0.11109527 0.25297871
0.086438537 0.11100184 0.25276595
0.086844467 0.11086168 0.2524468
0.087285914 0.11076825 0.25223404
0.087800547 0.11076825 0.25223404
0.08838968 0.11086168 0.2524468
0.088942222 0.1109084 0.25255319
0.089382142 0.11081497 0.25234044
0.089783296 0.11067482 0.25202128
0.090145029 0.11048794 0.25159574
0.09054336 0.11034779 0.25127658
0.0910175 0.11030108 0.25117022
0.091491193 0.11025435 0.25106382
0.092003442 0.11025435 0.25106382
0.092476495 0.11020764 0.25095746
0.092988528 0.11020764 0.25095746
0.093500562 0.11020764 0.25095746
0.093932882 0.11011419 0.25074467
0.094284207 0.10992733 0.25031915
0.094593503 0.10969374 0.24978724
0.095022134 0.10960031 0.24957447
0.095612787 0.10969374 0.24978724
0.096286178 0.10988061 0.25021276
0.096961319 0.11006749 0.25063831
0.097555436 0.11016092 0.25085106
0.098067254 0.11016092 0.25085106
0.098453648 0.11002076 0.25053191
0.098796725 0.1098339 0.25010639
0.099222533 0.10974046 0.24989362
0.099732399 0.10974046 0.24989362
0.10024226 0.10974046 0.24989362
0.10070923 0.10969374 0.24978724
0.10117576 0.10964702 0.24968085
0.10155521 0.10950687 0.24936171
0.10188982 0.10932 0.24893618
0.10222269 0.10913312 0.24851064
0.10264177 0.10903969 0.24829787
0.10310418 0.10899297 0.24819149
0.10361057 0.10899297 0.24819149
0.10411696 0.10899297 0.24819149
0.1045785 0.10894626 0.24808511
0.10508467 0.10894626 0.24808511
0.10563612 0.10899297 0.24819149
0.10618801 0.10903969 0.24829787
0.10674033 0.1090864 0.24840425
0.10724714 0.1090864 0.24840425
0.10775397 0.1090864 0.24840425
0.10816807 0.10899297 0.24819149
0.10853471 0.10885281 0.24787234
0.10890005 0.10871266 0.24755318
0.1093111 0.10861923 0.24734043
0.10981575 0.10861923 0.24734043
0.11036786 0.10866594 0.24744681
0.11092039 0.10871266 0.24755318
0.11147337 0.10875938 0.24765958
0.11193056 0.10871266 0.24755318
0.1122907 0.10857251 0.24723405
0.11269806 0.10847907 0.24702127
0.11320206 0.10847907 0.24702127
0.11375502 0.10852579 0.24712765
0.11440681 0.10866594 0.24744681
0.11496107 0.10871266 0.24755318
0.11546616 0.10871266 0.24755318
0.11592142 0.10866594 0.24744681
0.11632618 0.10857251 0.24723405
0.11678033 0.10852579 0.24712765
0.11723407 0.10847907 0.24702127
0.11768736 0.10843235 0.24691489
0.1180893 0.10833892 0.24670213
0.11843923 0.10819877 0.24638298
0.11868515 0.10796518 0.24585107
0.11898047 0.1077783 0.24542554
0.11937763 0.10768487 0.24521276
0.11982593 0.10763815 0.24510638
0.12032603 0.10763815 0.24510638
0.12077368 0.10759144 0.245
0.12122089 0.10754471 0.24489361
0.12172055 0.10754471 0.24489361
0.12227331 0.10759144 0.245
0.1228798 0.10768487 0.24521276
0.12343363 0.10773158 0.24531914
0.12393416 0.10773158 0.24531914
0.12443469 0.10773158 0.24531914
0.12488104 0.10768487 0.24521276
0.12532696 0.10763815 0.24510638
0.12571782 0.10754471 0.24489361
0.12610783 0.10745127 0.24468085
0.12649696 0.10735784 0.24446808
0.12688522 0.10726441 0.24425532
0.1273281 0.10721769 0.24414894
0.12788194 0.10726441 0.24425532
0.1283803 0.10726441 0.24425532
0.1287664 0.10717098 0.24404256
0.12915161 0.10707753 0.24382979
0.12953597 0.1069841 0.24361703
0.12991947 0.10689066 0.24340425
0.13024507 0.1067505 0.2430851
0.13051218 0.10656364 0.24265957
0.13089243 0.1064702 0.24244681
0.13132943 0.10642348 0.24234043
0.13188176 0.1064702 0.24244681
0.13237642 0.1064702 0.24244681
0.13292938 0.10651692 0.24255319
0.13336575 0.1064702 0.24244681
0.13380168 0.10642348 0.24234043
0.13417822 0.10633004 0.24212766
0.13461307 0.10628333 0.24202128
0.13516626 0.10633004 0.24212766
0.13571988 0.10637676 0.24223404
0.13615429 0.10633004 0.24212766
0.13652824 0.10623661 0.2419149
0.13684104 0.10609645 0.24159575
0.13721302 0.10600302 0.24138297
0.13758415 0.10590959 0.24117021
0.13813712 0.1059563 0.24127659
0.13862939 0.1059563 0.24127659
0.13912167 0.1059563 0.24127659
0.13949084 0.10586287 0.24106383
0.13985913 0.10576943 0.24085106
0.14016457 0.10562928 0.24053192
0.14059311 0.10558256 0.24042553
0.14108366 0.10558256 0.24042553
0.14151156 0.10553584 0.24031915
0.14200188 0.10553584 0.24031915
0.14242914 0.10548913 0.24021277
0.14298254 0.10553584 0.24031915
0.14353637 0.10558256 0.24042553
0.14409065 0.10562928 0.24053192
0.14458142 0.10562928 0.24053192
0.14494385 0.10553584 0.24031915
0.14530541 0.10544241 0.24010639
0.14566611 0.10534897 0.23989362
0.14596112 0.10520881 0.23957446
0.14631987 0.10511538 0.2393617
0.1466125 0.10497522 0.23904255
0.14690383 0.10483507 0.2387234
0.14732522 0.10478836 0.23861702
0.14781207 0.10478836 0.23861702
0.14829892 0.10478836 0.23861702
0.1488521 0.10483507 0.2387234
0.14927262 0.10478836 0.23861702
0.14975947 0.10478836 0.23861702
0.15017934 0.10474164 0.23851064
0.15066598 0.10474164 0.23851064
0.15101779 0.1046482 0.23829788
0.15136871 0.10455476 0.23808511
0.15171878 0.10446133 0.23787235
0.15220411 0.10446133 0.23787235
0.15275773 0.10450805 0.23797873
0.15324329 0.10450805 0.23797873
0.15372884 0.10450805 0.23797873
-0.20094287 0.13953777 0.31627661
-0.20029756 0.13953777 0.31627661
-0.19958511 0.13949083 0.31617022
-0.1987392 0.13935001 0.31585106
-0.1978946 0.13920921 0.31553191
-0.19698481 0.13902147 0.31510639
-0.19614303 0.13888067 0.31478724
-0.19550076 0.13888067 0.31478724
-0.19485851 0.13888067 0.31478724
-0.1941506 0.13883373 0.31468084
-0.19311604 0.13855211 0.31404254
-0.19201888 0.13822357 0.31329787
-0.19105473 0.13798891 0.31276596
-0.19022229 0.13784809 0.3124468
-0.18952025 0.13780117 0.31234044
-0.18875431 0.13770729 0.31212765
-0.18786101 0.13751955 0.31170213
-0.18690555 0.13728487 0.31117022
-0.18588857 0.13700327 0.31053191
-0.18487419 0.13672166 0.30989361
-0.18398893 0.13653392 0.30946809
-0.18329448 0.13648698 0.3093617
-0.18285173 0.13662779 0.30968085
-0.18240768 0.13676859 0.31
-0.18189994 0.13686246 0.31021276
-0.18120484 0.13681553 0.3101064
-0.18038629 0.13667473 0.30978724
-0.17944559 0.13644005 0.30925533
-0.17844553 0.13615844 0.30861703
-0.1773255 0.13578296 0.30776596
-0.17590356 0.1351728 0.30638298
-0.17406122 0.1342341 0.30425531
-0.17168178 0.13287298 0.3011702
-0.16889195 0.13118333 0.29734042
-0.16599734 0.12939981 0.29329789
-0.16341916 0.12785095 0.28978723
-0.16151284 0.12681837 0.2874468
-0.16021167 0.12625515 0.28617021
-0.15939042 0.12606741 0.28574467
-0.15863006 0.12592661 0.28542554
-0.15787098 0.12578581 0.28510639
-0.15711319 0.125645 0.28478724
-0.15635672 0.1255042 0.28446808
-0.15571806 0.12545726 0.28436169
-0.15507984 0.12541033 0.28425533
-0.15449987 0.12541033 0.28425533
-0.15391989 0.12541033 0.28425533
-0.15322515 0.12531646 0.28404257
-0.15253127 0.12522258 0.28382978
-0.15178131 0.12508178 0.28351063
-0.15114613 0.12503484 0.28340426
-0.15062439 0.12508178 0.28351063
-0.15010226 0.12512872 0.28361702
-0.14957969 0.12517565 0.28372341
-0.14894493 0.12512872 0.28361702
-0.14825496 0.12503484 0.28340426
-0.14762129 0.12498791 0.28329787
-0.1470985 0.12503484 0.28340426
-0.14679526 0.12526952 0.28393617
-0.14659941 0.12559806 0.28468084
-0.14640056 0.12592661 0.28542554
-0.14603558 0.12611435 0.28585106
-0.14561476 0.12625515 0.28617021
-0.1451387 0.12634902 0.28638297
-0.14466178 0.12644289 0.28659573
-0.14423749 0.1265837 0.28691489
-0.14381188 0.1267245 0.28723404
-0.14343803 0.12691225 0.28765959
-0.14300959 0.12705304 0.28797871
-0.14247464 0.12709998 0.2880851
-0.14183445 0.12705304 0.28797871
-0.14119472 0.12700611 0.28787234
-0.14065932 0.12705304 0.28797871
-0.14027874 0.12724079 0.28840426
-0.13994794 0.12747546 0.28893617
-0.13966629 0.12775707 0.28957447
-0.1394331 0.12808561 0.29031914
-0.1389934 0.12822643 0.2906383
-0.13840041 0.12822643 0.2906383
-0.1375552 0.12799175 0.29010639
-0.13681261 0.12785095 0.28978723
-0.13612135 0.12775707 0.28957447
-0.13558032 0.127804 0.28968084
-0.13498928 0.127804 0.28968084
-0.13444759 0.12785095 0.28978723
-0.13395461 0.12794481 0.28999999
-0.1335097 0.12808561 0.29031914
-0.13311218 0.12827337 0.29074469
-0.13266443 0.12841415 0.29106382
-0.13221538 0.12855497 0.29138297
-0.13171698 0.12864885 0.29159576
-0.13107419 0.12860191 0.29148936
-0.13038422 0.12850803 0.2912766
-0.12969512 0.12841415 0.29106382
-0.12905407 0.12836723 0.29095745
-0.12841345 0.12832029 0.29085106
-0.12782003 0.12832029 0.29085106
-0.12731966 0.12841415 0.29106382
-0.12691109 0.12860191 0.29148936
-0.12650076 0.12878963 0.29191488
-0.12599693 0.12888351 0.29212767
-0.1254009 0.12888351 0.29212767
-0.12480487 0.12888351 0.29212767
-0.12434454 0.12902433 0.29244682
-0.1238829 0.12916511 0.29276595
-0.12337516 0.12925901 0.29297873
-0.12273281 0.12921205 0.29287234
-0.12195781 0.12902433 0.29244682
-0.12122868 0.12888351 0.29212767
-0.12063265 0.12888351 0.29212767
-0.12016776 0.12902433 0.29244682
-0.11961456 0.12907125 0.29255319
-0.11893111 0.12897739 0.29234043
-0.11807627 0.12869577 0.29170212
-0.1171812 0.12836723 0.29095745
-0.11628916 0.12803869 0.29021278
-0.11548497 0.127804 0.28968084
-0.11472516 0.12761627 0.28925532
-0.11400905 0.12747546 0.28893617
-0.11333602 0.12738159 0.28872341
-0.11266385 0.12728773 0.28851065
-0.11207519 0.12728773 0.28851065
-0.11169209 0.12752241 0.28904256
-0.11138859 0.12785095 0.28978723
-0.1110007 0.12808561 0.29031914
-0.11044882 0.12813255 0.29042554
-0.10969529 0.12794481 0.28999999
-0.10882345 0.12761627 0.28925532
-0.10791483 0.12724079 0.28840426
-0.10708885 0.12695917 0.28776595
-0.10634424 0.12677144 0.28734043
-0.10575797 0.12677144 0.28734043
-0.10524958 0.12686531 0.28755319
-0.10477905 0.12700611 0.28787234
-0.10430721 0.12714693 0.2881915
-0.10371921 0.12714693 0.2881915
-0.10313121 0.12714693 0.2881915
-0.10250535 0.12709998 0.2880851
-0.10191756 0.12709998 0.2880851
-0.10132978 0.12709998 0.2880851
-0.100742 0.12709998 0.2880851
-0.10008025 0.12700611 0.28787234
-0.09941937 0.12691225 0.28765959
-0.098759346 0.12681837 0.2874468
-0.0981002 0.1267245 0.28723404
-0.097441919 0.12663063 0.28702128
-0.096712708 0.12644289 0.28659573
-0.095985234 0.12625515 0.28617021
-0.09529496 0.12611435 0.28585106
-0.094676487 0.12606741 0.28574467
-0.094023414 0.12597354 0.28553191
-0.09337122 0.12587968 0.28531915
-0.092650682 0.12569192 0.2848936
-0.09186314 0.12541033 0.28425533
-0.091078192 0.12512872 0.28361702
-0.090329796 0.12489404 0.28308511
-0.089651026 0.12475323 0.28276595
-0.089040577 0.12470629 0.28265956
-0.088463865 0.12470629 0.28265956
-0.08785408 0.12465937 0.2825532
-0.087146133 0.12447162 0.28212765
-0.086407289 0.12423694 0.28159574
-0.08573547 0.12409614 0.28127658
-0.085064955 0.12395535 0.28095746
-0.084491715 0.12395535 0.28095746
-0.083854914 0.12386146 0.28074467
-0.083155878 0.12367373 0.28031915
-0.082427233 0.12343906 0.27978724
-0.081763007 0.12329825 0.27946809
-0.081130996 0.12320438 0.27925533
-0.080499843 0.1231105 0.27904254
-0.079869561 0.12301663 0.27882978
-0.079270415 0.12296971 0.27872342
-0.078641646 0.12287583 0.27851063
-0.078013755 0.12278196 0.27829787
-0.077297918 0.12254729 0.27776596
-0.076613635 0.12235954 0.27734041
-0.075989433 0.12226567 0.27712765
-0.075452961 0.12231261 0.27723405
-0.074944787 0.12240648 0.27744681
-0.074350186 0.12235954 0.27734041
-0.07369943 0.12221875 0.27702129
-0.073049963 0.12207794 0.27670214
-0.072429657 0.12198406 0.27648935
-0.071810231 0.12189019 0.27627659
-0.071191676 0.12179632 0.27606383
-0.070546769 0.12165552 0.27574468
-0.069957167 0.12160859 0.27563831
-0.06936799 0.12156165 0.27553192
-0.068805821 0.12156165 0.27553192
-0.0682173 0.12151472 0.27542552
-0.067576945 0.12137391 0.27510637
-0.066937909 0.12123311 0.27478725
-0.066300161 0.1210923 0.27446809
-0.06571468 0.12104537 0.2743617
-0.06512963 0.12099843 0.27425531
-0.06454502 0.1209515 0.27414894
-0.063960835 0.12090456 0.27404255
-0.063352481 0.12081069 0.27382979
-0.062769383 0.12076376 0.27372339
-0.062186729 0.12071683 0.27361703
-0.061580539 0.12062295 0.27340424
-0.06097522 0.12052908 0.27319148
-0.060394302 0.12048215 0.27308512
-0.059860427 0.12052908 0.27319148
-0.05930303 0.12052908 0.27319148
-0.058722764 0.12048215 0.27308512
-0.058120262 0.12038828 0.27287233
-0.057496198 0.12024748 0.27255321
-0.056895647 0.1201536 0.27234042
-0.056317985 0.12010667 0.27223405
-0.055762544 0.12010667 0.27223405
-0.0552071 0.12010667 0.27223405
-0.054608941 0.12001279 0.27202126
-0.053969376 0.11982506 0.27159575
-0.053373393 0.1197312 0.27138299
-0.052819684 0.1197312 0.27138299
-0.052306954 0.11982506 0.27159575
-0.051793355 0.11991893 0.27180851
-0.051238783 0.11991893 0.27180851
-0.050664373 0.119872 0.27170214
-0.050090395 0.11982506 0.27159575
-0.049555659 0.119872 0.27170214
-0.049001303 0.119872 0.27170214
-0.048409004 0.11977812 0.27148935
-0.047817577 0.11968425 0.27127659
-0.047245551 0.11963731 0.2711702
-0.046692278 0.11963731 0.2711702
-0.04615711 0.11968425 0.27127659
-0.045585737 0.11963731 0.2711702
-0.045014799 0.11959039 0.27106383
-0.044461746 0.11959039 0.27106383
-0.043925919 0.11963731 0.2711702
-0.043372646 0.11963731 0.2711702
-0.042785779 0.11954345 0.27095744
-0.042183198 0.11940264 0.27063829
-0.041614648 0.11935571 0.27053192
-0.04104653 0.11930877 0.27042553
-0.040494777 0.11930877 0.27042553
-0.039927315 0.11926185 0.27031916
-0.039360281 0.11921491 0.27021277
-0.038793683 0.11916797 0.27010638
-0.038212456 0.1190741 0.26989362
-0.0376321 0.11898023 0.26968086
-0.037052613 0.11888637 0.2694681
-0.036488403 0.11883943 0.2693617
-0.035924625 0.11879248 0.26925531
-0.03537526 0.11879248 0.26925531
-0.034825895 0.11879248 0.26925531
-0.03427653 0.11879248 0.26925531
-0.03371384 0.11874556 0.26914895
-0.033164691 0.11874556 0.26914895
-0.032615546 0.11874556 0.26914895
-0.032066397 0.11874556 0.26914895
-0.031504791 0.11869862 0.26904255
-0.03093138 0.11860475 0.26882979
-0.030334787 0.118417 0.26840425
-0.029763548 0.11832314 0.26819149
-0.029227944 0.11837008 0.26829788
-0.028714649 0.11851089 0.26861703
-0.028200049 0.11865168 0.26893616
-0.027662273 0.11869862 0.26904255
-0.027113343 0.11869862 0.26904255
-0.026564412 0.11869862 0.26904255
-0.026005194 0.11865168 0.26893616
-0.025446411 0.11860475 0.26882979
-0.024858503 0.118417 0.26840425
-0.024253061 0.1181354 0.26776597
-0.023669058 0.11794765 0.26734042
-0.023095995 0.11780685 0.26702127
-0.022542207 0.11775992 0.2669149
-0.022006383 0.11780685 0.26702127
-0.021470128 0.11785379 0.26712766
-0.020925103 0.11785379 0.26712766
-0.02038008 0.11785379 0.26712766
-0.019835055 0.11785379 0.26712766
-0.019282348 0.11780685 0.26702127
-0.018730078 0.11775992 0.2669149
-0.018185487 0.11775992 0.2669149
-0.017647928 0.11780685 0.26702127
-0.017103121 0.11780685 0.26702127
-0.016558314 0.11780685 0.26702127
-0.016007129 0.11775992 0.2669149
-0.01544405 0.11761912 0.26659575
-0.01488822 0.11752525 0.26638299
-0.014338986 0.11747831 0.2662766
-0.013795699 0.11747831 0.2662766
-0.013247116 0.11743137 0.2661702
-0.012698969 0.11738444 0.26606384
-0.012151254 0.1173375 0.26595744
-0.011608618 0.1173375 0.26595744
-0.011065982 0.1173375 0.26595744
-0.010527556 0.11738444 0.26606384
-0.0099807093 0.1173375 0.26595744
-0.0094342977 0.11729056 0.26585105
-0.008888321 0.11724363 0.26574469
-0.0083427774 0.11719669 0.26563829
-0.0078007919 0.11719669 0.26563829
-0.0072588068 0.11719669 0.26563829
-0.0067195119 0.11724363 0.26574469
-0.0061773099 0.11724363 0.26574469
-0.0056373631 0.11729056 0.26585105
-0.0050969827 0.1173375 0.26595744
-0.0045543467 0.1173375 0.26595744
-0.0040085008 0.11724363 0.26574469
-0.0034621358 0.11710283 0.26542553
-0.002917073 0.11696202 0.26510638
-0.0023733126 0.11682121 0.26478723
-0.0018315909 0.11672734 0.26457447
-0.0012922958 0.11677429 0.26468086
-0.0007531711 0.11691508 0.26499999
-0.00021291486 0.11714977 0.26553193
0.00032938024 0.1173375 0.26595744
0.0008727141 0.11743137 0.2661702
0.0014146528 0.1173375 0.26595744
0.0019541576 0.11714977 0.26553193
0.0024919256 0.11696202 0.26510638
0.0030279576 0.11677429 0.26468086
0.0035622527 0.11658654 0.26425532
0.0040964629 0.11644574 0.26393616
0.0046331072 0.11639881 0.2638298
0.0051714024 0.11639881 0.2638298
0.0057119993 0.11644574 0.26393616
0.0062530311 0.11649267 0.26404256
0.0067917607 0.11649267 0.26404256
0.0073304898 0.11649267 0.26404256
0.0078660483 0.11644574 0.26393616
0.0084011741 0.11639881 0.2638298
0.0089394692 0.11639881 0.2638298
0.0094777644 0.11639881 0.2638298
0.01001606 0.11639881 0.2638298
0.010554355 0.11639881 0.2638298
0.011088177 0.11635187 0.2637234
0.011626255 0.11635187 0.2637234
0.012164333 0.11635187 0.2637234
0.012697287 0.11630493 0.26361701
0.013224466 0.11621106 0.26340425
0.013745219 0.11607026 0.2630851
0.014253118 0.11583558 0.26255319
0.014770832 0.11569478 0.26223403
0.015293453 0.11560091 0.26202127
0.015821632 0.11555397 0.26191488
0.016356019 0.11555397 0.26191488
0.016890408 0.11555397 0.26191488
0.017424796 0.11555397 0.26191488
0.017951891 0.11550704 0.26180851
0.01847855 0.1154601 0.26170212
0.018997047 0.11536624 0.26148936
0.019530566 0.11536624 0.26148936
0.020064088 0.11536624 0.26148936
0.020605987 0.11541317 0.26159576
0.021139724 0.11541317 0.26159576
0.021673461 0.11541317 0.26159576
0.022207199 0.11541317 0.26159576
0.022731688 0.11536624 0.26148936
0.023255741 0.1153193 0.26138297
0.023789044 0.1153193 0.26138297
0.024332248 0.11536624 0.26148936
0.024855649 0.1153193 0.26138297
0.025378622 0.11527237 0.2612766
0.025880056 0.11513156 0.26095745
0.026380187 0.11499076 0.2606383
0.026900986 0.11494381 0.2605319
0.027443755 0.11499076 0.2606383
0.027986959 0.11503769 0.26074469
0.028530592 0.11508462 0.26085106
0.029062809 0.11508462 0.26085106
0.029582961 0.11503769 0.26074469
0.03011496 0.11503769 0.26074469
0.030634455 0.11499076 0.2606383
0.031153517 0.11494381 0.2605319
0.031659208 0.11484995 0.26031914
0.032164034 0.11475608 0.26010638
0.032654613 0.11461527 0.25978723
0.033171069 0.11456833 0.25968084
0.03367329 0.11447447 0.25946808
0.034202684 0.11447447 0.25946808
0.034717843 0.11442754 0.25936171
0.035218105 0.11433366 0.25914893
0.035717502 0.11423979 0.25893617
0.036216032 0.11414593 0.25872341
0.036728796 0.11409899 0.25861701
0.037241135 0.11405206 0.25851065
0.037784114 0.11409899 0.25861701
0.038327537 0.11414593 0.25872341
0.038839433 0.11409899 0.25861701
0.039334707 0.11400512 0.25840425
0.039796293 0.11381739 0.25797874
0.040272765 0.11367658 0.25765958
0.04079847 0.11367658 0.25765958
0.0413583 0.11377045 0.25787234
0.041918997 0.11386431 0.2580851
0.04249806 0.11400512 0.25840425
0.043025285 0.11400512 0.25840425
0.043534581 0.11395818 0.25829786
0.044025294 0.11386431 0.2580851
0.044496775 0.1137235 0.25776595
0.044948373 0.11353577 0.25734043
0.045398232 0.11334802 0.25691488
0.045865372 0.11320721 0.25659573
0.046369679 0.11316029 0.25648937
0.046912443 0.11320721 0.25659573
0.047455646 0.11325416 0.25670213
0.0479794 0.11325416 0.25670213
0.048483051 0.11320721 0.25659573
0.048986271 0.11316029 0.25648937
0.049509589 0.11316029 0.25648937
0.050012153 0.11311335 0.25638297
0.050535254 0.11311335 0.25638297
0.051037174 0.11306642 0.25627661
0.051517248 0.11297254 0.25606382
0.051974844 0.11283175 0.2557447
0.052452963 0.11273787 0.25553191
0.052930221 0.112644 0.25531915
0.053428877 0.11259706 0.25521275
0.053949591 0.11259706 0.25521275
0.054447602 0.11255014 0.25510639
0.0549681 0.11255014 0.25510639
0.055465456 0.11250319 0.255
0.055939022 0.11240933 0.25478724
0.056388147 0.11226852 0.25446808
0.056859761 0.11217465 0.25425532
0.057354514 0.11212771 0.25414893
0.057848834 0.11208079 0.25404257
0.058318272 0.11198691 0.25382978
0.058786847 0.11189304 0.25361702
0.059279427 0.1118461 0.25351062
0.059846859 0.11193998 0.25372341
0.060440466 0.11208079 0.25404257
0.060984313 0.11212771 0.25414893
0.061502859 0.11212771 0.25414893
0.061969481 0.11203385 0.25393617
0.06246141 0.11198691 0.25382978
0.062979303 0.11198691 0.25382978
0.063470587 0.11193998 0.25372341
0.063907772 0.11179917 0.25340426
0.064343654 0.11165837 0.25308511
0.064832762 0.11161143 0.25297871
0.065376401 0.11165837 0.25308511
0.065920472 0.11170531 0.2531915
0.066492893 0.11179917 0.25340426
0.067038037 0.1118461 0.25351062
0.067583635 0.11189304 0.25361702
0.06807252 0.1118461 0.25351062
0.068560988 0.11179917 0.25340426
0.069020011 0.11170531 0.2531915
0.069478162 0.11161143 0.25297871
0.069935448 0.11151756 0.25276595
0.070391871 0.11142369 0.25255319
0.070847422 0.11132983 0.25234044
0.071302101 0.11123595 0.25212765
0.071816519 0.11123595 0.25212765
0.072391987 0.11132983 0.25234044
0.072968312 0.11142369 0.25255319
0.073545501 0.11151756 0.25276595
0.074154735 0.11165837 0.25308511
0.074733883 0.11175223 0.25329787
0.075219087 0.11170531 0.2531915
0.07567203 0.11161143 0.25297871
0.076060034 0.11142369 0.25255319
0.076446295 0.11123595 0.25212765
0.076863304 0.11109515 0.25180852
0.07731168 0.11100128 0.25159574
0.077792116 0.11095434 0.25148937
0.07830523 0.11095434 0.25148937
0.078818351 0.11095434 0.25148937
0.079365015 0.11100128 0.25159574
0.079912134 0.11104821 0.25170213
0.08042568 0.11104821 0.25170213
0.080939233 0.11104821 0.25170213
0.081452787 0.11104821 0.25170213
0.081931688 0.11100128 0.25159574
0.082375303 0.11090741 0.25138298
0.082818046 0.11081354 0.25117022
0.083330512 0.11081354 0.25117022
0.083914004 0.11090741 0.25138298
0.084534086 0.11104821 0.25170213
0.08515548 0.11118902 0.25202128
0.085705839 0.11123595 0.25212765
0.086147502 0.11114208 0.25191489
0.086515099 0.11095434 0.25148937
0.08688096 0.1107666 0.25106382
0.087393209 0.1107666 0.25106382
0.08797995 0.11086047 0.25127658
0.08856757 0.11095434 0.25148937
0.089080684 0.11095434 0.25148937
0.089442201 0.1107666 0.25106382
0.089763872 0.11053193 0.25053191
0.090121701 0.11034419 0.25010639
0.090516344 0.11020339 0.24978724
0.09098722 0.11015645 0.24968085
0.091496646 0.11015645 0.24968085
0.091966875 0.11010952 0.24957447
0.09239725 0.11001565 0.24936171
0.092906028 0.11001565 0.24936171
0.093374945 0.10996871 0.24925531
0.093763299 0.10982791 0.24893618
0.094150342 0.1096871 0.24861702
0.0946576 0.1096871 0.24861702
0.095246293 0.10978097 0.24882978
0.095917739 0.10996871 0.24925531
0.096549764 0.11010952 0.24957447
0.09710034 0.11015645 0.24968085
0.097609773 0.11015645 0.24968085
0.097993784 0.11001565 0.24936171
0.09837649 0.10987484 0.24904256
0.09880013 0.10978097 0.24882978
0.099265359 0.10973404 0.2487234
0.099730164 0.1096871 0.24861702
0.10019453 0.10964017 0.24851064
0.10061534 0.10954629 0.24829787
0.1010353 0.10945243 0.24808511
0.10141084 0.10931162 0.24776596
0.10178509 0.10917081 0.24744681
0.10220201 0.10907695 0.24723405
0.10270644 0.10907695 0.24723405
0.10316646 0.10903001 0.24712765
0.10367068 0.10903001 0.24712765
0.10408521 0.10893614 0.24691489
0.10449887 0.10884227 0.24670213
0.10500222 0.10884227 0.24670213
0.10555106 0.10888921 0.24680851
0.10610034 0.10893614 0.24691489
0.10669598 0.10903001 0.24712765
0.1072002 0.10903001 0.24712765
0.10765805 0.10898307 0.24702127
0.10802232 0.10884227 0.24670213
0.10843206 0.1087484 0.24648936
0.10888796 0.10870147 0.24638298
0.10939066 0.10870147 0.24638298
0.10989336 0.10870147 0.24638298
0.11039606 0.10870147 0.24638298
0.11089876 0.10870147 0.24638298
0.11130525 0.10860759 0.24617021
0.1117592 0.10856066 0.24606383
0.11221271 0.10851373 0.24595745
0.11271454 0.10851373 0.24595745
0.11326534 0.10856066 0.24606383
0.11386576 0.10865453 0.2462766
0.11436825 0.10865453 0.2462766
0.11487073 0.10865453 0.2462766
0.11532336 0.10860759 0.24617021
0.11572552 0.10851373 0.24595745
0.11612681 0.10841985 0.24574468
0.1166282 0.10841985 0.24574468
0.11707889 0.10837292 0.2456383
0.11752915 0.10832598 0.24553192
0.11792783 0.10823211 0.24531914
0.11827429 0.10809131 0.245
0.11856788 0.10790357 0.24457447
0.11891151 0.10776276 0.24425532
0.11935786 0.10771583 0.24414894
0.11980378 0.1076689 0.24404256
0.12024926 0.10762195 0.24393617
0.1206943 0.10757502 0.24382979
0.12113892 0.10752809 0.24372341
0.12163619 0.10752809 0.24372341
0.12218677 0.10757502 0.24382979
0.12279132 0.1076689 0.24404256
0.12334298 0.10771583 0.24414894
0.12384112 0.10771583 0.24414894
0.12428509 0.1076689 0.24404256
0.12472861 0.10762195 0.24393617
0.12511709 0.10752809 0.24372341
0.12555954 0.10748116 0.24361703
0.12594649 0.10738728 0.24340425
0.1263326 0.10729341 0.2431915
0.1267733 0.10724647 0.2430851
0.12732497 0.10729341 0.2431915
0.12782115 0.10729341 0.2431915
0.12826121 0.10724647 0.2430851
0.12864448 0.10715261 0.24287234
0.12902687 0.10705873 0.24265957
0.12940842 0.10696487 0.24244681
0.12978908 0.10687099 0.24223404
0.13011166 0.10673019 0.2419149
0.13049038 0.10663632 0.24170212
0.13086823 0.10654245 0.24148937
0.13136093 0.10654245 0.24148937
0.13179556 0.10649551 0.24138297
0.13228805 0.10649551 0.24138297
0.13278055 0.10649551 0.24138297
0.13327305 0.10649551 0.24138297
0.1337066 0.10644858 0.24127659
0.1341397 0.10640164 0.24117021
0.13469116 0.10644858 0.24127659
0.13530265 0.10654245 0.24148937
0.13579537 0.10654245 0.24148937
0.136168 0.10644858 0.24127659
0.13641925 0.10626084 0.24085106
0.13672926 0.10612004 0.24053192
0.13703793 0.10597923 0.24021277
0.13746715 0.1059323 0.24010639
0.13795704 0.1059323 0.24010639
0.13838558 0.10588536 0.23999999
0.1388137 0.10583843 0.23989362
0.13917962 0.10574456 0.23968086
0.13954465 0.10565069 0.23946808
0.13990882 0.10555682 0.23925532
0.14039698 0.10555682 0.23925532
0.14082249 0.10550988 0.23914893
0.14137329 0.10555682 0.23925532
0.14186144 0.10555682 0.23925532
0.14247619 0.10565069 0.23946808
0.1430918 0.10574456 0.23968086
0.14364456 0.10579149 0.23978724
0.14406985 0.10574456 0.23968086
0.14443055 0.10565069 0.23946808
0.14472599 0.10550988 0.23914893
0.14508474 0.10541601 0.23893617
0.14544261 0.10532214 0.2387234
0.14579962 0.10522828 0.23851064
0.14609051 0.10508747 0.23819149
0.14644557 0.1049936 0.23797873
0.14686544 0.10494667 0.23787235
0.14735077 0.10494667 0.23787235
0.1478361 0.10494667 0.23787235
0.14825511 0.10489973 0.23776595
0.14854057 0.10475893 0.23744681
0.14895827 0.10471199 0.23734042
0.14937553 0.10466506 0.23723404
0.14979236 0.10461812 0.23712766
0.15027618 0.10461812 0.23712766
0.15062472 0.10452425 0.23691489
0.1511081 0.10452425 0.23691489
0.15159148 0.10452425 0.23691489
0.15214315 0.10457119 0.23702128
0.15269525 0.10461812 0.23712766
0.15324779 0.10466506 0.23723404
-0.19986145 0.13942863 0.31457448
-0.19921961 0.13942863 0.31457448
-0.19857779 0.13942863 0.31457448
-0.19780207 0.13933432 0.31436169
-0.19702724 0.13924003 0.31414893
-0.19618675 0.13909855 0.31382978
-0.19541387 0.13900426 0.31361702
-0.194774 0.13900426 0.31361702
-0.19406825 0.1389571 0.31351063
-0.19329733 0.1388628 0.31329787
-0.19220018 0.13853274 0.3125532
-0.19104086 0.13815552 0.31170213
-0.18988502 0.13777831 0.31085107
-0.18905647 0.13763686 0.31053191
-0.1882938 0.13754255 0.31031916
-0.18746765 0.13740109 0.31
-0.1866428 0.13725963 0.30968085
-0.18569146 0.13702388 0.30914894
-0.1846786 0.13674095 0.30851063
-0.18379529 0.13655236 0.30808511
-0.18297695 0.13641089 0.30776596
-0.18241206 0.13645805 0.30787235
-0.18190952 0.13655236 0.30808511
-0.18146873 0.13669382 0.30840427
-0.18083948 0.13669382 0.30840427
-0.18002374 0.13655236 0.30808511
-0.17896153 0.13622229 0.30734041
-0.17777891 0.13579792 0.30638298
-0.1766617 0.13542071 0.30553192
-0.17542537 0.13494919 0.3044681
-0.17394906 0.13428906 0.30297872
-0.17217454 0.13339317 0.30095744
-0.17004442 0.13221437 0.29829788
-0.16756256 0.13075264 0.29499999
-0.16497377 0.12919663 0.29148936
-0.16275924 0.12792352 0.28861701
-0.16109443 0.12707479 0.28670213
-0.16003299 0.12669757 0.28585106
-0.15933108 0.12660328 0.2856383
-0.15868917 0.12655611 0.28553191
-0.15804769 0.12650897 0.28542554
-0.15734795 0.12641466 0.28521276
-0.15670756 0.12636751 0.28510639
-0.15612586 0.12636751 0.28510639
-0.15560217 0.12641466 0.28521276
-0.15513591 0.12650897 0.28542554
-0.15449594 0.12646182 0.28531915
-0.15379903 0.12636751 0.28510639
-0.15293147 0.12613176 0.28457448
-0.15212303 0.12594314 0.28414893
-0.15148655 0.12589599 0.28404257
-0.15090701 0.12589599 0.28404257
-0.15038377 0.12594314 0.28414893
-0.14980401 0.12594314 0.28414893
-0.1491684 0.12589599 0.28404257
-0.14847755 0.12580168 0.28382978
-0.14784303 0.12575454 0.28372341
-0.14742979 0.12589599 0.28404257
-0.14712526 0.12613176 0.28457448
-0.14698291 0.12650897 0.28542554
-0.14683707 0.12688619 0.28627661
-0.14652473 0.12712194 0.28680852
-0.14615607 0.12731054 0.28723404
-0.14573176 0.127452 0.28755319
-0.14535986 0.1276406 0.28797871
-0.14509317 0.12792352 0.28861701
-0.14482389 0.12820645 0.28925532
-0.14455201 0.12848936 0.28989363
-0.14422467 0.12872511 0.29042554
-0.14373735 0.12881942 0.2906383
-0.14314435 0.12881942 0.2906383
-0.14244699 0.12872511 0.29042554
-0.14180247 0.12867796 0.29031914
-0.14136536 0.12881942 0.2906383
-0.14103001 0.12905517 0.29117021
-0.1407951 0.12938523 0.29191488
-0.14055716 0.12971531 0.29265958
-0.14016354 0.12990391 0.2930851
-0.13951491 0.12985677 0.29297873
-0.13866493 0.12962101 0.29244682
-0.13786735 0.1294324 0.29202127
-0.13722152 0.12938523 0.29191488
-0.13662592 0.12938523 0.29191488
-0.13612947 0.12947954 0.29212767
-0.13563216 0.12957385 0.29234043
-0.13518311 0.12971531 0.29265958
-0.13478167 0.12990391 0.2930851
-0.13428111 0.12999822 0.29329789
-0.13377966 0.13009253 0.29351065
-0.13313253 0.13004537 0.29340425
-0.13248585 0.12999822 0.29329789
-0.13174392 0.12985677 0.29297873
-0.13100329 0.12971531 0.29265958
-0.13031137 0.12962101 0.29244682
-0.1296203 0.12952669 0.29223403
-0.12902406 0.12952669 0.29223403
-0.12838106 0.12947954 0.29212767
-0.12783156 0.12952669 0.29223403
-0.12737426 0.12966815 0.29255319
-0.12691566 0.1298096 0.29287234
-0.12640989 0.12990391 0.2930851
-0.12576623 0.12985677 0.29297873
-0.12512301 0.1298096 0.29287234
-0.12452547 0.1298096 0.29287234
-0.12401794 0.12990391 0.2930851
-0.12346476 0.12995107 0.29319149
-0.12282197 0.12990391 0.2930851
-0.12204654 0.12971531 0.29265958
-0.12131698 0.12957385 0.29234043
-0.12067657 0.12952669 0.29223403
-0.12012404 0.12957385 0.29234043
-0.11952758 0.12957385 0.29234043
-0.11875799 0.12938523 0.29191488
-0.11790403 0.12910233 0.2912766
-0.11696697 0.12872511 0.29042554
-0.11611864 0.1284422 0.28978723
-0.11531533 0.12820645 0.28925532
-0.11451419 0.12797068 0.28872341
-0.11371522 0.12773493 0.2881915
-0.11291842 0.12749916 0.28765959
-0.11216533 0.12731054 0.28723404
-0.11157928 0.12731054 0.28723404
-0.11111657 0.127452 0.28755319
-0.11077522 0.12773493 0.2881915
-0.11030924 0.12787639 0.28851065
-0.10972059 0.12787639 0.28851065
-0.10893073 0.1276406 0.28797871
-0.10810303 0.12735771 0.28734043
-0.10723811 0.12702763 0.28659573
-0.10645542 0.12679188 0.28606382
-0.10575365 0.12665042 0.28574467
-0.10517064 0.12665042 0.28574467
-0.10462657 0.12669757 0.28585106
-0.10408207 0.12674473 0.28595746
-0.10353713 0.12679188 0.28606382
-0.10291518 0.12674473 0.28595746
-0.1022556 0.12665042 0.28574467
-0.10159688 0.12655611 0.28553191
-0.10093904 0.12646182 0.28531915
-0.10028207 0.12636751 0.28510639
-0.099663153 0.12632036 0.285
-0.098970711 0.12617891 0.28468084
-0.098279566 0.12603743 0.28436169
-0.097589739 0.12589599 0.28404257
-0.09693753 0.12580168 0.28382978
-0.09625008 0.12566023 0.28351063
-0.095528036 0.12547162 0.28308511
-0.094807714 0.125283 0.28265956
-0.094160073 0.12518871 0.2824468
-0.093548551 0.12514156 0.28234044
-0.092972487 0.12514156 0.28234044
-0.092361607 0.1250944 0.28223404
-0.091681972 0.12495295 0.28191489
-0.090900496 0.12467003 0.28127658
-0.090155788 0.12443427 0.28074467
-0.089379318 0.12415137 0.2801064
-0.088672891 0.12396275 0.27968085
-0.088035233 0.12386845 0.27946809
-0.087465033 0.12386845 0.27946809
-0.086828679 0.12377415 0.27925533
-0.086193182 0.12367984 0.27904254
-0.085558563 0.12358554 0.27882978
-0.08492481 0.12349124 0.27861702
-0.084324129 0.12344408 0.27851063
-0.083723895 0.12339693 0.27840427
-0.083124086 0.12334978 0.27829787
-0.082461596 0.12320832 0.27797872
-0.081831753 0.12311402 0.27776596
-0.081171647 0.12297256 0.27744681
-0.080512851 0.12283111 0.27712765
-0.079855353 0.12268964 0.2768085
-0.079229631 0.12259535 0.27659574
-0.078635029 0.12254819 0.27648935
-0.078010827 0.12245388 0.27627659
-0.077417322 0.12240674 0.27617022
-0.076735429 0.12221812 0.27574468
-0.076084659 0.12207667 0.27542552
-0.07546436 0.12198237 0.27521276
-0.074960746 0.12207667 0.27542552
-0.07442753 0.12212382 0.27553192
-0.073836841 0.12207667 0.27542552
-0.073218286 0.12198237 0.27521276
-0.072628677 0.12193521 0.27510637
-0.072039507 0.12188806 0.27500001
-0.071478419 0.12188806 0.27500001
-0.070889898 0.12184091 0.27489361
-0.070247374 0.12169945 0.27457446
-0.069660164 0.12165231 0.27446809
-0.069100164 0.12165231 0.27446809
-0.068566725 0.12169945 0.27457446
-0.068006508 0.12169945 0.27457446
-0.067420162 0.12165231 0.27446809
-0.066782415 0.12151085 0.27414894
-0.066145971 0.12136939 0.27382979
-0.065510832 0.12122793 0.27351063
