# .PCD v0.7 - Point Cloud Data file format
VERSION 0.7
FIELDS x y z
SIZE 4 4 4
TYPE F F F
COUNT 1 1 1
WIDTH 1396
HEIGHT 1
VIEWPOINT 0 0 0 1 0 0 0
POINTS 1396
DATA ascii
0.011177486 0.088504456 0.29457447
0.011804078 0.088696234 0.29521278
0.071465626 0.087257914 0.29042554
0.072005436 0.087193996 0.29021278
0.072544381 0.087130062 0.28999999
0.073136114 0.087130062 0.28999999
0.073754899 0.087162025 0.29010639
0.074346848 0.087162025 0.29010639
0.074938804 0.087162025 0.29010639
0.13481344 0.086458847 0.28776595
0.13545068 0.08649081 0.28787234
0.13603808 0.08649081 0.28787234
0.136474 0.086394921 0.28755319
0.1367058 0.086171187 0.28680852
0.13693455 0.085947447 0.28606382
0.13726254 0.085787632 0.28553191
0.13769108 0.085691743 0.28521276
0.13822149 0.085659787 0.28510639
-0.15490896 0.087850519 0.29042554
-0.1542033 0.08778616 0.29021278
-0.15361112 0.08778616 0.29021278
-0.15313114 0.087850519 0.29042554
-0.15270616 0.087947063 0.29074469
-0.15216856 0.087979235 0.29085106
-0.15163054 0.088011414 0.29095745
-0.15103684 0.088011414 0.29095745
-0.12110149 0.089137711 0.29468086
-0.1204567 0.089105524 0.29457447
-0.11976907 0.089041166 0.29436171
-0.11903922 0.088944629 0.29404256
-0.11831069 0.088848084 0.2937234
-0.11766872 0.088815905 0.29361701
-0.11715444 0.088880271 0.2938298
-0.11663929 0.088944629 0.29404256
-0.11616525 0.089041166 0.29436171
-0.11568992 0.089137711 0.29468086
-0.11521327 0.08923424 0.29499999
-0.114694 0.089298606 0.29521278
0.0064011323 0.089556046 0.29606384
0.0069851032 0.089298606 0.29521278
0.0075546638 0.088912442 0.29393616
0.0081308205 0.08865501 0.2930851
0.0087225139 0.088590652 0.29287234
0.0093268808 0.08865501 0.2930851
0.0099321175 0.088719375 0.29329789
0.01053822 0.088783734 0.29351065
0.011153265 0.088912442 0.29393616
0.071413271 0.08778616 0.29021278
0.071952641 0.087721795 0.28999999
0.072517768 0.087689623 0.28989363
0.073136114 0.087721795 0.28999999
0.073781945 0.08778616 0.29021278
0.074374117 0.08778616 0.29021278
0.074938804 0.087753981 0.29010639
0.13486329 0.087078206 0.28787234
0.13550073 0.087110378 0.28797871
0.13608834 0.087110378 0.28797871
0.136474 0.086981669 0.28755319
0.1367058 0.086756408 0.28680852
0.13693455 0.086531147 0.28606382
0.13726254 0.086370252 0.28553191
0.13779381 0.086338073 0.28542554
0.13837621 0.086338073 0.28542554
-0.15578635 0.088605106 0.29095745
-0.15513591 0.088572703 0.29085106
-0.15437286 0.088475518 0.2905319
-0.15372375 0.088443123 0.29042554
-0.15318722 0.088475518 0.2905319
-0.1525944 0.088475518 0.2905319
-0.15200157 0.088475518 0.2905319
-0.15140876 0.088475518 0.2905319
-0.15081593 0.088475518 0.2905319
-0.12179065 0.089803785 0.29489362
-0.12110149 0.089738995 0.29468086
-0.1203697 0.089641802 0.29436171
-0.11968248 0.089577004 0.29414892
-0.11891002 0.089447424 0.2937234
-0.11822499 0.089382626 0.29351065
-0.11762609 0.089382626 0.29351065
-0.11715444 0.089479819 0.2938298
-0.11672369 0.089609399 0.29425532
-0.11633318 0.089771383 0.29478723
-0.1158152 0.08983618 0.29499999
-0.11529637 0.089900978 0.29521278
-0.114694 0.089900978 0.29521278
-0.11409163 0.089900978 0.29521278
0.0069876201 0.089933366 0.29531914
0.0075601321 0.089577004 0.29414892
0.0081308205 0.089253038 0.2930851
0.0087130088 0.089091055 0.29255319
0.0093065696 0.08905866 0.29244682
0.0099068992 0.089091055 0.29255319
0.010507664 0.089123458 0.29265958
0.011108862 0.089155845 0.29276595
0.071282372 0.088216342 0.28968084
0.071873456 0.088216342 0.28968084
0.072464541 0.088216342 0.28968084
0.073082455 0.088248737 0.28978723
0.073700808 0.08828114 0.28989363
0.074319586 0.088313535 0.28999999
0.074883841 0.08828114 0.28989363
0.075447664 0.088248737 0.28978723
0.13481344 0.0876332 0.28776595
0.13540062 0.0876332 0.28776595
0.13598779 0.0876332 0.28776595
0.1364235 0.087536007 0.2874468
0.1367058 0.087341636 0.28680852
0.13698547 0.087147251 0.28617021
0.13741596 0.087050058 0.28585106
0.13794787 0.087017663 0.28574467
0.13858251 0.087050058 0.28585106
0.13916577 0.087050058 0.28585106
-0.1558433 0.089231402 0.29106382
-0.15519266 0.089198798 0.29095745
-0.15448593 0.089133568 0.29074469
-0.15378004 0.089068338 0.2905319
-0.15318722 0.089068338 0.2905319
-0.15253854 0.089035727 0.29042554
-0.15183462 0.088970505 0.29021278
-0.15113156 0.088905267 0.28999999
-0.15048461 0.088872656 0.28989363
-0.12317157 0.090535961 0.29531914
-0.12248068 0.090470731 0.29510638
-0.12174671 0.09037289 0.29478723
-0.12101404 0.090275049 0.29446808
-0.12023919 0.090144597 0.29404256
-0.11946607 0.090014137 0.29361701
-0.11873776 0.089916304 0.29329789
-0.11805358 0.089851066 0.2930851
-0.11749819 0.089883685 0.29319149
-0.11702719 0.089981526 0.29351065
-0.11668148 0.090177201 0.29414892
-0.11624922 0.09030766 0.29457447
-0.11577345 0.090405509 0.29489362
-0.11521327 0.090438113 0.29499999
-0.11461133 0.090438113 0.29499999
-0.11405051 0.090470731 0.29510638
0.0069825859 0.090470731 0.29510638
0.0075601321 0.090177201 0.29414892
0.00812787 0.089818463 0.29297873
0.0087035038 0.089590155 0.29223403
0.0092896409 0.089492314 0.29191488
0.0098816818 0.089459702 0.29180852
0.010484746 0.089524932 0.29202127
0.011092716 0.089622773 0.29234043
0.011706241 0.089753225 0.29276595
0.071151488 0.088644356 0.28914893
0.071715094 0.088611744 0.28904256
0.072304875 0.088611744 0.28904256
0.072921477 0.088644356 0.28914893
0.07356558 0.088709593 0.28936172
0.074210532 0.088774815 0.28957447
0.074773915 0.088742197 0.28946808
0.075364567 0.088742197 0.28946808
0.13446458 0.08799208 0.28702128
0.1352004 0.088089928 0.28734043
0.13588725 0.08815515 0.28755319
0.13637301 0.088089928 0.28734043
0.13675649 0.087959468 0.28691489
0.13713825 0.087829016 0.28648937
0.1375694 0.087731175 0.28617021
0.13810195 0.087698556 0.28606382
0.13868566 0.087698556 0.28606382
0.13921757 0.087665945 0.28595746
-0.15519266 0.089792483 0.29095745
-0.15448593 0.089726821 0.29074469
-0.15378004 0.089661159 0.2905319
-0.15313114 0.089628331 0.29042554
-0.15248266 0.089595497 0.29031914
-0.15166764 0.08946418 0.28989363
-0.15085435 0.089332849 0.28946808
-0.15015326 0.089267187 0.28925532
-0.12359581 0.091007225 0.29489362
-0.12303846 0.091040052 0.29499999
-0.12234821 0.090974391 0.29478723
-0.1216149 0.090875901 0.29446808
-0.12083918 0.090744577 0.29404256
-0.12002169 0.090580426 0.29351065
-0.11920636 0.090416275 0.29297873
-0.11847935 0.090317778 0.29265958
-0.11783933 0.090284944 0.29255319
-0.11728502 0.090317778 0.29265958
-0.11685752 0.090449095 0.2930851
-0.11642829 0.090580426 0.29351065
-0.11591335 0.090646088 0.2937234
-0.11535579 0.090678923 0.2938298
-0.11483934 0.090744577 0.29404256
-0.11436335 0.090843074 0.29436171
-0.11388606 0.090941571 0.29468086
0.0069725174 0.090941571 0.29468086
0.0075573986 0.090744577 0.29404256
0.00812787 0.090416275 0.29297873
0.0087003363 0.090153627 0.29212767
0.0092828702 0.090022296 0.29170212
0.0098744771 0.089989468 0.29159576
0.010477107 0.09005513 0.29180852
0.011096753 0.090252116 0.29244682
0.011714749 0.090416275 0.29297873
0.071072951 0.089135863 0.28882977
0.071635909 0.089103036 0.28872341
0.072198421 0.089070201 0.28861701
0.072787337 0.089070201 0.28861701
0.073430337 0.089135863 0.28882977
0.074074216 0.089201532 0.28904256
0.074664004 0.089201532 0.28904256
0.075226083 0.089168698 0.28893617
0.13426521 0.088446409 0.28659573
0.13505024 0.08857774 0.28702128
0.13573644 0.088643402 0.28723404
0.13632253 0.088643402 0.28723404
0.1368072 0.08857774 0.28702128
0.13718916 0.088446409 0.28659573
0.13762054 0.088347927 0.28627661
0.13815331 0.088315092 0.28617021
0.13868566 0.088282257 0.28606382
0.13916577 0.088216603 0.28585106
-0.15507919 0.090320081 0.29074469
-0.15442939 0.09028703 0.2906383
-0.15372375 0.090220936 0.29042554
-0.15307504 0.090187885 0.29031914
-0.15237091 0.090121791 0.29010639
-0.15150067 0.089956552 0.28957447
-0.1506326 0.089791313 0.28904256
-0.14993235 0.089725211 0.28882977
-0.12397351 0.09144371 0.29436171
-0.12337288 0.09144371 0.29436171
-0.12272786 0.091410659 0.29425532
-0.12203915 0.091344565 0.29404256
-0.12135129 0.091278471 0.2938298
-0.12057686 0.091146275 0.29340425
-0.11976067 0.090981036 0.29287234
-0.11894665 0.090815797 0.29234043
-0.11822093 0.090716653 0.29202127
-0.11762507 0.090716653 0.29202127
-0.11715712 0.090815797 0.29234043
-0.11664544 0.090881892 0.29255319
-0.11613289 0.090947986 0.29276595
-0.11549354 0.090914942 0.29265958
-0.11489637 0.090914942 0.29265958
-0.1143823 0.090981036 0.29287234
-0.11399136 0.091146275 0.29340425
0.0069725174 0.091542855 0.29468086
0.0075573986 0.091344565 0.29404256
0.0081308205 0.091047131 0.2930851
0.0087035038 0.090782747 0.29223403
0.0092862565 0.090650558 0.29180852
0.0098780785 0.090617508 0.29170212
0.010488566 0.090749703 0.29212767
0.0111129 0.090981036 0.29287234
0.011736018 0.091179326 0.29351065
0.012348329 0.091278471 0.2938298
0.071099132 0.089758262 0.28893617
0.071635909 0.089692168 0.28872341
0.072198421 0.089659117 0.28861701
0.072760507 0.089626074 0.28851065
0.073349208 0.089626074 0.28851065
0.073965162 0.089659117 0.28861701
0.074554078 0.089659117 0.28861701
0.075142987 0.089659117 0.28861701
0.13348195 0.088899016 0.28617021
0.13416554 0.08896511 0.28638297
0.13495013 0.089097306 0.28680852
0.13568617 0.089196451 0.28712767
0.13632253 0.089229494 0.28723404
0.1368072 0.0891634 0.28702128
0.1372401 0.089064255 0.28670213
0.13767166 0.08896511 0.28638297
0.13815331 0.088899016 0.28617021
0.13868566 0.088865966 0.28606382
0.13911398 0.088766821 0.28574467
0.13964503 0.088733777 0.2856383
-0.15496568 0.090846799 0.2905319
-0.15431635 0.09081354 0.29042554
-0.15361112 0.090747006 0.29021278
-0.15290676 0.090680473 0.28999999
-0.1521474 0.090580679 0.28968084
-0.15133369 0.09044762 0.28925532
-0.15052171 0.090314552 0.28882977
-0.1497667 0.090214767 0.28851065
-0.12314994 0.091878019 0.2938298
-0.12246164 0.091811486 0.29361701
-0.12177423 0.091744952 0.29340425
-0.12099981 0.091611899 0.29297873
-0.12027083 0.091512106 0.29265958
-0.11949965 0.091379039 0.29223403
-0.11877351 0.091279238 0.29191488
-0.1181348 0.091245979 0.29180852
-0.11758222 0.091279238 0.29191488
-0.11711448 0.091379039 0.29223403
-0.11656061 0.091412306 0.29234043
-0.1159641 0.091412306 0.29234043
-0.11528362 0.09134578 0.29212767
-0.11460401 0.091279238 0.29191488
0.0069775516 0.092210665 0.29489362
0.0075628669 0.092011079 0.29425532
0.0081337718 0.091678426 0.29319149
0.0087098414 0.091445573 0.29244682
0.0092930272 0.091312513 0.29202127
0.0098924898 0.09134578 0.29212767
0.010503844 0.091478832 0.29255319
0.01112501 0.091678426 0.29319149
0.01174878 0.091878019 0.2938298
0.012361741 0.091977805 0.29414892
0.070613414 0.090480886 0.28936172
0.071177661 0.09044762 0.28925532
0.071741484 0.090414353 0.28914893
0.072251648 0.090314552 0.28882977
0.072760507 0.090214767 0.28851065
0.073322162 0.0901815 0.28840426
0.073910639 0.0901815 0.28840426
0.074499115 0.0901815 0.28840426
0.075115293 0.090214767 0.28851065
0.075731903 0.090248026 0.28861701
0.13363081 0.089582734 0.28648937
0.13431506 0.08964926 0.28670213
0.13500017 0.089715786 0.28691489
0.13573644 0.089815579 0.28723404
0.13627204 0.089782327 0.28712767
0.1368072 0.089749053 0.28702128
0.1372401 0.08964926 0.28670213
0.13777395 0.089615993 0.28659573
0.13830739 0.089582734 0.28648937
0.13878882 0.0895162 0.28627661
0.13921757 0.089416407 0.28595746
0.13974905 0.08938314 0.28585106
-0.15473872 0.091305695 0.29010639
-0.15409024 0.091272205 0.28999999
-0.15338588 0.091205247 0.28978723
-0.15268241 0.091138281 0.28957447
-0.15197979 0.091071323 0.28936172
-0.15122238 0.090970874 0.28904256
-0.15041083 0.090836942 0.28861701
-0.14971147 0.090769976 0.28840426
-0.1223729 0.092343636 0.29340425
-0.12164176 0.092243187 0.2930851
-0.12078013 0.092042305 0.29244682
-0.12000851 0.091908373 0.29202127
-0.11932565 0.091841407 0.29180852
-0.11873023 0.091841407 0.29180852
-0.11817786 0.091874883 0.29191488
-0.11766793 0.091941856 0.29212767
-0.11719976 0.092042305 0.29244682
-0.11664544 0.09207578 0.29255319
-0.11604849 0.09207578 0.29255319
-0.11570345 0.092276677 0.29319149
0.0069775516 0.092812389 0.29489362
0.0075628669 0.092611492 0.29425532
0.0081337718 0.092276677 0.29319149
0.0087130088 0.09207578 0.29255319
0.0093031833 0.092008814 0.29234043
0.0099032968 0.092042305 0.29244682
0.010515302 0.092176229 0.29287234
0.011137119 0.092377119 0.29351065
0.011757286 0.092544533 0.29404256
0.012370683 0.092644982 0.29436171
0.071230017 0.091104798 0.28946808
0.071794279 0.091071323 0.28936172
0.072304875 0.090970874 0.28904256
0.072814167 0.090870425 0.28872341
0.073349208 0.090803467 0.28851065
0.073910639 0.090769976 0.28840426
0.074526601 0.090803467 0.28851065
0.075142987 0.090836942 0.28861701
0.075731903 0.090836942 0.28861701
0.13446458 0.090334713 0.28702128
0.13515034 0.090401672 0.28723404
0.13573644 0.090401672 0.28723404
0.13627204 0.090368196 0.28712767
0.13675649 0.090301223 0.28691489
0.13729101 0.090267748 0.28680852
0.13787624 0.090267748 0.28680852
0.13846147 0.090267748 0.28680852
0.13899511 0.090234265 0.28670213
0.13947654 0.090167306 0.28648937
0.13995709 0.090100341 0.28627661
-0.15392065 0.091762841 0.28968084
-0.15327327 0.091729149 0.28957447
-0.15257022 0.091661751 0.28936172
-0.15186803 0.091594346 0.28914893
-0.15116672 0.091526955 0.28893617
-0.15041083 0.091425851 0.28861701
-0.1497667 0.091392159 0.28851065
-0.11992108 0.092436835 0.29180852
-0.11932565 0.092436835 0.29180852
-0.11877351 0.092470527 0.29191488
-0.11830707 0.092571624 0.29223403
-0.11783933 0.092672728 0.29255319
-0.11737029 0.092773825 0.29287234
-0.11685752 0.092841223 0.2930851
-0.11630169 0.092874922 0.29319149
-0.11658508 0.093582608 0.29542553
0.0075519304 0.093077123 0.2938298
0.00812787 0.092807524 0.29297873
0.0087130088 0.092672728 0.29255319
0.009309954 0.092672728 0.29255319
0.0099141039 0.092740119 0.29276595
0.010522942 0.092841223 0.2930851
0.011141155 0.093009718 0.29361701
0.011757286 0.093144514 0.29404256
0.012375153 0.09327931 0.29446808
0.071256198 0.091729149 0.28957447
0.071820669 0.09169545 0.28946808
0.072331481 0.091594346 0.28914893
0.072867826 0.091526955 0.28893617
0.073403299 0.091459557 0.28872341
0.073965162 0.091425851 0.28861701
0.074581556 0.091459557 0.28872341
0.075170688 0.091459557 0.28872341
0.075759821 0.091459557 0.28872341
0.13466392 0.091055162 0.2874468
0.13525045 0.091055162 0.2874468
0.13578671 0.091021471 0.28734043
0.13617106 0.090886667 0.28691489
0.1367058 0.090852976 0.28680852
0.1372401 0.090819269 0.28670213
0.13792737 0.090886667 0.28691489
0.13861555 0.090954073 0.28712767
0.13920142 0.090954073 0.28712767
0.13973549 0.090920366 0.28702128
0.14021714 0.090852976 0.28680852
-0.15380761 0.092286095 0.28946808
-0.15321696 0.092286095 0.28946808
-0.15257022 0.092252187 0.28936172
-0.15192391 0.092218265 0.28925532
-0.15127803 0.09218435 0.28914893
-0.15057716 0.09211652 0.28893617
-0.14993235 0.092082597 0.28882977
-0.11941265 0.093100086 0.29202127
-0.11894665 0.093201838 0.29234043
-0.11852241 0.093337499 0.29276595
-0.11809643 0.093473166 0.29319149
-0.11766872 0.093608826 0.29361701
-0.11719685 0.093710579 0.29393616
-0.11663929 0.093744501 0.29404256
-0.11750869 0.094931573 0.29776597
0.007538259 0.093507089 0.29329789
0.0081249177 0.093371421 0.29287234
0.0087161781 0.093303591 0.29265958
0.009309954 0.093269669 0.29255319
0.0099105015 0.093303591 0.29265958
0.010515302 0.093371421 0.29287234
0.011133082 0.093540996 0.29340425
0.01174878 0.093676671 0.2938298
0.012366212 0.093812332 0.29425532
0.071256198 0.092320018 0.28957447
0.071820669 0.092286095 0.28946808
0.072358094 0.092218265 0.28925532
0.072894655 0.092150435 0.28904256
0.073484436 0.092150435 0.28904256
0.074074216 0.092150435 0.28904256
0.074664004 0.092150435 0.28904256
0.075226083 0.09211652 0.28893617
0.075759821 0.09204869 0.28872341
0.13476361 0.091709524 0.28765959
0.13530052 0.091675609 0.28755319
0.13573644 0.091573857 0.28723404
0.13612057 0.091438197 0.28680852
0.13660437 0.091370359 0.28659573
0.13718916 0.091370359 0.28659573
0.13792737 0.091472104 0.28691489
0.13861555 0.091539949 0.28712767
0.13930456 0.091607779 0.28734043
0.13994266 0.091641687 0.2874468
0.14052919 0.091641687 0.2874468
-0.15380761 0.092876747 0.28946808
-0.15327327 0.092910886 0.28957447
-0.15268241 0.092910886 0.28957447
-0.1521474 0.092945009 0.28968084
-0.15150067 0.092910886 0.28957447
-0.1509098 0.092910886 0.28957447
-0.15037414 0.092945009 0.28968084
-0.11929293 0.094071418 0.29319149
-0.11882389 0.094173819 0.29351065
-0.11835355 0.09427622 0.2938298
-0.11792452 0.094412751 0.29425532
-0.11740893 0.094481014 0.29446808
-0.11685029 0.094515152 0.29457447
-0.11767662 0.095675685 0.29819149
0.0075327903 0.094037279 0.2930851
0.00812787 0.094003156 0.29297873
0.0087161781 0.093900748 0.29265958
0.0093031833 0.093798347 0.29234043
0.0098960912 0.093764216 0.29223403
0.010496205 0.093798347 0.29234043
0.011108862 0.093934879 0.29276595
0.011727511 0.094105557 0.29329789
0.012352799 0.094310343 0.29393616
0.012961942 0.094378613 0.29414892
0.071256198 0.092910886 0.28957447
0.071847066 0.092910886 0.28957447
0.072384708 0.092842624 0.28936172
0.072948314 0.092808485 0.28925532
0.073538527 0.092808485 0.28925532
0.074156009 0.092842624 0.28936172
0.074746445 0.092842624 0.28936172
0.075309172 0.092808485 0.28925532
0.075815648 0.092706084 0.28893617
0.13486329 0.092364751 0.28787234
0.13535057 0.092296489 0.28765959
0.13573644 0.092159949 0.28723404
0.13612057 0.092023417 0.28680852
0.13655367 0.091921017 0.28648937
0.13713825 0.091921017 0.28648937
0.1378251 0.091989286 0.28670213
0.13856418 0.092091687 0.28702128
0.13935614 0.092228211 0.2874468
0.14014983 0.092364751 0.28787234
0.14099728 0.092535414 0.28840426
-0.15380761 0.093467399 0.28946808
-0.15332957 0.093536094 0.28968084
-0.15279458 0.093570448 0.28978723
-0.15231502 0.09363915 0.28999999
-0.15183462 0.09370786 0.29021278
-0.15129788 0.093742199 0.29031914
-0.15081593 0.093810901 0.2905319
-0.11972578 0.095013164 0.29425532
-0.11912536 0.095013164 0.29425532
-0.11861064 0.095081866 0.29446808
-0.11809506 0.095150575 0.29468086
-0.11753619 0.095184915 0.29478723
-0.11689249 0.095150575 0.29468086
-0.11708886 0.095803224 0.29670212
0.0075437273 0.094772719 0.29351065
0.0081337718 0.094669662 0.29319149
0.0087130088 0.094463557 0.29255319
0.0092896409 0.094257452 0.29191488
0.0098708738 0.094120055 0.29148936
0.010469468 0.09415441 0.29159576
0.011080606 0.094291806 0.29202127
0.011701988 0.094497912 0.29265958
0.012325975 0.094704017 0.29329789
0.012943191 0.094841413 0.2937234
0.071282372 0.093536094 0.28968084
0.071847066 0.093501754 0.28957447
0.072411321 0.093467399 0.28946808
0.072975144 0.093433052 0.28936172
0.07356558 0.093433052 0.28936172
0.074210532 0.093501754 0.28957447
0.074828878 0.093536094 0.28968084
0.075392269 0.093501754 0.28957447
0.075899392 0.093398698 0.28925532
0.076433346 0.093330003 0.28904256
0.13491312 0.092986487 0.28797871
0.13540062 0.092917792 0.28776595
0.13583697 0.092814736 0.2874468
0.13622154 0.09267734 0.28702128
0.13665508 0.092574291 0.28670213
0.13718916 0.092539936 0.28659573
0.13777395 0.092539936 0.28659573
0.13846147 0.092608646 0.28680852
0.13930456 0.092780396 0.28734043
0.14025341 0.093020841 0.2880851
0.14125732 0.093295649 0.28893617
0.17453715 0.089791909 0.27808511
0.17523855 0.089860611 0.27829787
0.17600803 0.08996366 0.27861702
0.17657654 0.08996366 0.27861702
0.17694212 0.089860611 0.27829787
0.17717071 0.08968886 0.27776596
-0.15386413 0.094092622 0.28957447
-0.15332957 0.094127178 0.28968084
-0.15290676 0.094230883 0.28999999
-0.15248266 0.094334587 0.29031914
-0.15205725 0.094438292 0.2906383
-0.15163054 0.094541997 0.29095745
-0.15109205 0.09457656 0.29106382
-0.12002876 0.095855556 0.29499999
-0.11938377 0.095820993 0.29489362
-0.1187392 0.095786422 0.29478723
-0.11813769 0.095786422 0.29478723
-0.11749378 0.095751859 0.29468086
-0.11680808 0.095682718 0.29446808
-0.11637516 0.095820993 0.29489362
0.0081308205 0.095233344 0.2930851
0.0087035038 0.0949568 0.29223403
0.0092727141 0.094680257 0.29138297
0.0098492587 0.094507426 0.29085106
0.010442731 0.094507426 0.29085106
0.011056386 0.094680257 0.29138297
0.011680719 0.094922237 0.29212767
0.012308092 0.09516421 0.29287234
0.01292444 0.095302485 0.29329789
0.071282372 0.094127178 0.28968084
0.071847066 0.094092622 0.28957447
0.072437935 0.094092622 0.28957447
0.073001966 0.094058044 0.28946808
0.073619671 0.094092622 0.28957447
0.074265063 0.094161749 0.28978723
0.074911319 0.094230883 0.28999999
0.075475365 0.09419632 0.28989363
0.076038964 0.094161749 0.28978723
0.076602131 0.094127178 0.28968084
0.13496296 0.09360867 0.2880851
0.13550073 0.093574099 0.28797871
0.13593753 0.09347041 0.28765959
0.13637301 0.093366705 0.28734043
0.1368072 0.093263 0.28702128
0.1372401 0.093159296 0.28670213
0.13772282 0.093090162 0.28648937
0.13830739 0.093090162 0.28648937
0.13914983 0.093263 0.28702128
0.14014983 0.093539536 0.28787234
0.14125732 0.093885213 0.28893617
0.14210801 0.094058044 0.28946808
0.1711804 0.091292657 0.28095746
0.17149355 0.091154382 0.28053191
0.1717397 0.090981543 0.28
0.17211463 0.090877846 0.27968085
0.17261961 0.090843275 0.27957445
0.17292649 0.090705007 0.27914894
0.17309935 0.090497598 0.27851063
0.17333597 0.090324759 0.27797872
0.17370351 0.090221062 0.27765957
0.17433685 0.090255633 0.27776596
0.17503759 0.090324759 0.27797872
0.17567201 0.09035933 0.27808511
0.176172 0.090324759 0.27797872
0.17653629 0.090221062 0.27765957
0.17676356 0.090048224 0.27712765
0.17705676 0.089909956 0.27670214
-0.15332957 0.094718263 0.28968084
-0.15290676 0.094822623 0.28999999
-0.15253854 0.094961762 0.29042554
-0.15222421 0.095135681 0.29095745
-0.15185228 0.095274821 0.29138297
-0.15131296 0.095309608 0.29148936
-0.12015862 0.096561849 0.29531914
-0.11951298 0.09652707 0.29521278
-0.11878204 0.09642271 0.29489362
-0.11809506 0.096353143 0.29468086
-0.11740893 0.09628357 0.29446808
-0.11668148 0.096179217 0.29414892
-0.11595535 0.096074872 0.2938298
0.0081131132 0.095622674 0.29244682
0.008687662 0.095379174 0.29170212
0.0092591727 0.095135681 0.29095745
0.0098384507 0.094996542 0.2905319
0.010435091 0.095031328 0.2906383
0.011048312 0.095205247 0.29117021
0.011667958 0.095413961 0.29180852
0.012294679 0.095657453 0.29255319
0.012910376 0.095796593 0.29297873
0.071256198 0.094683483 0.28957447
0.071847066 0.094683483 0.28957447
0.072437935 0.094683483 0.28957447
0.073028803 0.094683483 0.28957447
0.073673755 0.094753049 0.28978723
0.074319586 0.094822623 0.28999999
0.074966289 0.094892196 0.29021278
0.075586148 0.094926976 0.29031914
0.076178536 0.094926976 0.29031914
0.076770924 0.094926976 0.29031914
0.13550073 0.094161712 0.28797871
0.13598779 0.094092146 0.28776595
0.1364235 0.093987793 0.2874468
0.13685791 0.093883447 0.28712767
0.13718916 0.093709514 0.28659573
0.13762054 0.093605168 0.28627661
0.13815331 0.093570381 0.28617021
0.13889197 0.093674734 0.28648937
0.13989086 0.093953013 0.28734043
0.14099728 0.094300851 0.28840426
0.14184688 0.094474778 0.28893617
0.16913247 0.091378957 0.27946809
0.17002571 0.091552876 0.28
0.17066187 0.091587663 0.2801064
0.17103831 0.09148331 0.27978724
0.17128295 0.091309391 0.27925533
0.17172182 0.09123981 0.27904254
0.17222552 0.091205031 0.27893618
0.17259698 0.091100678 0.27861702
0.17283489 0.090926759 0.27808511
0.17307064 0.090752833 0.2775532
0.17337075 0.090613693 0.27712765
0.17393622 0.090613693 0.27712765
0.17450169 0.090613693 0.27712765
0.17506716 0.090613693 0.27712765
0.17549779 0.090544127 0.27691489
0.17579226 0.09040498 0.27648935
0.17608501 0.090265848 0.27606383
0.17651217 0.090196282 0.27585107
0.17700674 0.090161495 0.27574468
-0.15338588 0.095344357 0.28978723
-0.15296286 0.095449358 0.29010639
-0.15253854 0.095554367 0.29042554
-0.15222421 0.095729373 0.29095745
-0.15179685 0.095834382 0.2912766
-0.15131296 0.09590438 0.29148936
-0.12020191 0.09719944 0.29542553
-0.11951298 0.097129442 0.29521278
-0.1187392 0.09698943 0.29478723
-0.11800978 0.096884422 0.29446808
-0.11732411 0.096814424 0.29425532
-0.11659709 0.096709415 0.29393616
-0.11582939 0.096569411 0.29351065
-0.1151052 0.096464403 0.29319149
0.0080806492 0.095834382 0.2912766
0.0086686518 0.095764369 0.29106382
0.009252402 0.095659375 0.29074469
0.0098384507 0.095589362 0.2905319
0.010438912 0.095659375 0.29074469
0.011048312 0.095799372 0.29117021
0.011667958 0.096009389 0.29180852
0.012285737 0.096184395 0.29234043
0.012896312 0.096289396 0.29265958
0.071230017 0.095239349 0.28946808
0.071847066 0.095274352 0.28957447
0.072437935 0.095274352 0.28957447
0.073055625 0.095309347 0.28968084
0.073700808 0.09537936 0.28989363
0.074346848 0.095449358 0.29010639
0.075021245 0.095554367 0.29042554
0.075669244 0.095624365 0.2906383
0.076290198 0.095659375 0.29074469
0.07688345 0.095659375 0.29074469
0.13540062 0.094679318 0.28776595
0.13588725 0.09460932 0.28755319
0.13632253 0.094504312 0.28723404
0.1367058 0.094364315 0.28680852
0.1370364 0.094189309 0.28627661
0.13741596 0.094049297 0.28585106
0.13789652 0.093979292 0.2856383
0.13858251 0.094049297 0.28585106
0.13952832 0.094294302 0.28659573
0.14058119 0.09460932 0.28755319
0.14153352 0.094854325 0.28829786
0.16411434 0.092334218 0.28063831
0.16443726 0.092194207 0.28021276
0.1646958 0.0920192 0.27968085
0.1652036 0.091984197 0.27957445
0.16577406 0.091984197 0.27957445
0.16634452 0.091984197 0.27957445
0.16659743 0.091809191 0.27904254
0.16678442 0.091599189 0.27840427
0.1670967 0.091459177 0.27797872
0.16772808 0.09149418 0.27808511
0.16848865 0.091599189 0.27840427
0.16918592 0.091669187 0.27861702
0.16975443 0.091669187 0.27861702
0.1700628 0.091529176 0.27819148
0.1704347 0.091424182 0.27787235
0.17087074 0.091354169 0.27765957
0.17143729 0.091354169 0.27765957
0.17187205 0.091284171 0.27744681
0.17217371 0.091144167 0.27702129
0.17247359 0.091004156 0.27659574
0.17290488 0.090934157 0.27638298
0.17340206 0.090899147 0.27627659
0.1739658 0.090899147 0.27627659
0.17446233 0.090864152 0.27617022
0.17482358 0.090759151 0.27585107
0.17511588 0.090619139 0.27542552
0.17547432 0.090514131 0.27510637
0.17596759 0.090479136 0.27500001
0.17652872 0.090479136 0.27500001
-0.15417421 0.096428722 0.2912766
-0.15285069 0.095970877 0.28989363
-0.15248266 0.096111745 0.29031914
-0.15205725 0.096217401 0.2906383
-0.15163054 0.096323065 0.29095745
-0.15109205 0.096358277 0.29106382
-0.12020191 0.097802244 0.29542553
-0.11951298 0.097731814 0.29521278
-0.11869635 0.097555719 0.29468086
-0.11796716 0.097450063 0.29436171
-0.11723927 0.097344406 0.29404256
-0.11651269 0.097238749 0.2937234
-0.11574543 0.097097874 0.29329789
-0.1149799 0.096956998 0.29287234
0.0080688428 0.096287839 0.29085106
0.0086591477 0.096252628 0.29074469
0.0092490166 0.096217401 0.2906383
0.009842054 0.096217401 0.2906383
0.010442731 0.096287839 0.29085106
0.011048312 0.096393496 0.29117021
0.011663704 0.09656959 0.29170212
0.012276797 0.096710466 0.29212767
0.012882248 0.096780904 0.29234043
0.071203843 0.095794782 0.28936172
0.071820669 0.095830001 0.28946808
0.072437935 0.09586522 0.28957447
0.073055625 0.095900431 0.28968084
0.073700808 0.095970877 0.28989363
0.074346848 0.096041314 0.29010639
0.074993759 0.096111745 0.29031914
0.075669244 0.096217401 0.2906383
0.076290198 0.096252628 0.29074469
0.076911576 0.096287839 0.29085106
0.13500017 0.094984747 0.28691489
0.13558561 0.094984747 0.28691489
0.13601959 0.094879091 0.28659573
0.13640155 0.094738223 0.28617021
0.13673085 0.094562128 0.2856383
0.13716026 0.094456472 0.28531915
0.13763973 0.094386034 0.28510639
0.13822149 0.094386034 0.28510639
0.1390622 0.094562128 0.2856383
0.14006111 0.094843879 0.28648937
0.14122017 0.095231287 0.28765959
0.14238399 0.09561868 0.28882977
0.15601683 0.092519447 0.27946809
0.15664667 0.092554659 0.27957445
0.15703768 0.092449009 0.27925533
0.15718719 0.092202477 0.27851063
0.15733369 0.091955945 0.27776596
0.15765855 0.091815069 0.27734041
0.15816377 0.091779858 0.27723405
0.15872945 0.091779858 0.27723405
0.15935625 0.091815069 0.27734041
0.15992215 0.091815069 0.27734041
0.16073431 0.091955945 0.27776596
0.16191886 0.092308134 0.27882978
0.16298376 0.092589878 0.27968085
0.16361666 0.092625104 0.27978724
0.16400026 0.092519447 0.27946809
0.16431992 0.092378564 0.27904254
0.16482644 0.092343353 0.27893618
0.16545866 0.092378564 0.27904254
0.16596477 0.092343353 0.27893618
0.16627985 0.092202477 0.27851063
0.16652949 0.092026383 0.27797872
0.16684091 0.091885515 0.2775532
0.16727892 0.091815069 0.27734041
0.16784482 0.091815069 0.27734041
0.16834612 0.091779858 0.27723405
0.16878219 0.09170942 0.27702129
0.16908729 0.091568537 0.27659574
0.16952118 0.091498107 0.27638298
0.17001966 0.09146288 0.27627659
0.17064908 0.091498107 0.27638298
0.17114712 0.09146288 0.27627659
0.1715125 0.091357224 0.27595744
0.17194292 0.091286793 0.27574468
0.17243902 0.091251574 0.27563831
0.17300145 0.091251574 0.27563831
0.17356388 0.091251574 0.27563831
0.17405909 0.091216356 0.27553192
0.17435162 0.091075473 0.27510637
0.17471007 0.090969831 0.27478725
0.17513503 0.090899386 0.27457446
0.1756953 0.090899386 0.27457446
0.17625555 0.090899386 0.27457446
-0.15501885 0.097554594 0.29287234
-0.15273848 0.096491516 0.28968084
-0.15231502 0.096597828 0.28999999
-0.15183462 0.096668705 0.29021278
-0.15129788 0.096704133 0.29031914
-0.15065028 0.096668705 0.29021278
-0.12020191 0.098405048 0.29542553
-0.1194699 0.098298743 0.29510638
-0.11865349 0.098121569 0.29457447
-0.11792452 0.098015256 0.29425532
-0.11719685 0.097908951 0.29393616
-0.11647049 0.097802639 0.29361701
-0.11570345 0.097660899 0.29319149
-0.11493813 0.097519152 0.29276595
0.0080688428 0.096881315 0.29085106
0.0086591477 0.09684588 0.29074469
0.009252402 0.09684588 0.29074469
0.0098456573 0.09684588 0.29074469
0.010442731 0.096881315 0.29085106
0.011044276 0.096952178 0.29106382
0.011655197 0.097093932 0.29148936
0.012263384 0.097200237 0.29180852
0.012872873 0.09730655 0.29212767
0.013473853 0.097341977 0.29223403
0.071151488 0.096314341 0.28914893
0.071767882 0.096349776 0.28925532
0.072411321 0.096420646 0.28946808
0.073028803 0.096456088 0.28957447
0.073646709 0.096491516 0.28968084
0.074265063 0.096526958 0.28978723
0.074938804 0.096633263 0.29010639
0.075586148 0.096704133 0.29031914
0.07626228 0.096810445 0.2906383
0.07688345 0.09684588 0.29074469
0.13454968 0.09525127 0.28595746
0.13518342 0.095286705 0.28606382
0.13556518 0.095144965 0.2856383
0.13589448 0.09496779 0.28510639
0.13627253 0.094826035 0.28468084
0.13669999 0.09471973 0.28436169
0.13717751 0.09464886 0.28414893
0.1377573 0.09464886 0.28414893
0.13849248 0.094755173 0.28446808
0.139489 0.095038652 0.28531915
0.14080235 0.095534757 0.28680852
0.14212178 0.096030854 0.28829786
0.14349996 0.096562393 0.28989363
0.1521467 0.093514919 0.28074467
0.15277742 0.093550354 0.28085107
0.15317623 0.093444049 0.28053191
0.15345712 0.093266867 0.28
0.15373585 0.093089692 0.27946809
0.1540124 0.09291251 0.27893618
0.15446365 0.092841648 0.27872342
0.15509154 0.092877075 0.27882978
0.15577926 0.092947945 0.27904254
0.15634863 0.092947945 0.27904254
0.15673856 0.092841648 0.27872342
0.15694703 0.09262903 0.27808511
0.15715291 0.092416413 0.27744681
0.15747713 0.092274673 0.27702129
0.15798169 0.092239231 0.27691489
0.15854672 0.092239231 0.27691489
0.15917289 0.092274673 0.27702129
0.15973814 0.092274673 0.27702129
0.16048807 0.092380971 0.27734041
0.16136287 0.09255816 0.27787235
0.16217783 0.092699893 0.27829787
0.16280791 0.092735335 0.27840427
0.1631887 0.09262903 0.27808511
0.16356817 0.092522718 0.27776596
0.16413495 0.092522718 0.27776596
0.16476481 0.09255816 0.27787235
0.1652685 0.092522718 0.27776596
0.16577174 0.092487276 0.27765957
0.1661471 0.092380971 0.27734041
0.16658512 0.092310101 0.27712765
0.16708642 0.092274673 0.27702129
0.16752291 0.092203796 0.2768085
0.16789392 0.092097484 0.27648935
0.168134 0.091920309 0.27595744
0.168502 0.091814011 0.27563831
0.16893391 0.091743127 0.27542552
0.16949591 0.091743127 0.27542552
0.17005791 0.091743127 0.27542552
0.1706199 0.091743127 0.27542552
0.17104967 0.091672257 0.27521276
0.17161123 0.091672257 0.27521276
0.1721728 0.091672257 0.27521276
0.17280114 0.091707699 0.27531916
0.17336291 0.091707699 0.27531916
0.17379028 0.091636822 0.27510637
0.17408194 0.091495082 0.27468085
0.17450714 0.091424212 0.27446809
0.17499933 0.091388777 0.2743617
0.17562723 0.091424212 0.27446809
0.17618728 0.091424212 0.27446809
-0.15257022 0.096975654 0.28936172
-0.15209153 0.097046956 0.28957447
-0.15161198 0.097118258 0.28978723
-0.15102068 0.097118258 0.28978723
-0.15037414 0.0970826 0.28968084
-0.12015862 0.098972201 0.29531914
-0.11942682 0.098865241 0.29499999
-0.11861064 0.098686978 0.29446808
-0.11788189 0.098580018 0.29414892
-0.11715444 0.098473072 0.2938298
-0.11642829 0.098366112 0.29351065
-0.11570345 0.098259151 0.29319149
-0.1149799 0.09815219 0.29287234
-0.11429921 0.098080888 0.29265958
0.0074863085 0.097617403 0.2912766
0.0080776969 0.097581744 0.29117021
0.0086654834 0.097510442 0.29095745
0.009252402 0.09743914 0.29074469
0.009842054 0.097403482 0.2906383
0.010438912 0.09743914 0.29074469
0.01104024 0.097510442 0.29095745
0.01164669 0.097617403 0.2912766
0.012254442 0.097724363 0.29159576
0.012863496 0.097831309 0.29191488
0.01346895 0.097902626 0.29212767
0.071072951 0.096797377 0.28882977
0.071688697 0.096833035 0.28893617
0.072331481 0.096904337 0.28914893
0.072948314 0.096939996 0.28925532
0.073538527 0.096939996 0.28925532
0.07418327 0.097011298 0.28946808
0.074828878 0.0970826 0.28968084
0.075503051 0.097189561 0.28999999
0.076178536 0.097296521 0.29031914
0.076799057 0.09733218 0.29042554
0.13234933 0.10082615 0.30085108
0.13324529 0.10104007 0.30148935
0.13381325 0.10100441 0.30138299
0.13409604 0.10075484 0.30063829
0.13404214 0.10025571 0.29914895
0.13346779 0.095478222 0.2848936
0.13414924 0.095549539 0.28510639
0.13463043 0.095478222 0.2848936
0.1349593 0.095299959 0.28436169
0.13528599 0.095121697 0.28382978
0.13566145 0.094979092 0.28340426
0.13613744 0.09490779 0.2831915
0.13661256 0.094836473 0.28297871
0.13718997 0.094836473 0.28297871
0.13787098 0.09490779 0.2831915
0.13881288 0.095157355 0.28393617
0.14001895 0.095585182 0.28521276
0.14138758 0.096119985 0.28680852
0.14276271 0.096654773 0.28840426
0.14366846 0.096868694 0.28904256
0.14409895 0.096761733 0.28872341
0.14420827 0.096440852 0.28776595
0.14463486 0.096333891 0.2874468
0.1451139 0.096262589 0.28723404
0.14543018 0.096084327 0.28670213
0.14552756 0.095763445 0.28574467
0.14556664 0.09540692 0.28468084
0.145656 0.095086053 0.28372341
0.14590594 0.094872132 0.28308511
0.14620833 0.094693869 0.2825532
0.14634274 0.094408646 0.28170213
0.14647369 0.094123423 0.28085107
0.14665686 0.093873858 0.2801064
0.14700474 0.093731239 0.27968085
0.14757541 0.093731239 0.27968085
0.14814609 0.093731239 0.27968085
0.1486602 0.093695581 0.27957445
0.14917389 0.093659937 0.27946809
0.14963013 0.093588635 0.27925533
0.15031438 0.093659937 0.27946809
0.15105693 0.093766898 0.27978724
0.1518008 0.093873858 0.2801064
0.15237233 0.093873858 0.2801064
0.15276963 0.093766898 0.27978724
0.15304899 0.093588635 0.27925533
0.1533262 0.093410373 0.27872342
0.15365997 0.093267754 0.27829787
0.15410991 0.093196452 0.27808511
0.15461816 0.093160793 0.27797872
0.15524477 0.093196452 0.27808511
0.15575257 0.093160793 0.27797872
0.15620014 0.093089491 0.27776596
0.15646671 0.092911229 0.27723405
0.15679134 0.09276861 0.2768085
0.15723522 0.092697307 0.27659574
0.15773891 0.092661649 0.27648935
0.15830308 0.092661649 0.27648935
0.15880613 0.092626005 0.27638298
0.15937008 0.092626005 0.27638298
0.16005714 0.092697307 0.27659574
0.16080686 0.092804268 0.27691489
0.16155788 0.092911229 0.27723405
0.16212358 0.092911229 0.27723405
0.16250198 0.092804268 0.27691489
0.16300435 0.09276861 0.2768085
0.16350631 0.092732966 0.27670214
0.16419707 0.092804268 0.27691489
0.16482542 0.092839926 0.27702129
0.16539067 0.092839926 0.27702129
0.16595592 0.092839926 0.27702129
0.16652118 0.092839926 0.27702129
0.16702226 0.092804268 0.27691489
0.16752291 0.09276861 0.2768085
0.16776472 0.092590347 0.27627659
0.16800438 0.092412084 0.27574468
0.1683069 0.09226948 0.27531916
0.16873817 0.092198163 0.27510637
0.16929951 0.092198163 0.27510637
0.16986085 0.092198163 0.27510637
0.1703563 0.09216252 0.27500001
0.17091744 0.09216252 0.27500001
0.17154489 0.092198163 0.27510637
0.1721728 0.092233822 0.27521276
0.17280114 0.09226948 0.27531916
0.17329592 0.092233822 0.27521276
0.17365587 0.092126861 0.27489361
0.17401451 0.092019901 0.27457446
0.17450714 0.091984257 0.27446809
0.17506719 0.091984257 0.27446809
0.17562723 0.091984257 0.27446809
-0.15251413 0.097530209 0.28925532
-0.15203565 0.09760195 0.28946808
-0.15155631 0.097673684 0.28968084
-0.15096523 0.097673684 0.28968084
-0.15031894 0.097637825 0.28957447
-0.14967306 0.09760195 0.28946808
-0.1193407 0.099395439 0.29478723
-0.11856779 0.099251963 0.29436171
-0.11779662 0.09910848 0.29393616
-0.1170696 0.099000871 0.29361701
-0.11642829 0.098965004 0.29351065
-0.11574543 0.09889327 0.29329789
-0.1151052 0.098857395 0.29319149
-0.1144654 0.098821521 0.2930851
0.007497245 0.098355211 0.29170212
0.008086551 0.098283477 0.29148936
0.0086718202 0.098175868 0.29117021
0.0092557874 0.098068252 0.29085106
0.009842054 0.097996518 0.2906383
0.010438912 0.098032393 0.29074469
0.01104024 0.098104127 0.29095745
0.01164669 0.098211743 0.2912766
0.012254442 0.098319352 0.29159576
0.012868185 0.098462828 0.29202127
0.013473853 0.098534562 0.29223403
0.070994422 0.097279124 0.28851065
0.071635909 0.097350858 0.28872341
0.072278261 0.0974226 0.28893617
0.072867826 0.0974226 0.28893617
0.073484436 0.097458474 0.28904256
0.074101478 0.097494334 0.28914893
0.074773915 0.09760195 0.28946808
0.075447664 0.097709559 0.28978723
0.076094791 0.097781293 0.28999999
0.076714657 0.097817168 0.29010639
0.13085175 0.10029219 0.29744682
0.13164674 0.10043567 0.29787233
0.13211283 0.10032806 0.29755318
0.13248272 0.10014871 0.29702127
0.13261211 0.099790014 0.29595745
0.13254561 0.09928783 0.29446808
0.13218442 0.098570436 0.29234043
0.13214216 0.095521495 0.28329787
0.13296941 0.095700845 0.28382978
0.13364868 0.095772587 0.28404257
0.13402717 0.095629103 0.28361702
0.13430293 0.095413886 0.28297871
0.13462681 0.095234536 0.2824468
0.13499944 0.09509106 0.28202128
0.13547261 0.095019326 0.28180853
0.1359449 0.094947577 0.28159574
0.13646793 0.094911709 0.28148937
0.13714588 0.094983451 0.28170213
0.13798073 0.095162794 0.28223404
0.1389222 0.095413886 0.28297871
0.14007649 0.095808454 0.28414893
0.14113024 0.096131288 0.28510639
0.14213501 0.096418247 0.28595746
0.14282468 0.096489981 0.28617021
0.14335528 0.096454106 0.28606382
0.14388546 0.096418247 0.28595746
0.1444152 0.096382372 0.28585106
0.14472866 0.096203022 0.28531915
0.1448774 0.095916063 0.28446808
0.14496827 0.095593229 0.28351063
0.14516447 0.095342144 0.28276595
0.14546728 0.095162794 0.28223404
0.14576794 0.094983451 0.28170213
0.14595589 0.094732367 0.28095746
0.14602983 0.094409533 0.28
0.14621127 0.094158441 0.27925533
0.14666922 0.094086699 0.27904254
0.14723861 0.094086699 0.27904254
0.1479207 0.094158441 0.27925533
0.14843394 0.094122574 0.27914894
0.14894673 0.094086699 0.27904254
0.14940211 0.094014958 0.27882978
0.14991385 0.093979098 0.27872342
0.15048258 0.093979098 0.27872342
0.15110894 0.094014958 0.27882978
0.15167789 0.094014958 0.27882978
0.15213066 0.093943223 0.27861702
0.15240765 0.093763873 0.27808511
0.15274097 0.09362039 0.27765957
0.15313131 0.093512781 0.27734041
0.15357931 0.093441039 0.27712765
0.15414478 0.093441039 0.27712765
0.15471025 0.093441039 0.27712765
0.15527572 0.093441039 0.27712765
0.15572155 0.093369305 0.27691489
0.15616651 0.093297563 0.27670214
0.15661058 0.093225822 0.27648935
0.15711428 0.093189955 0.27638298
0.15761752 0.09315408 0.27627659
0.15805945 0.093082346 0.27606383
0.15850049 0.093010604 0.27585107
0.15900201 0.09297473 0.27574468
0.15968777 0.093046471 0.27595744
0.16049798 0.093189955 0.27638298
0.16124791 0.093297563 0.27670214
0.16181251 0.093297563 0.27670214
0.16218983 0.093189955 0.27638298
0.16262849 0.093118221 0.27617022
0.16325486 0.09315408 0.27627659
0.16400784 0.093261689 0.27659574
0.16476211 0.093369305 0.27691489
0.16545418 0.093441039 0.27712765
0.16608338 0.093476914 0.27723405
0.166713 0.093512781 0.27734041
0.16727892 0.093512781 0.27734041
0.16771606 0.093441039 0.27712765
0.16795853 0.093261689 0.27659574
0.16819882 0.093082346 0.27606383
0.168502 0.09293887 0.27563831
0.16899918 0.092902996 0.27553192
0.16949591 0.092867121 0.27542552
0.17005791 0.092867121 0.27542552
0.17055401 0.092831261 0.27531916
0.1711819 0.092867121 0.27542552
0.17181024 0.092902996 0.27553192
0.17243902 0.09293887 0.27563831
0.17306821 0.09297473 0.27574468
0.17349689 0.092902996 0.27553192
0.17372309 0.092723645 0.27500001
0.17381224 0.092472553 0.27425531
0.17383075 0.092185594 0.27340424
0.17445648 0.092221469 0.27351063
0.17521879 0.092329077 0.27382979
-0.15268241 0.098228686 0.28957447
-0.15220328 0.098300859 0.28978723
-0.15166764 0.09833695 0.28989363
-0.15107612 0.09833695 0.28989363
-0.15037414 0.098264769 0.28968084
-0.14972806 0.098228686 0.28957447
-0.11925456 0.099924773 0.29457447
-0.11848208 0.099780418 0.29414892
-0.11771136 0.099636078 0.2937234
-0.11702719 0.099563904 0.29351065
-0.11642829 0.099563904 0.29351065
-0.11582939 0.099563904 0.29351065
-0.11523049 0.099563904 0.29351065
-0.11533791 0.10017738 0.29531914
0.0074999798 0.098986514 0.29180852
0.0080924537 0.098950423 0.29170212
0.0086749895 0.098806083 0.2912766
0.0092591727 0.098697819 0.29095745
0.0098456573 0.098625645 0.29074469
0.010442731 0.098661728 0.29085106
0.011044276 0.098733902 0.29106382
0.011650943 0.098842159 0.29138297
0.012263384 0.098986514 0.29180852
0.012882248 0.099166945 0.29234043
0.013493475 0.099275209 0.29265958
0.07096824 0.097831734 0.28840426
0.071609512 0.0979039 0.28861701
0.072251648 0.097976074 0.28882977
0.072867826 0.098012164 0.28893617
0.073430337 0.097976074 0.28882977
0.074046955 0.098012164 0.28893617
0.074691474 0.098084338 0.28914893
0.075364567 0.098192595 0.28946808
0.076011047 0.098264769 0.28968084
0.076630265 0.098300859 0.28978723
0.12690231 0.098769993 0.29117021
0.12819517 0.099311292 0.29276595
0.12902656 0.099491738 0.29329789
0.12953098 0.099419557 0.2930851
0.12994008 0.099275209 0.29265958
0.13044234 0.099203035 0.29244682
0.13084839 0.099058688 0.29202127
0.13115694 0.098842159 0.29138297
0.13131858 0.098517381 0.29042554
0.13128304 0.098048255 0.28904256
0.13095063 0.0973626 0.28702128
0.13031745 0.096460424 0.28436169
0.13016313 0.095919117 0.28276595
0.13029742 0.095594347 0.28180853
0.13087244 0.095594347 0.28180853
0.13174519 0.09581086 0.2824468
0.13252087 0.095955208 0.28287235
0.133048 0.095919117 0.28276595
0.13342389 0.095774777 0.28234044
0.13369706 0.095558256 0.28170213
0.13401833 0.095377818 0.28117022
0.13438834 0.095233463 0.28074467
0.13480777 0.095125206 0.28042552
0.13527726 0.095053032 0.28021276
0.13584901 0.095053032 0.28021276
0.13647258 0.095089123 0.28031915
0.13714857 0.095161296 0.28053191
0.13787767 0.095269553 0.28085107
0.13860808 0.095377818 0.28117022
0.13939244 0.095522165 0.28159574
0.14017853 0.095666513 0.28202128
0.14096636 0.09581086 0.2824468
0.14170262 0.095919117 0.28276595
0.14238665 0.095991291 0.28297871
0.14296407 0.095991291 0.28297871
0.14332563 0.095846951 0.2825532
0.14363126 0.095666513 0.28202128
0.14388034 0.095449992 0.28138298
0.14423603 0.095305644 0.28095746
0.14458999 0.095161296 0.28053191
0.14494222 0.095016949 0.2801064
0.14518216 0.094800428 0.27946809
0.14530855 0.094511732 0.27861702
0.14554286 0.094295204 0.27797872
0.14605416 0.094259128 0.27787235
0.14673342 0.094331294 0.27808511
0.14746989 0.094439559 0.27840427
0.14803797 0.094439559 0.27840427
0.14854924 0.094403468 0.27829787
0.14894609 0.094295204 0.27797872
0.14939886 0.094223037 0.27776596
0.1499082 0.094186947 0.27765957
0.15047476 0.094186947 0.27765957
0.15104131 0.094186947 0.27765957
0.15160787 0.094186947 0.27765957
0.15205781 0.094114773 0.27744681
0.15244837 0.094006509 0.27712765
0.15283762 0.093898252 0.2768085
0.1533435 0.093862168 0.27670214
0.15384892 0.093826078 0.27659574
0.1544133 0.093826078 0.27659574
0.15497768 0.093826078 0.27659574
0.15554208 0.093826078 0.27659574
0.15604641 0.093789987 0.27648935
0.15667084 0.093826078 0.27659574
0.15723522 0.093826078 0.27659574
0.15767823 0.093753904 0.27638298
0.15805945 0.09364564 0.27606383
0.15831712 0.093465209 0.27553192
0.15875664 0.093393035 0.27531916
0.15944155 0.093465209 0.27553192
0.16025086 0.093609549 0.27595744
0.16106193 0.093753904 0.27638298
0.16168807 0.093789987 0.27648935
0.16212739 0.093717813 0.27627659
0.16262849 0.09368173 0.27617022
0.16331773 0.093753904 0.27638298
0.16419707 0.093934342 0.27691489
0.1650786 0.094114773 0.27744681
0.16589878 0.094259128 0.27787235
0.16659322 0.094331294 0.27808511
0.16722459 0.094367377 0.27819148
0.1676639 0.094295204 0.27797872
0.16803797 0.094186947 0.27765957
0.16828153 0.094006509 0.27712765
0.16858773 0.093862168 0.27670214
0.16895723 0.093753904 0.27638298
0.16945593 0.093717813 0.27627659
0.1699542 0.09368173 0.27617022
0.17051771 0.09368173 0.27617022
0.17108123 0.09368173 0.27617022
0.17164475 0.09368173 0.27617022
0.17234093 0.093753904 0.27638298
0.17290488 0.093753904 0.27638298
0.17353559 0.093789987 0.27648935
0.17409976 0.093789987 0.27648935
0.17412631 0.0935013 0.27563831
0.17381224 0.093032159 0.27425531
0.1735602 0.092599124 0.27297872
0.1739815 0.09252695 0.27276596
-0.15591979 0.10052584 0.29457447
-0.15290676 0.098964766 0.28999999
-0.15242679 0.099037379 0.29021278
-0.15194593 0.099109985 0.29042554
-0.15129788 0.099073678 0.29031914
-0.15053982 0.098964766 0.28999999
-0.14983808 0.09889216 0.28978723
-0.11912536 0.10041693 0.29425532
-0.11843924 0.10034432 0.29404256
-0.11771136 0.10023541 0.2937234
-0.1170696 0.1001991 0.29361701
-0.11647049 0.1001991 0.29361701
-0.11591335 0.10023541 0.2937234
-0.11531402 0.10023541 0.2937234
-0.11621042 0.10154235 0.29755318
0.007497245 0.099545635 0.29170212
0.0080895033 0.099509336 0.29159576
0.0086749895 0.099400423 0.2912766
0.0092625571 0.099327803 0.29106382
0.009852862 0.099291503 0.29095745
0.01044655 0.099291503 0.29095745
0.011048312 0.099364109 0.29117021
0.011655197 0.099473029 0.29148936
0.012272325 0.099654548 0.29202127
0.012896312 0.099872373 0.29265958
0.013513094 0.10001758 0.2930851
0.071020596 0.098492816 0.28861701
0.071662299 0.098565422 0.28882977
0.072304875 0.098638035 0.28904256
0.072894655 0.098638035 0.28904256
0.073403299 0.098529123 0.28872341
0.073992431 0.098529123 0.28872341
0.074609034 0.098565422 0.28882977
0.075281478 0.098674335 0.28914893
0.075899392 0.098710641 0.28925532
0.076517738 0.098746948 0.28936172
0.12332564 0.097476304 0.2856383
0.12455455 0.097984567 0.28712767
0.12551135 0.098274991 0.28797871
0.12628528 0.09842021 0.28840426
0.12678017 0.098347604 0.2881915
0.12722717 0.098238692 0.28787234
0.12776732 0.098202385 0.28776595
0.12840195 0.098238692 0.28787234
0.12889402 0.098166086 0.28765959
0.12933731 0.098057173 0.28734043
0.12963501 0.097839341 0.28670213
0.12983346 0.097548909 0.28585106
0.12983431 0.097113267 0.28457448
0.12982993 0.096677616 0.28329787
0.12982035 0.096241973 0.28202128
0.13005148 0.095987834 0.28127658
0.1305266 0.095915228 0.28106382
0.13119934 0.095987834 0.28127658
0.13187297 0.096060447 0.28148937
0.13239728 0.096024141 0.28138298
0.13277034 0.095878929 0.28095746
0.1330407 0.095661104 0.28031915
0.13340984 0.095515884 0.27989361
0.13387911 0.095443279 0.27968085
0.13429636 0.095334366 0.2793617
0.13481504 0.095298067 0.27925533
0.13533327 0.09526176 0.27914894
0.13595466 0.095298067 0.27925533
0.13647246 0.09526176 0.27914894
0.1369376 0.095189154 0.27893618
0.13740188 0.095116548 0.27872342
0.13797061 0.095116548 0.27872342
0.1385922 0.095152847 0.27882978
