# .PCD v0.7 - Point Cloud Data file format
VERSION 0.7
FIELDS x y z
SIZE 4 4 4
TYPE F F F
COUNT 1 1 1
WIDTH 1369
HEIGHT 1
VIEWPOINT 0 0 0 1 0 0 0
POINTS 1369
DATA ascii
-0.16110784 0.053204518 0.28612235
-0.16089401 0.053163506 0.28623262
-0.16067438 0.053089339 0.28637645
-0.1605375 0.052918646 0.28660417
-0.1603957 0.052778393 0.28677574
-0.16025081 0.052720454 0.28688571
-0.15989469 0.05273344 0.28696927
-0.15959255 0.052790426 0.28701463
-0.15934476 0.052832913 0.28702119
-0.15907601 0.052884039 0.28707471
-0.15888697 0.052888341 0.28717944
-0.15877801 0.052884672 0.28732163
-0.15875418 0.052780814 0.28752622
-0.15867697 0.052755065 0.28765014
-0.15850231 0.052845567 0.28766778
-0.15834561 0.052953914 0.28764915
-0.15817595 0.053021256 0.28763223
-0.15801153 0.05311029 0.28763592
-0.15790412 0.053111341 0.28772387
-0.15779395 0.05311323 0.28783554
-0.15765715 0.053127885 0.28792796
-0.15740699 0.0531293 0.28801242
-0.15713072 0.053174157 0.28805616
-0.15678565 0.053205546 0.288075
-0.15648499 0.053241126 0.28812826
-0.15630741 0.053231616 0.28824124
-0.1561559 0.053187668 0.28841487
-0.15591495 0.053127799 0.28860843
-0.1556388 0.053227168 0.28866661
-0.15539481 0.053293329 0.28874725
-0.12341443 0.05348248 0.28855979
-0.12318144 0.053515442 0.2886326
-0.12291013 0.053507119 0.28865948
-0.12250023 0.053528152 0.28855559
-0.12202419 0.053496562 0.28843832
-0.12164539 0.05346562 0.28840968
-0.12134414 0.053463113 0.28839809
-0.12106879 0.053433761 0.2883572
-0.12078014 0.053391341 0.28829691
-0.12037095 0.053438019 0.28821799
-0.11999906 0.053399395 0.28810817
-0.11912995 0.053517766 0.28772604
-0.11791923 0.053624906 0.28710568
-0.11707252 0.05375021 0.28663585
-0.11594355 0.05395459 0.28600588
-0.1144518 0.054034218 0.28522184
-0.11297341 0.053879246 0.28468525
-0.11156642 0.0536782 0.28421876
-0.11001525 0.053477604 0.28378353
-0.10861298 0.053265676 0.28335384
-0.10769355 0.053104479 0.28307205
-0.10724473 0.053048242 0.28297806
-0.10717765 0.053067971 0.2830089
-0.10720729 0.053109799 0.28307205
-0.10690282 0.053108681 0.28302774
-0.10620675 0.053029757 0.28293002
-0.10533632 0.052897036 0.28276816
-0.10430492 0.052758213 0.28256419
-0.10369063 0.052706406 0.28250071
-0.1031288 0.052661169 0.28243539
-0.10262629 0.052653715 0.28245637
-0.10222186 0.05263079 0.28246152
-0.10178696 0.05261248 0.28246549
-0.10141642 0.052600801 0.28247264
-0.10092869 0.052588828 0.28247553
-0.1004492 0.052573752 0.28248689
-0.099973187 0.052540734 0.28249875
-0.099391349 0.05249301 0.2825186
-0.098784037 0.052433576 0.28254116
-0.098281786 0.052394517 0.28256768
-0.097595133 0.052361172 0.28256235
-0.097170413 0.052332774 0.28255048
-0.096752211 0.05229396 0.28254434
-0.096273899 0.052225754 0.28252161
-0.095759086 0.052180901 0.28255081
-0.095187023 0.052133609 0.28256491
-0.094666593 0.052107751 0.2825776
-0.094121143 0.052077722 0.28259051
-0.093579337 0.052042942 0.28261009
-0.093090482 0.052024424 0.28263038
-0.092470959 0.051957741 0.28265113
-0.09186247 0.051905956 0.28270918
-0.091284133 0.051867943 0.28277895
-0.090758108 0.051849362 0.28284815
-0.090231135 0.051830441 0.28291529
-0.089632191 0.051790763 0.28296104
-0.088840276 0.05168812 0.28299201
-0.088185355 0.051633753 0.28300688
-0.087579004 0.051572096 0.28299484
-0.087028377 0.051539671 0.28300124
-0.086474635 0.051508177 0.28301126
-0.085949354 0.051487006 0.28302962
-0.085405298 0.051447283 0.28303602
-0.084915221 0.051430844 0.28305921
-0.08434464 0.051353637 0.28304553
-0.083774872 0.051273968 0.2830331
-0.083305612 0.051234927 0.28302875
-0.082785413 0.051170334 0.28301775
-0.082208902 0.051098932 0.28300261
-0.081714123 0.051047657 0.28299719
-0.081065081 0.050955418 0.28295448
-0.080462143 0.05091488 0.28294924
-0.079906583 0.050897613 0.28296232
-0.079412073 0.050892804 0.28298905
-0.078866214 0.050864164 0.28300017
-0.078295104 0.050859824 0.28303322
-0.077751704 0.050827965 0.28304094
-0.077128842 0.050797638 0.2830525
-0.07649 0.050747067 0.28306687
-0.07588391 0.050706711 0.28309536
-0.075334661 0.050657269 0.28312373
-0.074810617 0.050629787 0.28316468
-0.074189931 0.050620396 0.2832323
-0.073506892 0.050580245 0.28325856
-0.072897218 0.050537288 0.28325549
-0.072381139 0.050511986 0.28324309
-0.071832918 0.050473742 0.28321213
-0.071389318 0.050445735 0.28320128
-0.07097473 0.050423462 0.28319523
-0.07045275 0.050381392 0.28319755
-0.069904685 0.050329659 0.28319672
-0.069383644 0.050285757 0.28319803
-0.068811156 0.050225422 0.28319278
-0.068236567 0.050180733 0.28318816
-0.067659989 0.050143581 0.28318989
-0.0670617 0.050105188 0.28319874
-0.066598006 0.05012662 0.28324905
-0.066100672 0.050132286 0.28329051
-0.065661147 0.050145507 0.28333578
-0.065144651 0.05013147 0.28335866
-0.064522557 0.050077043 0.28334352
-0.063641198 0.049921412 0.28326163
-0.062753402 0.049756415 0.28321147
-0.062025409 0.049654976 0.28318956
-0.06165285 0.049637958 0.28319964
-0.061304729 0.049664456 0.2832357
-0.060945 0.04976704 0.28334019
-0.060453929 0.049815215 0.28342211
-0.059964057 0.049798403 0.28345358
-0.059234589 0.049670186 0.28340948
-0.058518119 0.049526572 0.28335086
-0.058012716 0.049465504 0.28334451
-0.057534486 0.04942748 0.28334075
-0.056953311 0.049370084 0.28332549
-0.056419805 0.049332473 0.2833218
-0.055916473 0.049254082 0.28328583
-0.055421036 0.049176201 0.28325424
-0.054946035 0.049108766 0.28323138
-0.054544497 0.049055401 0.28320229
-0.054094635 0.04900736 0.28317514
-0.053681687 0.04897327 0.28316149
-0.053292517 0.048946891 0.28316635
-0.052807901 0.048994642 0.28321746
-0.052370273 0.049102802 0.28336293
-0.052129511 0.049157951 0.28347862
-0.051778074 0.049220189 0.28357124
0.0049633393 0.053556576 0.29004362
0.0050010579 0.053612977 0.29001561
0.0050221509 0.053590495 0.28996316
0.0050585284 0.053198431 0.28972179
0.0051114452 0.052966084 0.28956106
0.0052047116 0.05287867 0.28950471
0.0052278675 0.052944969 0.28953066
0.0053539132 0.052929096 0.28951541
0.069580764 0.054361615 0.29156569
0.069595739 0.054461386 0.29146904
0.069511309 0.054011565 0.29136193
0.06944298 0.053666592 0.29128042
0.06943287 0.053608809 0.29126859
0.069460347 0.053722098 0.29129466
0.069481634 0.053837858 0.29132074
0.13381316 0.05232624 0.28889656
0.13380985 0.052251343 0.28889361
0.13381191 0.052212145 0.288885
0.13381472 0.052136485 0.28888044
0.13383387 0.052207969 0.28887248
0.13387132 0.052396871 0.28886098
0.13390936 0.052624881 0.28885183
-0.16122219 0.053724762 0.28565198
-0.16106082 0.053730719 0.28568611
-0.16082917 0.053675886 0.28581068
-0.16057195 0.053500116 0.28608057
-0.16039969 0.053232633 0.2863819
-0.1602414 0.053068843 0.28661948
-0.16011377 0.052973654 0.28675717
-0.15984896 0.052949555 0.28686398
-0.15961431 0.052988514 0.28692135
-0.15923855 0.053164091 0.28690726
-0.15897895 0.05324233 0.28693229
-0.15881345 0.053187631 0.28708586
-0.15869264 0.05318531 0.2872732
-0.15858838 0.053165257 0.28739288
-0.15847215 0.053170495 0.2874935
-0.15838711 0.053213786 0.28752705
-0.15822746 0.053274591 0.28756309
-0.15810201 0.053370845 0.28754506
-0.15798125 0.053404629 0.28758085
-0.15789267 0.053438537 0.28764561
-0.15770857 0.053452559 0.28773189
-0.15757179 0.05349078 0.28780538
-0.15734603 0.053553488 0.28789857
-0.15707555 0.053660572 0.28791106
-0.15672247 0.053649619 0.28796598
-0.15644179 0.053672016 0.28802717
-0.15627879 0.053726543 0.28815362
-0.15611105 0.053674404 0.28833613
-0.15585108 0.053572156 0.28867242
-0.15563317 0.053533204 0.28886425
-0.12726326 0.054270763 0.28664494
-0.1266204 0.054130923 0.28683624
-0.12597962 0.053975098 0.28706661
-0.12552421 0.053827561 0.28726929
-0.12506561 0.053735986 0.28737876
-0.12466734 0.053666722 0.28753936
-0.12421761 0.053613078 0.28768191
-0.12389002 0.05359963 0.28783512
-0.12359499 0.053582966 0.28796959
-0.12344594 0.0536924 0.2881532
-0.12320971 0.053728022 0.2882646
-0.12287432 0.053805634 0.2883476
-0.12234328 0.053739719 0.28824595
-0.12198995 0.053710558 0.28822172
-0.12167992 0.053706184 0.28820783
-0.12144482 0.053707648 0.28820857
-0.12117501 0.053698309 0.28823206
-0.1208535 0.053662766 0.2881183
-0.12042999 0.053651076 0.28801611
-0.11985049 0.053720027 0.28774181
-0.11863419 0.053876236 0.28715557
-0.11785546 0.053907964 0.28676364
-0.11695727 0.053986482 0.28628558
-0.11601543 0.054173764 0.28575233
-0.11491446 0.054159004 0.28531641
-0.11362784 0.053983837 0.28487861
-0.11245915 0.053797826 0.28451359
-0.11135409 0.053659305 0.28413668
-0.10991984 0.053483281 0.28374755
-0.10869349 0.053306922 0.28339592
-0.10771784 0.053141031 0.28310156
-0.10721439 0.053064503 0.28298539
-0.10732798 0.053141475 0.2830655
-0.1073014 0.053170048 0.28311813
-0.10714844 0.05317045 0.28312144
-0.10648094 0.053119548 0.28301316
-0.10561366 0.052991059 0.28285813
-0.1047084 0.052845757 0.28268898
-0.1038611 0.052769244 0.28257889
-0.10320325 0.052709576 0.28252023
-0.10281789 0.052703235 0.28251484
-0.10235009 0.052672632 0.28249919
-0.10191597 0.052643936 0.28248999
-0.10144798 0.052625995 0.28248435
-0.10101862 0.05260215 0.28248152
-0.10059369 0.052604146 0.2824941
-0.10008866 0.052581377 0.28250837
-0.09958256 0.052554008 0.28253105
-0.099116616 0.052495908 0.28254253
-0.098566212 0.052452788 0.28257596
-0.097975209 0.052415568 0.28260282
-0.097342394 0.052360713 0.28256482
-0.096950412 0.052327774 0.28256035
-0.096451044 0.052283939 0.28256464
-0.095927998 0.05222572 0.28257114
-0.095376596 0.052178498 0.28257269
-0.094802253 0.05213806 0.28258309
-0.094258241 0.05210324 0.28259742
-0.093767934 0.052089322 0.28261763
-0.093224391 0.052060798 0.28263694
-0.092577733 0.05200376 0.28266546
-0.091912165 0.051940776 0.28271732
-0.091283605 0.051881734 0.28278276
-0.09075743 0.051862806 0.28285095
-0.090230487 0.051843673 0.28291786
-0.089707069 0.051818147 0.28296742
-0.089154683 0.051779047 0.28301078
-0.088347137 0.051676538 0.28303102
-0.087743297 0.051630169 0.2830328
-0.087192193 0.051598094 0.28303921
-0.086640678 0.051565737 0.2830438
-0.086117499 0.051538292 0.28305674
-0.085623771 0.051520869 0.28307724
-0.085077822 0.051471833 0.28307793
-0.084531888 0.051411875 0.28307196
-0.084040828 0.051354822 0.28306383
-0.083468661 0.051274002 0.28304625
-0.082974643 0.051232751 0.28303492
-0.082397468 0.051160876 0.28301919
-0.081875451 0.051104691 0.28301173
-0.081277281 0.051033333 0.28299376
-0.080618955 0.050977893 0.28298569
-0.079987071 0.050934508 0.28298452
-0.079493374 0.050926451 0.28301212
-0.079028428 0.050930858 0.2830438
-0.078536339 0.050912395 0.28306028
-0.077939995 0.050887927 0.28307471
-0.077396423 0.050873633 0.2830953
-0.076777384 0.050841857 0.28311235
-0.076215871 0.050814737 0.2831443
-0.07560423 0.050791878 0.2831918
-0.074958794 0.050751861 0.28323841
-0.074316166 0.050679162 0.28326002
-0.073739722 0.050648954 0.28328845
-0.073078334 0.050597996 0.28327927
-0.072514646 0.050536696 0.28325543
-0.072051406 0.050499149 0.28322965
-0.07158079 0.050474472 0.28321257
-0.071165085 0.050450254 0.28320414
-0.070751205 0.050438639 0.28321189
-0.07025639 0.050413862 0.28323269
-0.069656901 0.050376303 0.28325102
-0.069136754 0.050338693 0.28326067
-0.068536013 0.050281513 0.28325066
-0.067884386 0.050230268 0.28324151
-0.067362435 0.050220523 0.2832641
-0.066812679 0.050233535 0.28330904
-0.066419341 0.050285105 0.2833809
-0.065949991 0.050299142 0.28342268
-0.065331891 0.050261308 0.28344244
-0.064702481 0.050187316 0.28343329
-0.064066194 0.050099567 0.28338698
-0.063012592 0.049858365 0.28326786
-0.06217432 0.049721263 0.28321666
-0.061847664 0.049739063 0.28325513
-0.061589122 0.049866669 0.28337219
-0.061231416 0.049951114 0.28346571
-0.060928576 0.050059173 0.28356165
-0.060208015 0.049965315 0.28355569
-0.059509087 0.049818706 0.28350395
-0.058726657 0.049647298 0.28341714
-0.058116775 0.049505256 0.28335974
-0.057536013 0.049469277 0.28336537
-0.057040602 0.049451482 0.28339016
-0.056535054 0.049397685 0.2833803
-0.056046717 0.049332045 0.28335223
-0.055541433 0.049263563 0.28332397
0.005029235 0.053913534 0.2900559
0.005060853 0.053818438 0.28998247
0.0051025595 0.053528715 0.28979436
0.0051350435 0.053249821 0.28962371
0.0052413037 0.053133741 0.28955132
0.0052441037 0.053096265 0.28954795
0.0053632795 0.052994907 0.28953892
0.069621958 0.054784331 0.29148772
0.069623061 0.054770242 0.29147542
0.06957759 0.054497398 0.29141736
0.069525778 0.05421285 0.29135197
0.069515198 0.054155301 0.29133976
0.069540858 0.054268479 0.29136902
0.069574691 0.054437604 0.29141104
0.06957756 0.054497398 0.2914173
0.13393107 0.053171478 0.2888796
0.1339317 0.053213507 0.28887513
0.13394961 0.053288471 0.28885633
0.13394903 0.053210575 0.28885001
0.13395625 0.053248599 0.28884405
0.13396895 0.053285968 0.28884286
0.13396695 0.053247113 0.288845
0.13401029 0.05331976 0.28883958
-0.16128998 0.054131109 0.28527823
-0.16104504 0.054104399 0.28535584
-0.16079047 0.054030955 0.28551
-0.16052561 0.053887062 0.28573933
-0.16029018 0.053565647 0.28617486
-0.16014609 0.053337537 0.2864401
-0.16004907 0.053213511 0.28664142
-0.15981716 0.053221937 0.2867513
-0.15951495 0.053272966 0.2867938
-0.15911475 0.053459 0.28678426
-0.15893084 0.053495698 0.28685549
-0.15872735 0.053506676 0.28700203
-0.15862755 0.053442407 0.28719312
-0.15854298 0.053437661 0.28731579
-0.15842348 0.053456783 0.28739235
-0.15826561 0.053530782 0.28743613
-0.15813579 0.053613458 0.28742841
-0.15802635 0.053647242 0.28747472
-0.15790106 0.053740729 0.28746682
-0.15779968 0.053787544 0.28749868
-0.15765053 0.053833496 0.28760976
-0.15748437 0.053885471 0.28767848
-0.15725802 0.053983662 0.28773957
-0.15701389 0.054034978 0.28780678
-0.15665764 0.054098185 0.28786758
-0.15643771 0.054131512 0.28797704
-0.15628338 0.054186579 0.28813466
-0.15611549 0.054166485 0.28837922
-0.1557956 0.053901069 0.28921315
-0.15561824 0.053668004 0.28964618
-0.12947173 0.055386156 0.28506482
-0.12888454 0.055236872 0.2853902
-0.12831207 0.054855343 0.2859621
-0.1278552 0.054652639 0.28625017
-0.12729718 0.054499071 0.28650653
-0.12669665 0.054350842 0.28672838
-0.12615491 0.05421786 0.28693628
-0.12565419 0.054087602 0.28713146
-0.1251619 0.054005262 0.28728652
-0.12466827 0.053902455 0.28742108
-0.12424682 0.053871863 0.28752548
-0.12379977 0.053869154 0.28771609
-0.12349478 0.053855397 0.28783557
-0.12310955 0.053880502 0.28790095
-0.122737 0.053901061 0.28793707
-0.12229298 0.053838544 0.28793433
-0.12195081 0.05383525 0.28793636
-0.12164576 0.053845558 0.28790495
-0.12138477 0.053854641 0.28794065
-0.12119189 0.053812239 0.28799883
-0.12087234 0.053887114 0.28795293
-0.12052178 0.05389329 0.2878902
-0.11980584 0.054076072 0.28745195
-0.11834858 0.054100212 0.28668272
-0.1173962 0.054280076 0.2861588
-0.11660565 0.054291338 0.2857531
-0.11587075 0.05427276 0.28549942
-0.11510441 0.054206166 0.28530166
-0.11414985 0.054056205 0.28500503
-0.11341886 0.053982742 0.28479409
-0.11275253 0.053881764 0.28459853
-0.11169887 0.053726226 0.28428838
-0.11033683 0.053570125 0.2838749
-0.10895917 0.053377643 0.28347647
-0.10786351 0.053202856 0.28316328
-0.10733099 0.053112261 0.28303158
-0.10733601 0.053155724 0.28307861
-0.10742693 0.053201512 0.28315109
-0.10727208 0.053214908 0.28315458
-0.10662593 0.053172693 0.28306156
-0.1057611 0.053054821 0.28293583
-0.10483009 0.052902911 0.28274912
-0.10398153 0.052835118 0.28265762
-0.10340318 0.052785087 0.28260374
-0.10279552 0.052730486 0.28254575
-0.10235348 0.052699152 0.28252622
-0.10185442 0.052645743 0.28248996
-0.10144894 0.052642487 0.28248721
-0.10098907 0.052621197 0.28249043
-0.10059462 0.052618347 0.2824969
-0.10014382 0.052597251 0.28251237
-0.099639289 0.052564047 0.28253138
-0.099252425 0.052535143 0.28255105
-0.098730497 0.052488197 0.28258049
-0.098200917 0.052458335 0.28261262
-0.097574122 0.052410599 0.28259975
-0.097094186 0.052356496 0.28258282
-0.096617512 0.052313399 0.28257194
-0.096145339 0.052280329 0.28257418
-0.095592834 0.052235696 0.28258413
-0.095045492 0.052200999 0.28259763
-0.094525486 0.05217183 0.28261274
-0.093983285 0.052136611 0.28262994
-0.093414567 0.052098576 0.28265283
-0.092791915 0.052058861 0.28268585
-0.09222766 0.052021854 0.28271288
-0.091541924 0.051947758 0.28275537
-0.090941317 0.051898632 0.28282639
-0.090415746 0.051880088 0.28289708
-0.089836225 0.051848903 0.28297436
-0.089280382 0.051822063 0.28303909
-0.088724606 0.051778592 0.28306288
-0.087933779 0.05168147 0.28306478
-0.087299019 0.051630575 0.28306186
-0.086858004 0.051619764 0.28307563
-0.086360261 0.051604606 0.28309247
-0.085785806 0.051562324 0.28309765
-0.085293196 0.051529665 0.28310895
-0.084745891 0.051469635 0.28309798
-0.084308058 0.051433362 0.28309864
-0.083817482 0.051372681 0.28308308
-0.083191052 0.051284626 0.2830573
-0.082615085 0.051205456 0.28303599
-0.082065426 0.051151898 0.28302616
-0.081541106 0.051101383 0.28302512
-0.080939107 0.051072694 0.28304014
-0.080283739 0.05101027 0.28303152
-0.079730883 0.050980188 0.28303123
-0.079262674 0.050990809 0.28306866
-0.078748792 0.050992817 0.28310689
-0.078180075 0.050968789 0.28312537
-0.077641167 0.050954837 0.28315088
-0.076993324 0.050912336 0.2831583
-0.076480694 0.050911143 0.28319669
-0.075813159 0.050893299 0.28324533
-0.075176276 0.050849684 0.28328672
-0.074506417 0.050777409 0.2833043
-0.073866606 0.050701059 0.28330731
-0.073205657 0.050646257 0.2832998
-0.072696067 0.050593775 0.28327912
-0.072236694 0.050543919 0.2832523
-0.071875013 0.050521053 0.28323352
-0.071559243 0.050532654 0.28323719
-0.071118526 0.050533053 0.28324944
-0.070630349 0.05051833 0.28326762
-0.069843598 0.050483327 0.28330243
-0.069292985 0.050439153 0.28331646
-0.068673089 0.050372537 0.28330439
-0.068081826 0.050327111 0.28330249
-0.067513488 0.050317436 0.28332514
-0.067098863 0.050332546 0.28336653
-0.066607237 0.050403915 0.28345609
-0.066071928 0.050476719 0.28355139
-0.065522507 0.050426852 0.28355798
-0.064829081 0.050310589 0.28352055
0.0050534997 0.054209866 0.29008722
0.0050938469 0.054222867 0.29005444
0.0051202881 0.054049455 0.28997499
0.0051475121 0.053893022 0.28987366
0.0052330811 0.053858608 0.28985804
0.0053228824 0.053728297 0.28977045
0.0053876345 0.053546414 0.28972045
0.069649652 0.055041876 0.2914927
0.069658943 0.055144299 0.29148903
0.069651499 0.055023193 0.29145876
0.069619261 0.054804981 0.29141974
0.069619261 0.054804981 0.29141974
0.069637954 0.054917835 0.29144332
0.069677345 0.055073164 0.29145005
0.069699198 0.055242274 0.29147577
0.1340155 0.053870164 0.28887302
0.13405824 0.054061536 0.28886908
0.13406332 0.054098025 0.28885755
0.13407335 0.054018099 0.28884163
0.1340594 0.053941399 0.28884163
0.13407169 0.053902157 0.28883457
0.13407168 0.05390216 0.28883457
0.13409746 0.053939492 0.28882942
0.13412791 0.054051969 0.28881866
-0.16119516 0.054513171 0.28496277
-0.16077819 0.054281987 0.28528887
-0.1604615 0.054110561 0.28558582
-0.16018005 0.053829994 0.28599212
-0.16007121 0.053557031 0.2863254
-0.15994854 0.053463407 0.28649095
-0.15974884 0.053450808 0.28661951
-0.15941451 0.053558894 0.2866537
-0.15906134 0.053669453 0.28671661
-0.15886432 0.053712182 0.28680864
-0.15869302 0.053696536 0.28697771
-0.15854836 0.053704977 0.28713599
-0.1584435 0.053707257 0.28724849
-0.15831338 0.05379292 0.2872622
-0.15816934 0.053854719 0.28729025
-0.1580258 0.053934477 0.28731677
-0.15793127 0.053979363 0.28731388
-0.15779954 0.054055743 0.28734887
-0.15770416 0.054100573 0.28740171
-0.1575332 0.054178245 0.2874518
-0.15735079 0.054259896 0.28752744
-0.15716493 0.054344315 0.28762159
-0.15689994 0.054454267 0.28768125
-0.15662271 0.054497767 0.28779021
-0.1564057 0.05462116 0.28789312
-0.15625595 0.054610252 0.28810483
-0.15601081 0.054705855 0.28842413
-0.15572448 0.054262787 0.28943411
-0.1555855 0.053934611 0.2901445
-0.13166697 0.055611972 0.28474084
-0.13118808 0.055571269 0.28480732
-0.13063517 0.055534407 0.28487459
-0.13002753 0.05548216 0.28497824
-0.12947938 0.055407491 0.2850647
-0.12897654 0.05527119 0.28535801
-0.12831505 0.055040263 0.28578493
-0.12791139 0.054843154 0.28610346
-0.1273322 0.05470385 0.28635404
-0.12676285 0.054578289 0.28657654
-0.12616771 0.0544773 0.28677198
-0.1257131 0.0543763 0.2869606
-0.12520255 0.054272022 0.28711912
-0.12469448 0.054256417 0.28719237
-0.12411405 0.054193739 0.28731114
-0.12361538 0.054159824 0.28743827
-0.12323347 0.054153901 0.28751084
-0.12283523 0.054143105 0.28753662
-0.12232134 0.054157328 0.28750971
-0.12185865 0.054199114 0.2874614
-0.12140283 0.054258361 0.28736153
-0.12122414 0.05424919 0.28741968
-0.1210111 0.054228742 0.28756922
-0.12079333 0.054214958 0.28761709
-0.12050575 0.054241061 0.28763676
-0.12011513 0.054390799 0.28745386
-0.11904294 0.054391798 0.286845
-0.11768717 0.054462615 0.28608242
-0.11679758 0.054360833 0.28562868
-0.11594868 0.054299407 0.28542843
-0.11520886 0.054247014 0.28523713
-0.11444812 0.054110732 0.28502482
-0.11397387 0.054067388 0.28492886
-0.11359689 0.054029744 0.28484091
-0.11318052 0.053974014 0.2847566
-0.11236655 0.053877413 0.28449896
-0.11108474 0.053684771 0.28412309
-0.10965026 0.053485829 0.28368655
-0.10843788 0.053313624 0.28333899
-0.10770077 0.05322117 0.2831578
-0.10745662 0.053198773 0.28312308
-0.10748476 0.053239346 0.28318515
-0.10736094 0.05326071 0.28320166
-0.10671956 0.053215344 0.28309727
-0.10603231 0.053127766 0.28300831
-0.10507629 0.052997112 0.282841
-0.10422726 0.052905079 0.28272825
-0.10356174 0.052829191 0.28265968
-0.10298233 0.052788924 0.28260511
-0.10235365 0.052714121 0.28253773
-0.10176145 0.052668367 0.28249344
-0.10133112 0.052643981 0.28248596
-0.1008779 0.05262661 0.282493
-0.10047801 0.052628484 0.28250536
-0.10011636 0.052601464 0.28251714
-0.099694178 0.052590854 0.28254095
-0.099223487 0.052553926 0.28256413
-0.098811187 0.052522533 0.28258967
-0.098307475 0.052495092 0.28261757
-0.097771615 0.052435782 0.28261164
-0.097318776 0.05239825 0.28259951
-0.096896507 0.052365314 0.28259143
-0.096363619 0.052325808 0.28258884
-0.095811762 0.052272823 0.28259775
-0.095341504 0.052251644 0.282612
-0.094770655 0.052220944 0.28262731
-0.094358899 0.052224569 0.28265622
-0.093792856 0.052193742 0.28267154
-0.093148127 0.052133501 0.2826888
-0.092469677 0.052090999 0.28272641
-0.091773361 0.05202619 0.2827732
-0.091118239 0.051958323 0.28282875
-0.090470813 0.051895637 0.28289852
-0.089995906 0.051888801 0.28296247
-0.089495771 0.051873278 0.28302968
-0.088910639 0.051847644 0.28309104
-0.0881548 0.051740684 0.28309399
-0.087575354 0.051702261 0.28310356
-0.08704938 0.051679485 0.2831144
-0.086553618 0.051655445 0.28312671
-0.086030878 0.051634677 0.28314334
-0.085508324 0.051594477 0.28314382
-0.085045278 0.051557884 0.28314614
-0.084523872 0.05149962 0.28313175
-0.084000155 0.051440444 0.28311384
-0.08353886 0.051380537 0.28309295
-0.08299242 0.051316522 0.28307536
-0.082442984 0.051241972 0.28305647
-0.081865802 0.051197033 0.28305048
-0.081257679 0.051169414 0.28306419
-0.08064723 0.05115043 0.28309307
-0.08001367 0.05112059 0.28311276
-0.079473689 0.051081978 0.28311196
-0.079001635 0.051085621 0.28314647
-0.078438699 0.051082272 0.28319538
-0.077904098 0.051050767 0.28321132
-0.077338696 0.051013082 0.28322411
-0.076696694 0.050999895 0.28325921
-0.075969353 0.050953977 0.28328422
-0.071813039 0.050591171 0.28327182
-0.071495466 0.050633725 0.28332004
-0.070929296 0.050691959 0.28337359
-0.070206553 0.05068405 0.28339711
-0.069388844 0.050544545 0.28336123
-0.06874422 0.050433118 0.28333515
-0.068142116 0.050393827 0.28334591
-0.067617461 0.050374817 0.28336099
-0.067158572 0.050424818 0.28342533
-0.06664037 0.050534129 0.28354457
-0.066139966 0.05064648 0.28366202
0.0051356303 0.054576688 0.29014713
0.0051973034 0.054752007 0.2901859
0.0052172099 0.054759715 0.29016745
0.0052380189 0.054732617 0.2901274
0.0052783294 0.054715659 0.29016778
0.0053567858 0.054407511 0.29001707
0.0053899237 0.054432157 0.29003003
0.069684669 0.0555114 0.29147884
0.069696873 0.055503469 0.29147661
0.06970799 0.055545758 0.29146576
0.069711946 0.055596445 0.29146361
0.06971892 0.055646442 0.29146087
0.069743842 0.055694889 0.29145357
0.069760874 0.055753905 0.29147044
0.13412535 0.054681174 0.28886434
0.13413295 0.05471744 0.28885508
0.13414536 0.05467692 0.28884697
0.13414396 0.054599624 0.28883359
0.13414136 0.054522783 0.28882778
0.13415343 0.054560442 0.28882313
0.13417327 0.054636803 0.28881499
0.13422759 0.054783657 0.28881454
-0.16113895 0.054686736 0.28482589
-0.16067722 0.054394271 0.28523377
-0.16036645 0.054203756 0.28556249
-0.16015176 0.054003641 0.28591859
-0.1600239 0.053758714 0.28621978
-0.15994659 0.053662099 0.28639787
-0.15968581 0.05369252 0.28649423
-0.15939412 0.053774465 0.28659636
-0.15905079 0.053893797 0.28662899
-0.15882006 0.053929854 0.28674209
-0.15865856 0.053917918 0.28691092
-0.15847982 0.053953208 0.28706065
-0.15837252 0.054000221 0.28713563
-0.15818715 0.054062821 0.28719187
-0.15804186 0.054141231 0.2871879
-0.15794095 0.05420563 0.28717127
-0.15782936 0.054273359 0.28717804
-0.15767118 0.05436888 0.28716514
-0.15755025 0.054441109 0.28719863
-0.1573645 0.054546133 0.28726646
-0.15716588 0.054664034 0.28739259
-0.1569849 0.0547667 0.28750846
-0.15674441 0.054864638 0.28759867
-0.15637241 0.054942943 0.28766611
-0.15623248 0.055027429 0.2878232
-0.15611216 0.055070844 0.28801864
-0.15595768 0.055208065 0.28828317
-0.15559481 0.055034433 0.28911212
-0.15541564 0.0548977 0.28948319
-0.15520923 0.055080794 0.28945184
-0.14063241 0.056573737 0.28434217
-0.13684495 0.056129299 0.28445992
-0.13586546 0.056016069 0.28451225
-0.13499759 0.055930506 0.28454465
-0.13442318 0.055877123 0.2845653
-0.13398656 0.05582219 0.28458008
-0.13342097 0.055784564 0.28461123
-0.13285838 0.055721343 0.28464806
-0.13226396 0.055659499 0.2846939
-0.13173807 0.055621695 0.2847389
-0.1312236 0.055581942 0.28480273
-0.13067023 0.05555138 0.28486896
-0.13004479 0.055491775 0.284953
-0.12937334 0.05541905 0.28508481
-0.12902066 0.055356894 0.2852712
-0.12839943 0.055229422 0.2855832
-0.1278403 0.055009194 0.28596759
-0.12731782 0.054858599 0.28624341
-0.12673534 0.054759718 0.28645137
-0.12620769 0.054652967 0.28668067
-0.12574297 0.054596789 0.28680742
-0.12524198 0.054528467 0.28688952
-0.12468108 0.054541718 0.28695735
-0.12402777 0.054496951 0.28703243
-0.12347074 0.054443955 0.28714383
-0.1230742 0.054447614 0.28724
-0.12267455 0.054501131 0.2871567
-0.12204336 0.054555487 0.28699425
-0.12149601 0.054570287 0.28684998
-0.12110936 0.05458704 0.28682902
-0.12086053 0.054589916 0.28693369
-0.12059129 0.054583795 0.28703406
-0.12024807 0.054608695 0.28706256
-0.12010274 0.054581713 0.28715727
-0.11963622 0.054586351 0.28701213
-0.11875437 0.054624315 0.28654569
-0.1176483 0.05455659 0.28603813
-0.11680405 0.054409597 0.28563669
-0.11578237 0.054325659 0.2853494
-0.11521821 0.054265317 0.28522304
-0.11471131 0.054234363 0.28515965
-0.11461283 0.05422755 0.28517157
-0.11443774 0.054219175 0.28520805
-0.11388879 0.054162346 0.28505477
-0.11295952 0.05398548 0.28471407
-0.11177971 0.053777538 0.28433171
-0.11039177 0.053627763 0.28390491
-0.10915072 0.053461339 0.28355733
-0.10820562 0.053321373 0.28331205
-0.10782027 0.053288579 0.28323308
-0.10775077 0.053302456 0.28325489
-0.10749993 0.053318053 0.28324583
-0.10704128 0.053298008 0.28318742
-0.10620698 0.053187393 0.283059
-0.10534607 0.053071588 0.28293064
-0.1045092 0.052956276 0.28279796
-0.10389355 0.052896317 0.28273427
-0.10306204 0.052816093 0.28262216
-0.10240471 0.052744947 0.28255016
-0.10176013 0.05268595 0.28250051
-0.10115236 0.05265487 0.28248727
-0.10070311 0.052637048 0.28249335
-0.10027856 0.052625809 0.28250989
-0.09997163 0.052618813 0.28252906
-0.099526398 0.052589703 0.28255263
-0.09913829 0.052559514 0.28257704
-0.098723128 0.052540787 0.28260449
-0.098220751 0.052500933 0.28261808
-0.097846702 0.052479483 0.28261244
-0.097540393 0.052450906 0.282612
-0.09714061 0.052405767 0.28259528
-0.096606411 0.052375276 0.28259456
-0.096108377 0.052355569 0.28260681
-0.095699243 0.052327991 0.2826266
-0.095187895 0.052312762 0.2826508
-0.094592914 0.052299961 0.28268483
-0.094015397 0.052252129 0.28269932
-0.093337044 0.052205682 0.28272891
-0.092610478 0.052143142 0.28275752
-0.091962069 0.052074533 0.28278723
-0.091345154 0.052037925 0.28283995
-0.090717264 0.051979389 0.28290191
-0.0901279 0.051930569 0.28297266
-0.089797683 0.051967263 0.28304288
-0.089652792 0.052073851 0.28312829
-0.089667045 0.052293912 0.28326607
-0.08889465 0.052173823 0.28327155
-0.087703459 0.051849663 0.28321686
-0.086832829 0.051736619 0.28318346
-0.08622428 0.05168264 0.28317559
-0.085618161 0.051627859 0.28316551
-0.085121237 0.051593956 0.28316683
-0.08465746 0.051538087 0.28315145
-0.08413516 0.05147779 0.28313321
-0.083756298 0.051441174 0.28312069
-0.083261997 0.051385932 0.28310764
-0.082744636 0.051335502 0.28309622
-0.082137316 0.051288802 0.28308332
-0.081491046 0.051267341 0.28309885
-0.080828354 0.051227864 0.28311148
-0.080169626 0.05120869 0.2831406
-0.079583578 0.051178038 0.28315523
-0.07903932 0.051187467 0.28320703
-0.078586332 0.051196642 0.28325772
-0.078128181 0.051198065 0.28330445
-0.077548906 0.051141452 0.28331256
-0.076777831 0.051088601 0.28332737
0.0052633327 0.055359103 0.29039985
0.0053011235 0.055507161 0.29041415
0.0053547034 0.055582594 0.29041424
0.0053705582 0.055622004 0.29040098
0.0053828168 0.055512447 0.29035285
0.0053930115 0.05540232 0.29033929
0.0054072156 0.055216338 0.29028937
0.069763295 0.056015231 0.29146302
0.069766514 0.056065932 0.29145917
0.069783755 0.056169324 0.29146433
0.069792651 0.056218404 0.29145813
0.06980706 0.056322385 0.2914519
0.069828682 0.056379009 0.29146987
0.13420194 0.055377014 0.28884563
0.13422693 0.055369031 0.28885123
0.13422091 0.055332407 0.28881928
0.13420896 0.055136114 0.28881934
0.13419697 0.054906327 0.28880355
0.13423179 0.055055838 0.28879154
0.13428271 0.055364914 0.28879252
0.13428943 0.055403169 0.28878513
-0.16056482 0.054416344 0.28528884
-0.16028833 0.054287884 0.28558958
-0.16012867 0.054130442 0.28589857
-0.16007422 0.053948522 0.28613842
-0.16001144 0.053785402 0.28633469
-0.15978131 0.053819474 0.28645453
-0.15940993 0.053943545 0.2865243
-0.15901925 0.054108534 0.28657067
-0.15879494 0.054144409 0.28666028
-0.15858443 0.054182369 0.28679726
-0.1583824 0.054235853 0.28692076
-0.15823327 0.054291856 0.28701684
-0.15807274 0.054374427 0.28703967
-0.15796359 0.054440055 0.2870346
-0.15782246 0.054514542 0.28704154
-0.1576795 0.054608781 0.28699625
-0.15756622 0.054700214 0.28695321
-0.15734814 0.054833274 0.28697324
-0.15708226 0.054940101 0.28704914
-0.15684985 0.055041444 0.28718692
-0.15664698 0.05516604 0.28728107
-0.15636039 0.055319358 0.28740373
-0.15610893 0.055376526 0.28753492
-0.15590878 0.055469062 0.28767163
-0.15576084 0.055569835 0.28780535
-0.15584061 0.055625003 0.28810155
-0.15550864 0.055718776 0.28833252
-0.15525647 0.055810314 0.2885977
-0.15504479 0.055891048 0.28850514
-0.15440208 0.056088321 0.28809518
-0.15278183 0.056103397 0.28736168
-0.15157768 0.056117132 0.28684154
-0.14950702 0.056369308 0.28609979
-0.14199083 0.056725271 0.28445587
-0.14118971 0.056651771 0.28439209
-0.14067242 0.056584205 0.28434938
-0.14067915 0.056586951 0.28435829
-0.14030306 0.056558501 0.28435397
-0.13958335 0.056510806 0.28434709
-0.13865376 0.05637401 0.28432563
-0.13800885 0.056297932 0.28436053
-0.13751245 0.056228913 0.28439856
-0.13730682 0.056196667 0.28442773
-0.13678171 0.05614398 0.28445849
-0.13590942 0.056038734 0.28451416
-0.13496619 0.05594071 0.28454646
-0.13435762 0.055878725 0.28456306
-0.13395414 0.055831064 0.28458077
-0.13345522 0.055793259 0.28461254
-0.13299577 0.055747215 0.2846463
-0.1324003 0.055688474 0.284693
-0.1318069 0.055645898 0.28474078
-0.13119347 0.055586226 0.28480849
-0.13058579 0.055565827 0.28487903
-0.13007355 0.055514425 0.28493911
-0.12946771 0.055450879 0.28506321
-0.12900938 0.055377014 0.2852478
-0.12842555 0.055310953 0.28545702
-0.12790063 0.055228345 0.28571469
-0.1273424 0.055097867 0.2859858
-0.12679352 0.054983374 0.28626326
-0.1263091 0.054903269 0.28648731
-0.12580544 0.054803602 0.28665087
-0.1252865 0.054757003 0.2867218
-0.12455125 0.054803949 0.28670421
-0.12390243 0.05479756 0.28674281
-0.12338375 0.054777145 0.28687027
-0.12294523 0.054764703 0.28691596
-0.12260122 0.054770328 0.2869392
-0.12193169 0.054762829 0.28686664
-0.12143673 0.054801654 0.28671792
-0.12107588 0.05480849 0.28678975
-0.12086828 0.054844975 0.28688923
-0.12045772 0.054843016 0.28689387
-0.12017254 0.054866239 0.28688976
-0.11992908 0.054887325 0.28693914
-0.11961697 0.054877199 0.28691301
-0.11917849 0.054919478 0.28687638
-0.11822468 0.054773968 0.28642121
-0.11734068 0.054629091 0.28599086
-0.11650128 0.054471914 0.28566957
-0.11583742 0.054386258 0.28548127
-0.11555617 0.054387365 0.28547186
-0.11550179 0.054453731 0.28560689
-0.11529756 0.054481138 0.28561386
-0.11466862 0.054370385 0.28542325
-0.11362088 0.054154214 0.28499052
-0.11244444 0.05395408 0.2845588
-0.11117111 0.053731371 0.28416669
-0.10976171 0.053551398 0.28374091
-0.10894101 0.053465098 0.28352198
-0.1082289 0.0533606 0.28334057
-0.10805786 0.053354464 0.28330764
-0.10770754 0.053355653 0.28328007
-0.1070263 0.05332005 0.28318319
-0.10616785 0.053228028 0.28307936
-0.10533552 0.05311846 0.2829484
-0.10446567 0.052995566 0.28281194
-0.10388665 0.05291694 0.28274581
-0.10312736 0.052844524 0.28265107
-0.10242909 0.052770603 0.28256649
-0.10169568 0.052676864 0.28248772
-0.10109404 0.052669097 0.28248763
-0.10058194 0.05263532 0.28249031
-0.10024685 0.052637048 0.28251326
-0.099826925 0.052609492 0.28253207
-0.099385031 0.052578796 0.28255773
-0.098997779 0.052549168 0.28257957
-0.09849292 0.052530937 0.28260383
-0.098208681 0.052524108 0.28261518
-0.097918764 0.052506611 0.2826044
-0.097744785 0.052511755 0.28261307
-0.097426645 0.052493516 0.2825993
-0.097042978 0.052472092 0.28260252
-0.096558496 0.052446082 0.28262162
-0.095944315 0.05242417 0.28266805
-0.095397443 0.052396815 0.2826961
-0.094682321 0.052361965 0.28272364
-0.094074942 0.052308701 0.28273296
-0.093343236 0.052250687 0.2827602
-0.092684589 0.052179798 0.28277904
-0.091986202 0.05211705 0.28281415
-0.091423184 0.05208455 0.28285885
-0.090839379 0.052044138 0.28291416
-0.090387903 0.052043468 0.28298849
-0.090229101 0.052117512 0.28307334
-0.087032586 0.051796444 0.28322032
-0.086253427 0.05172237 0.28320822
-0.085758075 0.051682625 0.28320402
-0.08523453 0.051626228 0.28318647
0.0053397049 0.055838373 0.29048207
0.005380549 0.056026209 0.29050872
0.0054421714 0.05624691 0.29055449
0.0054642227 0.056290466 0.29053858
0.0054826611 0.05629025 0.29052818
0.0054845358 0.056140441 0.29050449
0.0054959282 0.055986006 0.29048121
0.0055217957 0.055982415 0.29047382
0.069805145 0.05642936 0.29144382
0.069814429 0.056534279 0.29144272
0.069819957 0.056584306 0.29143673
0.069842249 0.056685682 0.29143727
0.069853343 0.056734126 0.29142904
0.069867864 0.056792893 0.29144132
0.13428876 0.056251943 0.28884798
0.13430165 0.056244057 0.28882816
0.1343156 0.056159019 0.28880501
0.13430035 0.05593041 0.28877699
0.13430691 0.055736724 0.28877315
0.13431181 0.055775434 0.2887671
0.1343396 0.055967811 0.28875175
0.13437288 0.056121357 0.28875372
-0.1602969 0.054367587 0.28563529
-0.16021204 0.054169387 0.28591284
-0.16020279 0.054004535 0.28609356
-0.1601841 0.053931162 0.28621835
-0.15994094 0.054003071 0.2863355
-0.15942277 0.05417816 0.28643715
-0.15897475 0.054371484 0.2864626
-0.15865993 0.05451335 0.28648269
-0.15848526 0.054532312 0.28655848
-0.1583046 0.054579809 0.28670704
-0.15812908 0.054612901 0.28680444
-0.15801306 0.054695603 0.28687128
-0.15784886 0.05479515 0.28688005
-0.1577089 0.05484366 0.28689182
-0.15755445 0.05492406 0.28684986
-0.15738466 0.055027395 0.2868349
-0.15703881 0.05521515 0.28678873
-0.15676047 0.055384524 0.28688091
-0.15658663 0.055460356 0.28697428
-0.15626281 0.055584773 0.28707397
-0.15591851 0.055757999 0.28716239
-0.15569238 0.055803016 0.28734902
-0.15554537 0.055919006 0.28743908
-0.15542763 0.056014951 0.28760457
-0.15529849 0.056159187 0.2877484
-0.1551462 0.056254618 0.28783327
-0.15490097 0.056343786 0.28788298
-0.1544776 0.056439623 0.28786635
-0.15369393 0.056519225 0.2876007
-0.15247099 0.056418613 0.28715166
-0.15115294 0.056347307 0.28666964
-0.14928521 0.05647745 0.28600043
-0.14738892 0.056803904 0.28523967
-0.14538716 0.056937486 0.28466916
-0.1438584 0.056832049 0.28452924
-0.14343865 0.056797229 0.2845467
-0.14282565 0.056766972 0.28454441
-0.14195363 0.056728609 0.28445455
-0.14115272 0.056655262 0.28439024
-0.14084506 0.056613486 0.2843748
-0.14064413 0.056606121 0.28436962
-0.14023873 0.056578469 0.28437892
-0.13950638 0.05650866 0.28433621
-0.13872944 0.056390285 0.28432813
-0.13804705 0.056307055 0.28436017
-0.13747905 0.056239758 0.28439525
-0.13713354 0.056187104 0.28443086
-0.13657108 0.056132492 0.2844643
-0.13566349 0.056014992 0.28451821
-0.13490057 0.055944026 0.28454477
-0.13439113 0.055889253 0.28456423
-0.13398995 0.05585146 0.28458038
-0.13366276 0.055817276 0.28459674
-0.1331328 0.055766001 0.28463641
-0.13243607 0.05570361 0.28469551
-0.13174579 0.055653512 0.28475013
-0.1311902 0.055608775 0.2847997
-0.13054632 0.055596258 0.28486657
-0.13005646 0.05554314 0.28496358
-0.12961973 0.055509966 0.28504953
-0.12911807 0.055440392 0.28517893
-0.128475 0.055351175 0.28539878
-0.1278733 0.055301502 0.28558269
-0.12730567 0.05526397 0.28575784
-0.12675327 0.055198383 0.28600219
-0.12633412 0.055138223 0.28622904
-0.12580845 0.05508288 0.28639582
-0.12532106 0.055060308 0.28643259
-0.12448091 0.055041477 0.28648368
-0.12390063 0.055019971 0.28654847
-0.12336091 0.05497583 0.28672993
-0.12304445 0.054984242 0.28699636
-0.12262714 0.054962743 0.28702527
-0.12215514 0.05496892 0.2869975
-0.12172178 0.054966405 0.2870554
-0.12132592 0.05494779 0.28704378
-0.12105101 0.054969247 0.28703782
-0.120723 0.055036563 0.28713551
-0.12028861 0.055051707 0.28709576
-0.12014679 0.05511082 0.28716704
-0.11998136 0.05515771 0.28739697
-0.11988312 0.055234026 0.28751016
-0.11937911 0.055285379 0.2872915
-0.11839014 0.055156223 0.28679019
-0.11728761 0.054814059 0.28621915
-0.11678582 0.054745395 0.28607649
-0.11651228 0.054798279 0.28606644
-0.11628289 0.054855533 0.28612873
-0.1159592 0.054855708 0.28607625
-0.11520567 0.054641616 0.28575593
-0.11412914 0.054364294 0.28526083
-0.11310858 0.054120578 0.28484043
-0.11197253 0.053907931 0.28444883
-0.11056042 0.053706948 0.28399035
-0.10945905 0.053554442 0.28365943
-0.10873041 0.053465135 0.28349075
-0.10836588 0.053439375 0.28341401
-0.10778076 0.053401448 0.28329977
-0.10699052 0.053348038 0.28321081
-0.10593136 0.053192478 0.28302985
-0.10509161 0.053062815 0.28289714
-0.10440105 0.052977417 0.28279364
-0.10384623 0.052930776 0.28273451
-0.10307901 0.052846726 0.28263313
-0.10239006 0.052782059 0.28255901
-0.10162947 0.052697513 0.28248733
-0.10097227 0.052654888 0.28247356
-0.10057782 0.052638654 0.2824876
-0.1001013 0.052629631 0.28251684
-0.099769808 0.052612118 0.28253669
-0.099352777 0.052593846 0.28256738
-0.098768368 0.052563351 0.28259024
-0.098339811 0.052551236 0.28260201
-0.098169982 0.052552454 0.28260812
-0.098110348 0.052562702 0.28261748
-0.097950198 0.052568205 0.2826142
-0.097693831 0.052588709 0.28261185
-0.097282372 0.052647252 0.28265309
-0.096655533 0.052605871 0.28269312
-0.096123293 0.052560139 0.28272155
-0.095410801 0.052472409 0.2827391
-0.094597913 0.052378397 0.28273767
-0.093911767 0.052315049 0.28274956
-0.093208522 0.052237999 0.28276017
-0.092530929 0.052190039 0.28279349
-0.091987267 0.052145533 0.28283259
-0.091429032 0.052121475 0.28288063
0.0054528816 0.056633051 0.29059753
0.0054921731 0.056744162 0.29060715
0.0055141435 0.056819383 0.29062194
0.0055322126 0.056819927 0.29061219
0.0055447267 0.056669861 0.29058293
0.0055599622 0.056625262 0.29060125
0.0055599622 0.056625254 0.29060122
0.069855966 0.056945749 0.29141384
0.069860816 0.05699582 0.29140636
0.069868587 0.05704524 0.29139841
0.069889314 0.057147168 0.29139394
0.069890909 0.057098161 0.29140133
0.13434406 0.057226475 0.28893903
0.13439229 0.057272349 0.28889647
0.1343843 0.056857329 0.28880215
0.13437329 0.05677969 0.28874019
0.13435398 0.05648334 0.28871295
0.13437198 0.056452673 0.28868613
0.13439819 0.056595057 0.28870335
-0.16047287 0.054319251 0.28571442
-0.16036375 0.054214459 0.28587404
-0.1603279 0.054180101 0.28597671
-0.1603066 0.054112945 0.28609702
-0.16002201 0.054224405 0.28619707
-0.15943502 0.054422151 0.28633365
-0.1588819 0.05460931 0.28632924
-0.15864368 0.054744307 0.28631124
-0.1584312 0.054850385 0.28633863
-0.15825222 0.054934449 0.28642505
-0.15804638 0.054951556 0.28654975
-0.15792178 0.055006348 0.28661945
-0.15775542 0.05509441 0.28670752
-0.15761131 0.055157669 0.28671199
-0.15742043 0.055303991 0.2866697
-0.15712458 0.055438146 0.28664744
-0.1568521 0.055552337 0.28667089
-0.15643665 0.055662192 0.28669497
-0.15615407 0.055786833 0.28676629
-0.15567088 0.055911828 0.28680089
-0.15527417 0.056048285 0.28690556
-0.15510859 0.056197379 0.28706047
-0.1549293 0.056274083 0.28717494
-0.15475816 0.056437988 0.28728941
-0.15464626 0.056538861 0.2873621
-0.15441313 0.056641106 0.28744945
-0.15411246 0.056763817 0.28744218
-0.15366074 0.056869868 0.28735605
-0.1527504 0.056714263 0.28712118
-0.15165897 0.056494124 0.28672737
-0.1501925 0.056589454 0.28617325
-0.14868133 0.056741543 0.28562096
-0.14681658 0.057020761 0.28496757
-0.1450337 0.056915384 0.28463608
-0.1438209 0.056835249 0.28452986
-0.14312957 0.056786422 0.28455004
-0.14240059 0.05676515 0.28445244
-0.14187314 0.056733754 0.28445637
-0.14139763 0.056696925 0.28441501
-0.14111155 0.056671321 0.28440082
-0.140734 0.056638554 0.28439188
-0.14012839 0.056583133 0.2843706
-0.13928452 0.056515209 0.28433809
-0.13861996 0.056396853 0.28433809
-0.13797343 0.056303605 0.28435373
-0.13740638 0.056227989 0.28440118
-0.136959 0.056179106 0.28443915
-0.13636279 0.056127027 0.28446776
-0.13552643 0.056014519 0.28452125
-0.13483402 0.055945311 0.28454345
-0.13435972 0.055899091 0.28456327
-0.13415781 0.055889767 0.28456852
-0.13392891 0.055868391 0.28458288
-0.1334285 0.05581807 0.28461984
-0.13267569 0.055752203 0.28468737
-0.13194329 0.05568748 0.28473347
-0.13131812 0.055642862 0.28478241
-0.1306389 0.055612776 0.28486738
-0.13035311 0.055600032 0.2849378
-0.12984934 0.055564769 0.28506324
-0.12924173 0.055503223 0.28522533
-0.12861536 0.055438515 0.28537047
-0.12796623 0.05536186 0.28547603
-0.12736294 0.055335779 0.28563222
-0.12681308 0.055287227 0.28586185
-0.126387 0.055252466 0.28605729
-0.12583101 0.055261672 0.28626692
-0.12527415 0.055226844 0.28633401
-0.12457095 0.055188037 0.28650239
-0.12394509 0.055194128 0.28671131
-0.12354801 0.055208098 0.28694513
-0.1230958 0.05521588 0.28719762
-0.12273885 0.055202208 0.28728524
-0.12235344 0.055266798 0.28738263
-0.12204699 0.05530449 0.28744575
-0.12163053 0.055350341 0.28751042
-0.12128828 0.05532375 0.28753886
-0.12099265 0.055455614 0.28764242
-0.12076167 0.055490542 0.28770405
-0.12066997 0.055543773 0.28790066
-0.1206312 0.055660933 0.28806275
-0.12042151 0.055748586 0.28812414
-0.12011409 0.055662937 0.28803775
-0.1195289 0.055677265 0.28773364
-0.11859012 0.055491198 0.2871474
-0.11779737 0.055365894 0.28680727
-0.11725723 0.055261776 0.28662187
-0.11675206 0.055176593 0.28650254
-0.11623429 0.05509815 0.28631166
-0.11563032 0.0549495 0.28605607
-0.1147208 0.054677665 0.28563711
-0.11378206 0.05433229 0.28517345
-0.11267815 0.05409418 0.28470427
-0.11122088 0.053835008 0.28422377
-0.1097964 0.053656038 0.28379458
-0.10895195 0.05350215 0.28354472
-0.10864452 0.053495243 0.28347829
-0.10783398 0.053440478 0.28330761
-0.10649978 0.05327611 0.28309119
-0.10534286 0.053080525 0.28285253
-0.10464621 0.052972008 0.28275287
-0.10394701 0.052913848 0.28267479
-0.10364798 0.05290148 0.28268057
-0.10315759 0.052870281 0.28264549
-0.10232096 0.052772824 0.28253776
-0.10155664 0.052706685 0.28247538
-0.10099059 0.052672409 0.28247359
-0.0979973 0.052597355 0.28260827
-0.097761266 0.05270816 0.28265193
-0.097300172 0.052830566 0.28274977
-0.093120508 0.052245717 0.28277779
-0.092475511 0.052197516 0.28280687
0.0055108378 0.05697896 0.29062068
0.0055291848 0.057055056 0.29062772
0.0055377088 0.057133991 0.29063159
0.0055706017 0.057245545 0.2906571
0.0056037316 0.057279307 0.29067943
0.0056054699 0.057200596 0.29068488
0.0056173573 0.057125386 0.29065418
0.069889292 0.05714716 0.29139388
0.069895834 0.057200558 0.29139569
0.069897458 0.057252273 0.29138893
0.069921963 0.057456184 0.29136166
0.069935076 0.057507716 0.29136434
0.13441457 0.05826772 0.28902903
0.13441476 0.058094896 0.28895673
0.13444091 0.057895392 0.28889167
0.13444436 0.057594415 0.28872979
0.13442816 0.057301391 0.28865445
0.13441902 0.057140771 0.28861901
0.13444881 0.057245638 0.28861016
-0.16061439 0.054383978 0.28564844
-0.1604218 0.054424252 0.28573778
-0.16032389 0.054376006 0.2858921
-0.1602205 0.054413106 0.28599918
-0.15995069 0.054505143 0.28610331
-0.1592827 0.05475777 0.28619379
-0.15884592 0.054859996 0.28623423
-0.15855664 0.055024792 0.28622293
-0.1583893 0.055106577 0.28618878
-0.15823174 0.05517422 0.28625432
-0.15804148 0.055225711 0.28631356
-0.15782902 0.055313732 0.28639889
-0.15767719 0.055431891 0.28649876
-0.15746115 0.055501286 0.2865299
-0.15723681 0.055618975 0.28656042
-0.15689021 0.05574486 0.28653201
-0.15659131 0.055833004 0.28648794
-0.15609659 0.055953376 0.28650671
-0.15560436 0.05608543 0.28654683
-0.15506704 0.056184232 0.28658372
-0.15468542 0.056314763 0.28672349
-0.15447158 0.056426853 0.28678009
-0.15431619 0.056619022 0.28689024
-0.15408778 0.056726396 0.28699675
-0.15381746 0.05679673 0.2870183
-0.15353146 0.056915637 0.28702006
-0.153172 0.05695609 0.28702191
-0.15270324 0.056880299 0.28692481
-0.15184207 0.05677598 0.28665373
-0.15061873 0.056743644 0.28618857
-0.14929283 0.056782484 0.285759
-0.14799029 0.056967676 0.28531584
-0.14662473 0.057048008 0.28490371
-0.14531524 0.056982487 0.2846792
-0.14392264 0.056866471 0.28455484
-0.14328368 0.05682252 0.28455257
-0.14254472 0.05678571 0.28451177
-0.14215294 0.056778491 0.28449839
-0.14182726 0.056740932 0.28448689
-0.14151318 0.056717895 0.28444266
-0.14080663 0.056651834 0.28439125
-0.13993204 0.056581873 0.28437227
-0.1392068 0.056505106 0.28433317
-0.13842936 0.056399286 0.28431615
-0.13786452 0.056304581 0.2843565
-0.13736357 0.056237523 0.28438663
-0.13669971 0.056178354 0.28442675
-0.13607536 0.056108207 0.28447896
-0.13537876 0.056020446 0.28451347
-0.13483083 0.055960499 0.28453627
-0.13459374 0.055937663 0.2845481
-0.13422471 0.055907167 0.28456414
-0.13402443 0.055885322 0.28457701
-0.13349496 0.055828765 0.28461373
-0.132735 0.055766504 0.28467447
-0.13200749 0.05570206 0.28472739
-0.13141951 0.055669483 0.28479204
-0.13080943 0.055645563 0.28486708
-0.13045572 0.055641681 0.2849662
-0.13018219 0.055626333 0.28509399
-0.12958393 0.055564936 0.28523621
-0.1287674 0.055473518 0.28538311
-0.12804316 0.055417057 0.28550127
-0.12738831 0.055377524 0.28559679
-0.12685882 0.055340763 0.28576612
-0.12638462 0.055328682 0.28595912
-0.12584469 0.055340335 0.28619134
-0.12535791 0.05534479 0.28632289
-0.12476122 0.055384897 0.28651884
-0.12413215 0.055436011 0.28687081
-0.12363328 0.055558324 0.28722894
-0.12322406 0.055670679 0.28751907
-0.12291335 0.055784512 0.28764498
-0.12255871 0.05579561 0.28773648
-0.12223906 0.055791747 0.2878302
-0.12194645 0.055818859 0.2878938
-0.12160957 0.055887721 0.2880049
-0.12135576 0.055847872 0.28808844
-0.12119795 0.055875316 0.28819489
-0.12105296 0.055964898 0.28828469
-0.12089845 0.056067042 0.28839317
-0.12064664 0.056126267 0.28841221
-0.12040143 0.056149796 0.28840092
-0.12003355 0.056204181 0.28829557
-0.11943854 0.056110382 0.2879217
-0.1185903 0.055856507 0.28741404
-0.11781398 0.055691697 0.28706127
-0.11719958 0.055526488 0.28683338
-0.11662518 0.055405054 0.28658551
-0.11590359 0.055179972 0.28628033
-0.1150562 0.054935355 0.28589526
-0.11421724 0.05466114 0.2855151
-0.11313214 0.054286566 0.2849769
-0.10421826 0.052906901 0.28262877
