# .PCD v0.7 - Point Cloud Data file format
VERSION 0.7
FIELDS x y z
SIZE 4 4 4
TYPE F F F
COUNT 1 1 1
WIDTH 1402
HEIGHT 1
VIEWPOINT 0 0 0 1 0 0 0
POINTS 1402
DATA ascii
-0.19622293 0.13235456 0.31772217
-0.19622289 0.13235451 0.31772211
-0.19622289 0.13235451 0.31772205
-0.19616725 0.13238758 0.31771299
-0.19611637 0.13242045 0.31770134
-0.13755684 0.12837748 0.31232497
-0.13299569 0.1256825 0.3100583
-0.13271353 0.12515523 0.31004599
-0.13242155 0.12513471 0.3100037
-0.13219424 0.12534091 0.31004798
-0.13190077 0.12563616 0.31014171
-0.13161521 0.12592132 0.31023091
-0.13132292 0.12622663 0.31029484
-0.13105175 0.12650497 0.31039703
-0.1307869 0.12678076 0.31046084
-0.13046229 0.12712826 0.3105717
-0.13021645 0.12741306 0.31063369
-0.12984982 0.1277588 0.31075832
-0.12962566 0.12798779 0.3108058
-0.12935904 0.12825197 0.31085953
-0.12905644 0.12856886 0.31095955
-0.12872674 0.12897544 0.3110694
-0.12844642 0.12930734 0.31117627
-0.12804806 0.12975886 0.31132925
-0.12766823 0.13020736 0.31147051
-0.12727401 0.13057396 0.31162971
-0.12689251 0.13092951 0.31179142
-0.12641434 0.13126506 0.31206504
-0.12577407 0.13161419 0.3124809
-0.079744585 0.091985665 0.22545356
-0.079737738 0.091969281 0.22546053
-0.07972829 0.091953628 0.22546864
-0.079729378 0.091976523 0.22546856
-0.079722956 0.092002511 0.22547302
-0.07971663 0.0920045 0.22547847
-0.079709925 0.091982454 0.22548002
-0.07970991 0.092024222 0.22548075
-0.07970418 0.092002071 0.22548229
-0.079692833 0.091979273 0.22548652
-0.021004623 0.10199896 0.24806048
-0.020971477 0.10189857 0.24806276
-0.020950699 0.10185073 0.24805982
-0.020950701 0.10185074 0.24805982
-0.020934701 0.10187899 0.24806045
-0.020911798 0.10177703 0.2480717
-0.020874497 0.10162624 0.24808596
-0.020867737 0.10160031 0.24809189
-0.020881923 0.10178094 0.24807607
-0.020915832 0.10196245 0.24806811
-0.020938741 0.1020655 0.24806526
0.075407818 0.1171854 0.28331056
0.075444557 0.11705838 0.28331462
0.075469263 0.116821 0.28328106
0.075485982 0.11656908 0.2832469
0.075537987 0.11633284 0.28321189
0.075589165 0.11603428 0.28319165
0.075623356 0.11589858 0.2831808
0.07565175 0.11587837 0.28319892
0.075741656 0.11603869 0.2833108
0.075792052 0.11614767 0.28339922
0.088736475 0.12624313 0.30400419
0.088739775 0.12616961 0.30397087
0.088765815 0.12582551 0.30391714
0.088738739 0.12570268 0.30383775
0.088768311 0.12564237 0.30386126
0.088830449 0.1255412 0.30390885
0.088830441 0.1255412 0.3039088
0.088870548 0.12528417 0.30389112
0.088922933 0.12511961 0.30390853
-0.19622296 0.13235459 0.31772232
-0.19622301 0.1323546 0.31772229
-0.19622302 0.1323546 0.31772232
-0.19622304 0.1323546 0.31772229
-0.19622307 0.1323546 0.31772229
-0.19622302 0.1323546 0.31772226
-0.19622302 0.1323546 0.31772226
-0.19622302 0.1323546 0.31772226
-0.19622301 0.13235457 0.3177222
-0.19622298 0.13235456 0.3177222
-0.13398203 0.1278456 0.30986369
-0.13235623 0.12587586 0.31016898
-0.13222998 0.12569627 0.31017831
-0.1318759 0.12580806 0.31012079
-0.13162759 0.12603098 0.31019509
-0.13137037 0.12627707 0.31024861
-0.13106506 0.12658861 0.31034324
-0.13080448 0.12687805 0.31043202
-0.13051644 0.12718453 0.31052652
-0.13020027 0.12752011 0.31062287
-0.12985235 0.12790409 0.31076103
-0.12952849 0.12820064 0.31083772
-0.12934834 0.1283929 0.31088501
-0.12910232 0.12865631 0.31095892
-0.12880088 0.12894508 0.31103671
-0.1284713 0.12931052 0.3111425
-0.12818964 0.12967736 0.3112644
-0.12786004 0.13005245 0.31136876
-0.1275381 0.13040715 0.31148902
-0.12715784 0.13077715 0.31163085
-0.12682287 0.13110785 0.31175831
-0.12638678 0.13157652 0.31194681
-0.1258692 0.13196898 0.31224847
-0.12494933 0.13217464 0.31292191
-0.079822429 0.092549801 0.22541355
-0.079807721 0.092489086 0.22542052
-0.079799183 0.092473209 0.225427
-0.079794288 0.092453316 0.22543101
-0.079791091 0.092479706 0.22543453
-0.079785794 0.092504442 0.22544014
-0.079779178 0.092482433 0.22544138
-0.079779163 0.09248244 0.22544137
-0.079765089 0.092459694 0.22544459
-0.079763494 0.092478216 0.22544572
-0.021027792 0.10220891 0.24804603
-0.021024557 0.10220952 0.248046
-0.021008717 0.10223844 0.24803725
-0.021021158 0.10231622 0.2480308
-0.02102343 0.10236872 0.24803051
-0.021015879 0.1023434 0.24803407
-0.020979872 0.10218921 0.24804059
-0.020967014 0.10219204 0.24804708
-0.021000186 0.1024258 0.24803427
-0.02102278 0.10269091 0.24803573
-0.021042963 0.10290535 0.24804874
0.075362839 0.11782957 0.28328806
0.075395875 0.11762998 0.28330642
0.075453773 0.1173097 0.28329769
0.075465061 0.11696813 0.28323787
0.075507261 0.11654314 0.28323862
0.075518906 0.11641184 0.28320888
0.075536862 0.11617364 0.28312328
0.075619027 0.11598095 0.28311923
0.075653516 0.11607739 0.28315431
0.075677127 0.11617106 0.28323463
0.088726535 0.12674731 0.30405802
0.088742979 0.12661956 0.30404347
0.088704683 0.1264732 0.30395454
0.088707 0.12613155 0.30387282
0.088746369 0.12603363 0.30389455
0.088766314 0.12601106 0.30391669
0.088799469 0.12583913 0.30391386
0.088824309 0.12573345 0.3039223
0.088860244 0.1255141 0.30391663
-0.19622298 0.1323546 0.31772229
-0.19622302 0.13235462 0.31772229
-0.19622302 0.13235463 0.31772229
-0.19622304 0.13235462 0.31772229
-0.19622304 0.1323546 0.31772229
-0.19622304 0.13235459 0.31772232
-0.19622304 0.1323546 0.31772229
-0.19622301 0.13235457 0.31772226
-0.13706201 0.12864572 0.31206009
-0.13203946 0.12683073 0.31034654
-0.13189258 0.12624612 0.31027219
-0.13164137 0.12628931 0.31025261
-0.13134474 0.12645005 0.31023565
-0.1311399 0.12660933 0.31029737
-0.13082692 0.12694412 0.31038037
-0.13052124 0.12725547 0.31049615
-0.13019586 0.12760514 0.31060791
-0.12990288 0.12792034 0.31071857
-0.12962663 0.12826495 0.31082633
-0.12928493 0.12859955 0.31091526
-0.12899372 0.12888485 0.31099924
-0.12879223 0.12911355 0.31106153
-0.12856515 0.12934247 0.31112012
-0.12824687 0.12966493 0.31121132
-0.12794419 0.12998396 0.31131926
-0.12769416 0.13027623 0.31141365
-0.12737733 0.13069704 0.31152058
-0.12700488 0.13104923 0.31166118
-0.12671275 0.13138665 0.31176335
-0.12627915 0.13182405 0.31193301
-0.12577967 0.13231321 0.31216174
-0.12510465 0.13279691 0.31252223
-0.079906642 0.093091793 0.2253664
-0.079898909 0.093074501 0.22537445
-0.079875633 0.093016893 0.22538942
-0.07987076 0.092997134 0.22539397
-0.079870753 0.092997126 0.22539397
-0.079867773 0.093044758 0.22539878
-0.079843245 0.092937931 0.22540648
-0.079840779 0.092935875 0.22540687
-0.079827689 0.092892461 0.22540919
-0.021095742 0.10259856 0.24802086
-0.021096351 0.10262209 0.24802609
-0.021107849 0.10275411 0.24801441
-0.021120124 0.10288481 0.24800907
-0.021120623 0.10293778 0.24801004
-0.021085858 0.10286404 0.24801122
-0.021078894 0.10281208 0.24801537
-0.021072611 0.10284095 0.24801628
-0.021086078 0.10307712 0.24800959
-0.021114506 0.10328994 0.24802136
0.075283788 0.11833445 0.2832081
0.075353228 0.11803657 0.28324223
0.075405225 0.11764044 0.28326237
0.075406916 0.11731421 0.28323463
0.075441182 0.11693443 0.28318101
0.075403631 0.11674672 0.28307098
0.075412646 0.11656481 0.28304306
0.075436592 0.1164317 0.28302851
0.075525813 0.11629553 0.28305817
0.075579986 0.11617362 0.28305075
0.088716783 0.12714027 0.30408537
0.088723242 0.12710498 0.30407664
0.088713527 0.12710948 0.30404815
0.08873672 0.12680577 0.30401018
0.088717341 0.12669918 0.30398095
0.088764548 0.12657569 0.3040086
0.088797987 0.12635282 0.30398563
0.088814713 0.12614042 0.30397481
0.088842116 0.12595977 0.30398083
-0.19622302 0.1323546 0.31772223
-0.19622304 0.13235459 0.31772229
-0.19622307 0.13235459 0.31772229
-0.19622298 0.1323546 0.31772226
-0.1377662 0.12898171 0.31295684
-0.13223141 0.12752815 0.31025317
-0.13156869 0.12690721 0.31039718
-0.13136499 0.12683092 0.31032929
-0.13106084 0.1268829 0.31032681
-0.13084409 0.12703104 0.31035197
-0.13059071 0.12729697 0.31043261
-0.13027982 0.12761775 0.31055725
-0.12995364 0.12793915 0.31067163
-0.12964505 0.12829232 0.31078598
-0.12934531 0.12861446 0.31090459
-0.12904711 0.12895419 0.31099704
-0.12876277 0.12926216 0.31107932
-0.1285094 0.12951821 0.31114182
-0.1283078 0.12974989 0.31120136
-0.1280112 0.1300367 0.31127867
-0.12773666 0.13032831 0.31138062
-0.12745014 0.13065058 0.31147787
-0.12717541 0.13096957 0.31157374
-0.12685324 0.1312992 0.31169444
-0.12651815 0.13165709 0.31180379
-0.12611665 0.13212377 0.31194729
-0.12568071 0.13261183 0.31211931
-0.12511234 0.13314272 0.3123669
-0.079974942 0.093498304 0.22533096
-0.079961956 0.093441799 0.22534636
-0.079944015 0.093383998 0.22535512
-0.079944476 0.09344691 0.22535226
-0.079940021 0.09349674 0.22536246
-0.079935983 0.09349788 0.22536556
-0.079907931 0.093391687 0.2253741
-0.079893909 0.093300693 0.22537339
-0.079882354 0.093233295 0.22537255
-0.021150284 0.10299011 0.24799764
-0.021149458 0.10304146 0.24799837
-0.021173919 0.10325117 0.24798858
-0.021175971 0.10338271 0.24798684
-0.021173943 0.10346221 0.24798624
-0.021157769 0.10341097 0.24798417
-0.021142207 0.10338751 0.24798764
-0.021140298 0.10341428 0.24798733
-0.02115573 0.10354485 0.24799263
-0.021157844 0.10367844 0.24800362
0.075254455 0.11867451 0.28315598
0.07528571 0.1184422 0.28318697
0.075336441 0.11804757 0.28320545
0.075369425 0.11758691 0.28321069
0.075341716 0.11738691 0.28309956
0.075324498 0.11705343 0.28304628
0.0753408 0.11688799 0.28301215
0.075403839 0.11664846 0.28298336
0.075437151 0.11655848 0.2829611
0.075470738 0.11643912 0.28293714
0.088719271 0.12748198 0.30409956
0.088740885 0.12763242 0.30411914
0.088766068 0.12761506 0.30413407
0.088773981 0.12749511 0.30413073
0.088762254 0.12731616 0.30409339
0.088769652 0.12724048 0.30407685
0.088809103 0.12694807 0.30406797
0.088824913 0.12689191 0.30409628
0.088849612 0.12670688 0.30409473
-0.19622307 0.13235457 0.3177222
-0.19622304 0.13235457 0.31772223
-0.19622301 0.13235459 0.3177222
-0.13743204 0.1289137 0.31255326
-0.1322467 0.12795994 0.31016684
-0.1313739 0.12738928 0.31039494
-0.13110834 0.12729783 0.31040695
-0.13084973 0.12730876 0.31034151
-0.13057455 0.1274527 0.31041458
-0.130345 0.12768361 0.31048995
-0.13000333 0.1280427 0.310628
-0.12965955 0.12839042 0.3107619
-0.12939847 0.1286968 0.310853
-0.12909879 0.12899216 0.31096816
-0.12882915 0.12928449 0.31106085
-0.12850642 0.1296303 0.31114551
-0.12827457 0.12990037 0.31122145
-0.1280348 0.13016832 0.31129539
-0.12775241 0.13042538 0.31136614
-0.12752081 0.13067152 0.31143638
-0.12727007 0.13094717 0.31151441
-0.12696758 0.13125327 0.31161249
-0.12663393 0.13165908 0.31173798
-0.12629452 0.13201295 0.31185263
-0.12584534 0.13251865 0.31200916
-0.12548684 0.13292976 0.31213027
-0.12501523 0.13342607 0.31230915
-0.12430023 0.13397646 0.31264192
-0.080082797 0.094054185 0.22529225
-0.080052242 0.093934417 0.22531113
-0.080050848 0.093939647 0.22531585
-0.080038466 0.093923964 0.22533005
-0.080018051 0.093948446 0.22533309
-0.080010891 0.093972534 0.22534055
-0.079984792 0.093887217 0.22534601
-0.079960383 0.09373159 0.22534087
-0.079941012 0.093642019 0.22534393
-0.021208432 0.10338312 0.24798001
-0.021212365 0.1034863 0.24798034
-0.021220611 0.10369436 0.24797095
-0.021226309 0.10388047 0.24796525
-0.021216456 0.10388178 0.24796246
-0.021208959 0.10385594 0.24796216
-0.02119484 0.10380401 0.24797034
-0.021195499 0.10383224 0.2479697
-0.021187074 0.10386041 0.24797511
-0.021190533 0.1039128 0.24798383
0.07517051 0.11910496 0.28306574
0.075236201 0.1188071 0.2831088
0.075251512 0.11852445 0.28309783
0.075283729 0.11811783 0.28308612
0.075252913 0.11776771 0.28303415
0.075271726 0.11755827 0.28302106
0.075302035 0.11744899 0.28302625
0.075315088 0.11723745 0.2829861
0.075361446 0.11704477 0.2829802
0.075407743 0.1169408 0.2829701
0.088713668 0.12808605 0.3041375
0.088723034 0.12820005 0.30415577
0.088748574 0.12814961 0.30417624
0.088773459 0.12799552 0.30415928
0.088745087 0.12790215 0.30411768
0.088757828 0.12766905 0.30408657
0.088789105 0.12753531 0.30410174
0.08883293 0.12734562 0.30413404
-0.19622302 0.13235457 0.3177222
-0.19622304 0.13235457 0.31772223
-0.19622301 0.13235457 0.3177222
-0.13679048 0.12927032 0.31216818
-0.13234089 0.12860954 0.30999058
-0.13122034 0.12780999 0.31036133
-0.13087533 0.12775186 0.3103767
-0.13065025 0.12775211 0.31037369
-0.13030301 0.12794423 0.31042472
-0.13006967 0.12812626 0.31056759
-0.12975076 0.12842256 0.31069341
-0.12941803 0.12877543 0.31083626
-0.12912944 0.12908792 0.31093386
-0.12883161 0.12936671 0.31103131
-0.12858461 0.12962475 0.31110647
-0.12827495 0.12998123 0.31119916
-0.12804085 0.13027087 0.31128228
-0.12778434 0.1305525 0.31137371
-0.1275005 0.13080156 0.31143379
-0.12726478 0.13106164 0.31149995
-0.1270335 0.13130829 0.31157893
-0.12671375 0.13162611 0.31166503
-0.12640579 0.13199279 0.31177792
-0.12601966 0.13240905 0.31190738
-0.12562957 0.13284776 0.31204358
-0.12527134 0.13326246 0.31217039
-0.12491072 0.13367645 0.31228659
-0.12447761 0.13414994 0.31245866
-0.12366165 0.13467085 0.31283376
-0.080271751 0.094883643 0.22523667
-0.080231078 0.094761759 0.2252572
-0.08020293 0.094660074 0.22527088
-0.080156632 0.094516709 0.22528598
-0.080141336 0.094584636 0.22529891
-0.080085829 0.094421148 0.22531176
-0.080050595 0.094269678 0.22531472
-0.080030166 0.094181851 0.22530882
-0.079998255 0.094048865 0.22531129
-0.021263519 0.10380111 0.24796644
-0.02124677 0.10390481 0.24796559
-0.021250818 0.10406321 0.24795634
-0.021274928 0.10419425 0.24795143
-0.021277484 0.10424758 0.24794978
-0.021243459 0.10411876 0.24795339
-0.021243153 0.1041451 0.24795614
-0.021246621 0.10417148 0.2479552
-0.021245694 0.1042517 0.2479628
-0.02123557 0.10419645 0.24798074
0.075105444 0.11966488 0.28295073
0.075167052 0.11926194 0.28298444
0.075193278 0.11898171 0.28297213
0.07520587 0.11877472 0.28298256
0.075221844 0.11852435 0.28299391
0.07527788 0.11834811 0.28304121
0.075249001 0.11810492 0.28296554
0.075285241 0.11780249 0.28299198
0.075260386 0.11771636 0.28296077
0.08869493 0.12865962 0.30418482
0.088727318 0.1288327 0.30420956
0.088727333 0.12883268 0.30420953
0.088726074 0.12853995 0.30415943
0.088748768 0.12804997 0.30410543
0.088755026 0.12793788 0.30408856
0.088764071 0.12782298 0.30406567
0.088770643 0.12782064 0.30406329
-0.19622301 0.13235456 0.31772217
-0.19622302 0.13235457 0.3177222
-0.19622301 0.1323546 0.31772223
-0.19622302 0.1323546 0.3177222
-0.19622301 0.13235459 0.3177222
-0.13041933 0.12821849 0.31037813
-0.13006657 0.1283969 0.31043747
-0.12974687 0.12861952 0.31060669
-0.12950577 0.12885794 0.31072062
-0.12918536 0.12915429 0.31089452
-0.12891418 0.12944163 0.31097645
-0.1286446 0.12969828 0.31107578
-0.1283333 0.13002054 0.31116581
-0.12807535 0.13032405 0.31125334
-0.12783107 0.13058801 0.31133255
-0.12756781 0.13086586 0.31142572
-0.12727593 0.13113208 0.31149271
-0.12696779 0.1314642 0.31157103
-0.12678516 0.13168769 0.31161398
-0.1264078 0.13207296 0.3117142
-0.12611954 0.13239618 0.31182757
-0.12573703 0.13280371 0.31196311
-0.12541051 0.13317735 0.31207916
-0.12506185 0.13361298 0.3121914
-0.1247787 0.13396029 0.31229538
-0.12444129 0.13432184 0.31241876
-0.12401247 0.13478732 0.31259087
-0.12333039 0.13531633 0.31287464
-0.080407962 0.09549918 0.22518538
-0.080358662 0.095402248 0.22520638
-0.080323763 0.09532389 0.22522683
-0.080294497 0.095287882 0.22523022
-0.080278546 0.095247224 0.22524481
-0.080199108 0.094985366 0.2252757
-0.080150157 0.094820864 0.22528759
-0.080105029 0.094696946 0.22529137
-0.080082051 0.094631806 0.22529154
-0.021329978 0.10439762 0.24795149
-0.021309221 0.10434863 0.24795124
-0.02131615 0.10445581 0.24794427
-0.021317666 0.10453616 0.2479421
-0.02131453 0.10459062 0.24794534
-0.02131453 0.10459062 0.24794534
-0.02131444 0.10461726 0.24794839
-0.021300986 0.10456507 0.24795131
-0.021301288 0.10461856 0.24795745
-0.021274174 0.10451233 0.24797045
0.075093217 0.12033623 0.28292426
0.075091973 0.11973929 0.28283682
0.075133942 0.11938306 0.28286836
0.07514295 0.11927474 0.28287262
0.075182021 0.1191517 0.28290853
0.075195082 0.1191499 0.28289935
0.075203098 0.11909381 0.28291062
0.075263388 0.11872467 0.28296021
0.075263128 0.1185456 0.28294969
0.088681467 0.12951308 0.30424422
0.088697076 0.12943958 0.30425107
0.088721327 0.12932703 0.30424351
0.088712879 0.12885062 0.30417672
0.088742331 0.12828456 0.30409914
0.08871828 0.12776227 0.30400959
0.088743851 0.12771767 0.30403301
-0.19622298 0.13235457 0.3177222
-0.19622298 0.13235459 0.3177222
-0.19622301 0.13235459 0.3177222
-0.19622301 0.1323546 0.3177222
-0.12987778 0.12881351 0.31042328
-0.12955663 0.12904929 0.31058478
-0.12920073 0.1293509 0.31073523
-0.12890783 0.12958825 0.31091514
-0.12860832 0.12990499 0.31102023
-0.12839594 0.13014834 0.31109151
-0.12809883 0.13042048 0.31118968
-0.12785017 0.13068667 0.31126598
-0.12759584 0.13094306 0.3113648
-0.12731415 0.13123102 0.31147432
-0.126973 0.13154288 0.31154838
-0.1267029 0.13185234 0.31161171
-0.12646802 0.13212517 0.31167978
-0.12617859 0.1323951 0.31175786
-0.12588257 0.13272204 0.31186458
-0.12553148 0.13311312 0.31199098
-0.12523541 0.1334552 0.3121019
-0.1249501 0.13380326 0.31219962
-0.12469479 0.13412924 0.31228709
-0.12446969 0.1344033 0.31236646
-0.12421467 0.13468923 0.31245244
-0.12377611 0.13504736 0.31263992
-0.12333429 0.13543698 0.31282002
-0.1228762 0.13585141 0.31304169
-0.12244652 0.13622005 0.3132768
-0.12233546 0.13629124 0.31334278
-0.080605507 0.096149191 0.22514628
-0.080522001 0.096018977 0.22516006
-0.080493845 0.095981233 0.22517036
-0.080437399 0.09588816 0.22518612
-0.08040645 0.095830888 0.22519985
-0.080333523 0.095575288 0.22521496
-0.080289416 0.095437095 0.22523966
-0.080259033 0.095401421 0.22524965
-0.080230929 0.095429569 0.22526918
-0.080180369 0.095353313 0.2252945
-0.021422774 0.10500035 0.24795048
-0.021407673 0.10497703 0.2479516
-0.021391384 0.10492864 0.24795417
-0.021389918 0.10498462 0.24794662
-0.021389982 0.10503862 0.24794392
-0.021379465 0.10504051 0.24794883
-0.021369305 0.10501599 0.24794503
-0.021356557 0.10496368 0.24794599
-0.021356557 0.10498998 0.24794878
-0.02134805 0.10498946 0.24795237
-0.021339433 0.10493386 0.24796242
0.074953474 0.12122075 0.28294617
0.075035319 0.12074526 0.28282806
0.075045757 0.12011637 0.28272539
0.075083114 0.11979093 0.28275746
0.075081348 0.11979509 0.28274438
0.075135939 0.11958817 0.28280061
0.075156473 0.11953856 0.2828258
0.075156473 0.11953856 0.28282577
0.075169846 0.11945589 0.28283659
0.075203218 0.11934155 0.28286269
0.088636577 0.13004509 0.30425912
0.088665389 0.13001469 0.30426845
0.088671669 0.12986507 0.30427206
0.088709854 0.1292972 0.30422026
0.088704616 0.12839997 0.30406842
0.088629559 0.12770618 0.30388317
0.088639185 0.12725857 0.30383706
-0.19622298 0.13235459 0.3177222
-0.19622298 0.13235459 0.31772223
-0.19622298 0.13235456 0.31772223
-0.12930885 0.12949969 0.31056532
-0.12897415 0.12977131 0.31073332
-0.12864728 0.13004482 0.31088591
-0.12836733 0.13029304 0.31104475
-0.12806952 0.13059297 0.31115061
-0.12785128 0.13080092 0.31122336
-0.12758447 0.131069 0.31131756
-0.12732363 0.13134381 0.31140247
-0.12707305 0.1315995 0.3114813
-0.12670907 0.13190627 0.31158075
-0.12645145 0.1322073 0.31165123
-0.1262027 0.13246639 0.31173289
-0.12589651 0.13277951 0.31182143
-0.12562665 0.13307512 0.31190589
-0.12535463 0.13337699 0.31200504
-0.1250896 0.1336744 0.31211415
-0.12485769 0.13398106 0.312195
-0.12462114 0.1342717 0.31228545
-0.12441519 0.13451219 0.31235108
-0.12420059 0.13474154 0.31242567
-0.12397206 0.13497689 0.31250033
-0.12368329 0.13522071 0.31261593
-0.12339854 0.13546494 0.31273055
-0.12312495 0.13568717 0.31285167
-0.12289212 0.13589431 0.31294173
-0.080745213 0.096587926 0.22513522
-0.080646336 0.096445762 0.22514831
-0.080580801 0.09637516 0.22516774
-0.080524191 0.09628164 0.22518261
-0.080451041 0.096068315 0.22519521
-0.080419019 0.095992461 0.22520258
-0.080350429 0.09590333 0.2252304
-0.080345675 0.095984772 0.22524175
-0.080311403 0.096211068 0.22529629
-0.021555413 0.10584406 0.24794689
-0.021518433 0.10569032 0.24794479
-0.021494715 0.10556251 0.24794823
-0.021471288 0.10548672 0.2479492
-0.021444896 0.10541008 0.24794653
-0.021443585 0.10543762 0.24794722
-0.02143004 0.10541075 0.24795072
-0.021430042 0.10541077 0.24795069
-0.021427482 0.10538317 0.24795355
-0.021402201 0.10535681 0.24795707
0.074890003 0.12123766 0.2826615
0.074984789 0.12089062 0.28267977
0.074937686 0.12055673 0.28256947
0.074987166 0.12026078 0.28259185
0.075000636 0.12018139 0.28261119
0.075062402 0.12001602 0.28267246
0.075103343 0.12000982 0.282711
0.075120002 0.11995777 0.28274009
0.075130142 0.11992438 0.28274605
0.07517077 0.11987997 0.28277305
0.088578649 0.13054149 0.30427647
0.088626377 0.13054398 0.30430156
0.088637941 0.13029179 0.30429819
0.088672832 0.12983164 0.30426112
0.088681184 0.12878145 0.30410206
0.088606589 0.12784564 0.30387166
0.088500604 0.12701678 0.30372998
-0.19622296 0.13235456 0.31772217
-0.19622296 0.13235456 0.3177222
-0.19622298 0.13235456 0.3177222
-0.19622296 0.13235456 0.31772217
-0.12872747 0.13019088 0.31066531
-0.1284658 0.13038927 0.31082287
-0.12813932 0.13068114 0.31098408
-0.12785333 0.13092485 0.31111529
-0.12760293 0.13116691 0.31123406
-0.12731978 0.13145465 0.31133574
-0.12708153 0.13169375 0.31143677
-0.1267965 0.13194375 0.3115074
-0.12647049 0.13226748 0.31160283
-0.12621324 0.13254374 0.31167683
-0.12596224 0.13277808 0.31175065
-0.12572318 0.13302106 0.31185114
-0.12542178 0.13334291 0.31193087
-0.12520319 0.13359933 0.31201696
-0.12499463 0.13386054 0.31210157
-0.12477908 0.13413617 0.31219417
-0.12457862 0.13436139 0.31226352
-0.12435553 0.13461302 0.31234398
-0.12416625 0.13481905 0.31240162
-0.12397345 0.13501829 0.31246892
-0.12374659 0.13521659 0.31254393
-0.12346941 0.13545193 0.31265971
-0.12320763 0.13569552 0.31274876
-0.1229138 0.13599338 0.31286758
-0.12258951 0.13629372 0.31301096
-0.080821872 0.096876614 0.22513081
-0.080773145 0.096860215 0.22515194
-0.080719225 0.096844651 0.22517352
-0.080618963 0.096734509 0.22520976
-0.080516391 0.096537724 0.22521876
-0.08047124 0.09650483 0.22523662
-0.08041963 0.096436262 0.22524913
-0.080395147 0.096637085 0.22528377
-0.080354787 0.096684724 0.22530702
-0.021783028 0.10684695 0.24793825
-0.021751776 0.10674894 0.24794509
-0.021683427 0.10649901 0.2479573
-0.021612216 0.10624575 0.24796076
-0.021539906 0.10601569 0.24795417
-0.021504326 0.10575022 0.24795
-0.021495035 0.10577847 0.24795501
-0.021463111 0.10570335 0.24795058
-0.021455355 0.1057276 0.24795532
-0.02144398 0.10570145 0.24795221
0.074805126 0.12131076 0.28238389
0.074826308 0.12106019 0.28239787
0.074854277 0.12087491 0.28241122
0.074874766 0.1207397 0.28242093
0.074916407 0.12054221 0.28246334
0.074942932 0.12050056 0.28248712
0.075000912 0.12042756 0.28255618
0.075035818 0.12038579 0.28260067
0.075110838 0.12041225 0.28268808
0.075138807 0.12038486 0.28272405
0.088541299 0.13076983 0.30427891
0.088567697 0.13080965 0.30429912
0.088601001 0.13078171 0.3043189
0.088626429 0.13036585 0.30429012
0.08863762 0.12937629 0.3041524
0.088610925 0.12824602 0.30389112
0.088228889 0.12769561 0.30355591
-0.19622296 0.13235454 0.31772214
-0.19622293 0.13235456 0.31772211
-0.19622293 0.13235454 0.31772214
-0.12823217 0.13079423 0.31076694
-0.12792453 0.13103858 0.31091616
-0.12765323 0.13126475 0.31107309
-0.12737677 0.13152799 0.31122562
-0.12708475 0.13180847 0.31133816
-0.12683654 0.13207167 0.31145754
-0.126524 0.13229178 0.31152517
-0.12629728 0.13253775 0.31160748
-0.12602764 0.1328079 0.31168461
-0.12573177 0.1330962 0.31178424
-0.12550998 0.13331014 0.31187743
-0.12526082 0.1335706 0.31197187
-0.12504216 0.133838 0.31202716
-0.12486727 0.13405642 0.31210634
-0.12465243 0.13433982 0.31220359
-0.12449413 0.13450859 0.31226778
-0.12432399 0.1346875 0.31233159
-0.12412191 0.13490856 0.31239003
-0.12388062 0.13516435 0.31247103
-0.12366977 0.13536213 0.31252694
-0.12343256 0.13556983 0.31261423
-0.12312306 0.13585071 0.31274393
-0.12275789 0.1362002 0.31289312
-0.12246553 0.13652749 0.31302199
-0.080894209 0.097127102 0.22510113
-0.080862112 0.097260356 0.22515424
-0.080779701 0.097294688 0.22520673
-0.08073353 0.097335391 0.22523242
-0.080603331 0.097127348 0.22525473
-0.080546051 0.097103439 0.22526191
-0.080471732 0.097057112 0.2252872
-0.080426879 0.09705098 0.22529779
-0.080386788 0.097062193 0.22531627
-0.021915549 0.10762447 0.24788558
-0.021869309 0.10740452 0.24790578
-0.021823388 0.1072103 0.24792308
-0.021761861 0.10693653 0.24794318
-0.02168913 0.10668679 0.24795327
-0.021625018 0.10643155 0.2479488
-0.021587664 0.10627749 0.24795505
-0.021545067 0.1061496 0.247954
-0.021534339 0.10617409 0.24794832
-0.021532634 0.10622089 0.24794368
0.074730419 0.12152676 0.28226426
0.074774876 0.12131222 0.28230307
0.0748007 0.1211484 0.2823312
0.074838556 0.12098732 0.28235853
0.074866548 0.12087946 0.28237575
0.074879892 0.12082423 0.28238288
0.07489296 0.12080052 0.28239337
0.074922822 0.1208294 0.28242925
0.075036727 0.12093338 0.28256515
0.075123556 0.12123684 0.28270534
0.088447109 0.13089961 0.30419311
0.088503197 0.13106942 0.30427384
0.088538878 0.13112994 0.30431497
0.088538893 0.13112995 0.30431491
0.088601023 0.13078171 0.30431893
0.088598579 0.13004415 0.30420858
0.088564642 0.12896597 0.3039183
0.088401929 0.12849645 0.30371538
-0.19622289 0.13235451 0.31772211
-0.19622289 0.13235453 0.31772211
-0.19622292 0.13235453 0.31772211
-0.12767741 0.13142866 0.31091684
-0.12741512 0.13168176 0.31104904
-0.12707463 0.13197275 0.31120673
-0.12683518 0.13219379 0.3113685
-0.12651031 0.13245648 0.31146064
-0.12633348 0.13259627 0.31151336
-0.12605214 0.13287638 0.31163371
-0.1258412 0.13307546 0.31168887
-0.12554635 0.13339493 0.31179729
-0.12526454 0.133654 0.31190363
-0.12508832 0.13384789 0.31196094
-0.1249101 0.13407405 0.31201395
-0.1247087 0.13432731 0.31209558
-0.12455185 0.13451388 0.31216913
-0.1243722 0.1347086 0.31226206
-0.1241995 0.13489288 0.31232962
-0.12402678 0.13507211 0.31239259
-0.12383476 0.13528045 0.31244412
-0.12357106 0.13553283 0.31250605
-0.12331913 0.13576539 0.31260213
-0.12299777 0.13604105 0.31274387
-0.12265064 0.13640618 0.31289414
-0.12228724 0.13680409 0.31305665
-0.12201468 0.13705203 0.3132022
-0.080979489 0.097269982 0.22505702
-0.080951914 0.097321354 0.22508542
-0.080909654 0.097546585 0.22515662
-0.080849476 0.097752213 0.22522509
-0.080817528 0.097753167 0.22523737
-0.080729201 0.09766297 0.22526848
-0.080635473 0.097548842 0.22528298
-0.080547042 0.097510159 0.22530347
-0.080488935 0.097475767 0.22530769
-0.080437578 0.097414605 0.2253134
-0.021969102 0.10791966 0.24786864
-0.021932276 0.10769605 0.24788232
-0.021881536 0.10750459 0.24789433
-0.021826664 0.10726077 0.24792136
-0.02179864 0.1071124 0.24793361
-0.021754595 0.10696234 0.24793926
-0.021699164 0.10678863 0.24794583
-0.021680703 0.10673939 0.24795035
-0.021672992 0.1067865 0.24794357
-0.021639148 0.10673665 0.24792756
0.074717566 0.121547 0.28221714
0.074748643 0.12141513 0.28224483
0.074769542 0.12130148 0.28225732
0.074787378 0.12117936 0.28227076
0.074832551 0.12108792 0.28230608
0.074853741 0.12103795 0.28231999
0.074847735 0.12116995 0.28231797
0.074941851 0.12157321 0.2824055
0.075101525 0.12192611 0.28261933
0.075101502 0.12283333 0.28294659
0.088425502 0.1311938 0.3042002
0.088446841 0.13146704 0.30429611
0.088460729 0.1315517 0.30431718
0.088484481 0.13155307 0.30432695
0.088538907 0.13112994 0.30431497
0.088548496 0.13061273 0.30425063
0.088511251 0.12970668 0.30398807
0.08845678 0.12919234 0.30382162
-0.1962229 0.13235451 0.31772205
-0.19622289 0.1323545 0.31772202
-0.19622289 0.13235451 0.31772205
-0.12712774 0.13212183 0.31102985
-0.12687171 0.13234958 0.31117934
-0.12664093 0.13255665 0.31129244
-0.12629855 0.13277942 0.31139964
-0.12610869 0.13297211 0.3114875
-0.12581594 0.13323981 0.3116295
-0.12553719 0.13348979 0.31173041
-0.12528127 0.13375485 0.31185165
-0.12502486 0.13401078 0.31195468
-0.12487027 0.13421184 0.31197622
-0.12473056 0.13437016 0.31204024
-0.12456606 0.13457127 0.31210372
-0.12441556 0.13472082 0.31218091
-0.12425145 0.13492011 0.31223342
-0.12407338 0.13510872 0.31230253
-0.12389641 0.1352939 0.31236678
-0.12371134 0.13549224 0.31241643
-0.12345104 0.13573223 0.31247738
-0.12320413 0.13595465 0.3125751
-0.1228844 0.13625288 0.31272438
-0.1225379 0.13659739 0.31289411
-0.12221939 0.13693294 0.31304953
-0.12194281 0.13724448 0.31319723
-0.081000395 0.097354122 0.2250559
-0.080962576 0.097390614 0.22507761
-0.080931172 0.097709298 0.22514904
-0.080912948 0.098027326 0.22522086
-0.080871291 0.098118722 0.22525273
-0.080833852 0.098141283 0.22526875
-0.080733746 0.098017998 0.2252973
-0.080668315 0.097980939 0.22530848
-0.080583066 0.097933955 0.22532161
-0.080503464 0.097821295 0.22532977
-0.021969097 0.10791966 0.2478687
-0.021950023 0.10787439 0.24787025
-0.021916475 0.10767619 0.24788176
-0.021890594 0.10757957 0.24789061
-0.021863714 0.1074058 0.24790551
-0.021826189 0.10728594 0.24791978
-0.021826185 0.10728592 0.24791975
-0.021776622 0.10716099 0.24792476
-0.021775369 0.10720969 0.24792124
0.074684069 0.12187037 0.28215855
0.074707836 0.12169401 0.28217673
0.074734099 0.12158179 0.28219163
0.074726179 0.12147016 0.28217718
0.074743241 0.12141436 0.28218544
0.074780986 0.12138403 0.28222242
0.074839421 0.12140135 0.28226978
0.074877709 0.12190079 0.28232226
0.075042799 0.12239292 0.28254306
0.075106256 0.12367626 0.28310445
0.079173394 0.12688382 0.28917092
0.088258207 0.13088101 0.3039687
0.088304378 0.13158277 0.30417639
0.08836735 0.13193825 0.30431131
0.088364296 0.13206731 0.30433512
0.088404343 0.13202924 0.30434823
0.088477738 0.13162622 0.304324
0.08850529 0.13115004 0.30427197
0.088496462 0.13054532 0.30416727
0.088471837 0.13005795 0.30397585
-0.19616732 0.13238764 0.31771311
-0.1269758 0.13248011 0.31097195
-0.12672865 0.13265897 0.31110317
-0.12641475 0.13285251 0.31122264
-0.1261204 0.13310309 0.31136039
-0.12583297 0.13338932 0.31149092
-0.12558544 0.1336028 0.31160688
-0.12525728 0.13389874 0.31178567
-0.12496649 0.13417457 0.31191489
-0.12478766 0.13435145 0.3120153
-0.1246949 0.13447553 0.31202829
-0.12455887 0.13464841 0.31206885
-0.12442859 0.13478675 0.31212646
-0.12428013 0.13494974 0.31217429
-0.12412256 0.13510817 0.31223208
-0.12394015 0.13532074 0.31228217
-0.12377124 0.13549547 0.31234187
-0.12358911 0.13568005 0.31240085
-0.12335729 0.13587983 0.31247482
-0.12308632 0.13614026 0.31255859
-0.12283757 0.13636389 0.3126795
-0.12252239 0.13665842 0.31284896
-0.1222419 0.13696815 0.31298998
-0.1219986 0.13722868 0.31312487
-0.081044637 0.0975895 0.22505683
-0.081036367 0.097634725 0.22507948
-0.080965273 0.098005034 0.2251758
-0.080927119 0.098269776 0.22522719
-0.080911696 0.098402858 0.2252564
-0.080880895 0.098460846 0.22528701
-0.080846846 0.098466121 0.2252961
-0.080813996 0.098438494 0.22530031
-0.080719285 0.098328985 0.22530864
-0.08060436 0.098167889 0.225306
-0.021971913 0.10794554 0.24786624
-0.02195002 0.10787442 0.2478703
-0.021942709 0.107876 0.24787062
-0.021916879 0.10780462 0.2478746
-0.021903485 0.10770471 0.24788238
-0.021874329 0.10753208 0.24789494
-0.021861166 0.10748289 0.24790071
-0.021839118 0.10748359 0.247906
-0.02184912 0.10755768 0.24790119
0.074641213 0.1221495 0.28210548
0.074683398 0.12198938 0.28213638
0.07469862 0.12193245 0.28214228
0.074712381 0.121847 0.28215209
0.074705005 0.12173644 0.28213251
0.074740499 0.12169715 0.28216463
0.074789472 0.12170418 0.28220895
0.074858218 0.12205993 0.28228474
0.074970752 0.12267336 0.28244558
0.075056188 0.12412569 0.28308567
0.079661928 0.12862723 0.28984219
0.086079068 0.13055168 0.29945946
0.088157214 0.13075472 0.30376244
0.088197626 0.13174979 0.30408326
0.088286422 0.13237792 0.30432776
0.088267736 0.13271111 0.30439308
0.088317908 0.1326399 0.30441058
0.088368036 0.13222729 0.30435356
0.088468947 0.13173798 0.30431527
0.088484861 0.13112698 0.30421954
0.088468738 0.13083714 0.30413586
-0.12655349 0.13290474 0.31097785
-0.12631342 0.13308062 0.31109408
-0.12604778 0.13331902 0.31123373
-0.12570626 0.13363385 0.31142363
-0.12535515 0.1339476 0.31163418
-0.1249852 0.13429506 0.31182986
-0.12471401 0.13452874 0.31199682
-0.12460286 0.13463791 0.31204927
-0.12451626 0.13475496 0.31207392
-0.12440823 0.13486277 0.3121205
-0.12427051 0.13503465 0.31215498
-0.12414405 0.13515212 0.31220272
-0.12399153 0.13531198 0.31224307
-0.12380563 0.13549846 0.31230634
-0.12364442 0.13567872 0.31234056
-0.12346058 0.1358684 0.31240299
-0.12325453 0.13605043 0.31247193
-0.12297303 0.1363036 0.31259036
-0.12274484 0.13653202 0.31267944
-0.12254076 0.13675854 0.31275159
-0.1222482 0.13704643 0.31291381
-0.12205156 0.13724779 0.31302837
-0.081089392 0.098007731 0.22510009
-0.081027493 0.098199971 0.22516926
-0.080978237 0.098381966 0.22521627
-0.080944359 0.098535448 0.22524554
-0.0809111 0.098671764 0.22527657
-0.080902271 0.098689228 0.22528499
-0.080900386 0.09873227 0.22528742
-0.080885701 0.098718688 0.22528948
-0.080813102 0.098672949 0.22529826
-0.080700696 0.09852922 0.22530472
-0.021983638 0.10807451 0.24785827
-0.021976117 0.10805023 0.2478593
-0.021965632 0.10802748 0.24785994
-0.021956718 0.1080035 0.24786092
-0.021927819 0.10787942 0.24786812
-0.021907 0.10778107 0.247877
-0.021879409 0.1076818 0.24788511
-0.021872545 0.10765699 0.24788629
-0.021872152 0.10768142 0.24788417
0.074622542 0.12248668 0.28207931
0.074651554 0.12237673 0.28209478
0.074687816 0.12230116 0.2821255
0.074692041 0.1221767 0.28212535
0.074698068 0.12204904 0.28211972
0.074707128 0.12202065 0.28212425
0.074725114 0.12203273 0.28214079
0.074799925 0.12226573 0.28221083
0.074910156 0.12281778 0.28235114
0.074953847 0.124152 0.28282189
0.077544957 0.12689161 0.28634089
0.083905004 0.12990636 0.29595742
0.08788874 0.13095127 0.30341777
0.088187449 0.13187994 0.3040823
0.088177308 0.13271667 0.30429304
0.088203758 0.13333181 0.30446818
0.088207409 0.13337626 0.30448443
0.088272996 0.13296224 0.30442998
0.08836323 0.13217476 0.30432665
0.088449188 0.13154444 0.30423209
0.08847601 0.13133553 0.30420384
-0.12628971 0.13327308 0.31097198
-0.12593564 0.13359754 0.31113735
-0.12554401 0.13390039 0.31138781
-0.12513217 0.13427128 0.31165421
-0.12475563 0.1346333 0.31186265
-0.12456073 0.13478611 0.3119849
-0.12443832 0.13489974 0.31208178
-0.124318 0.13502546 0.31213185
-0.12423982 0.13510969 0.31216371
-0.12412393 0.1352281 0.31219202
-0.1239737 0.13538988 0.31221941
-0.12383278 0.13553426 0.3122493
-0.12367731 0.13569348 0.31228438
-0.12350314 0.13586749 0.31234005
-0.12331655 0.13608246 0.31238303
-0.12313445 0.13624425 0.31244773
-0.12289389 0.13643944 0.31255448
-0.12265734 0.13666593 0.31266171
-0.1224762 0.1368707 0.3127574
-0.12222505 0.13712639 0.31287888
-0.12202218 0.13731989 0.31299976
-0.081033006 0.098723166 0.22521062
-0.080992401 0.098713808 0.22522976
-0.080963016 0.098744571 0.22525281
-0.080945611 0.098905869 0.2252696
-0.080935642 0.098945305 0.22527958
-0.080930173 0.09892416 0.22528061
-0.080933496 0.09898819 0.22528109
-0.080928005 0.098966874 0.22528213
-0.080897681 0.09894073 0.22528556
-0.080810696 0.098831445 0.2252894
-0.022003684 0.10825243 0.24784988
-0.021999003 0.10822714 0.24785092
-0.021988321 0.10817751 0.24785428
-0.021982189 0.10815252 0.24785498
-0.02195218 0.10805485 0.2478596
-0.021939002 0.10797994 0.24786247
-0.021907322 0.10788124 0.24786907
-0.021905659 0.10790598 0.24786814
0.07461746 0.12276186 0.28206509
0.074629657 0.12270522 0.28207082
0.074662708 0.12256537 0.28209317
0.074662395 0.12253401 0.28209281
0.074674703 0.12244228 0.2820943
0.074675858 0.12237936 0.28209081
0.074713461 0.12237059 0.28212503
0.074756317 0.1224812 0.28215784
0.074864134 0.12289599 0.28230497
0.074797198 0.12409905 0.28257361
0.076965466 0.12708761 0.28514904
0.084209077 0.13011649 0.29636168
0.087856986 0.13184161 0.30330458
0.088135354 0.13231292 0.30411422
0.088134758 0.13315803 0.30434611
0.088146225 0.13364813 0.30449393
0.088174626 0.13376747 0.30460846
0.088208735 0.13341606 0.30448553
0.088288799 0.13270174 0.30436137
0.088348962 0.13226117 0.30427343
0.088425279 0.13172822 0.30422243
-0.12581204 0.13388005 0.31109011
-0.12532747 0.13427223 0.31141865
-0.1249584 0.13458583 0.31164116
-0.12460019 0.1348649 0.31190038
-0.12442402 0.13503104 0.31198114
-0.12427302 0.13515715 0.31207198
-0.12415317 0.13527465 0.31213123
-0.12403134 0.13538873 0.31219241
-0.12391842 0.13549633 0.31223309
-0.12378351 0.13563874 0.31224164
-0.12365782 0.13575454 0.31227893
-0.12350993 0.1359248 0.31230858
-0.12334657 0.13608754 0.31236538
-0.12318464 0.1362465 0.31242111
-0.1229834 0.13643859 0.31247595
-0.12275391 0.13662407 0.31259537
-0.12254377 0.13682821 0.31269512
-0.12236018 0.13703294 0.31278023
-0.12215999 0.13723919 0.31289673
-0.12192652 0.13746114 0.31302169
-0.081035659 0.099227764 0.22524878
-0.081001252 0.099222928 0.22526245
-0.080985613 0.099219419 0.22527155
-0.080980062 0.099220291 0.22527373
-0.080980062 0.099220276 0.22527376
-0.080971368 0.099200062 0.22527239
-0.080961093 0.099200338 0.22527312
-0.080955349 0.099179022 0.22527395
-0.080915801 0.099132083 0.22527583
-0.022043204 0.10842448 0.24783857
-0.022025609 0.10835115 0.24784346
-0.022014661 0.1083286 0.24784516
-0.022006815 0.10830441 0.24784623
-0.021994339 0.10825489 0.24784835
-0.021972815 0.10818068 0.24785078
-0.021956189 0.10813109 0.24785277
-0.021942524 0.10813082 0.24785213
0.07461039 0.12300923 0.28205243
0.074643016 0.1228677 0.28206933
0.07464309 0.12283693 0.28207037
0.074662931 0.12268274 0.28207386
0.074673176 0.12265556 0.2820808
0.074673191 0.12265556 0.28208077
0.074709862 0.12264816 0.28211677
0.074773759 0.12290689 0.28218669
0.087940469 0.13246465 0.30374861
0.08805424 0.13300604 0.30419073
0.08807984 0.13365188 0.30442074
0.088119395 0.13420273 0.30462494
0.088168964 0.13431396 0.3047047
0.088173032 0.13395621 0.30457041
0.088213161 0.13344812 0.30446109
0.08826369 0.13288833 0.30436236
0.088351309 0.13246192 0.30431008
-0.12463598 0.13501211 0.31176019
-0.12434366 0.1352067 0.31197098
-0.12419853 0.13530312 0.31207624
-0.124092 0.13541758 0.31210792
-0.12397638 0.13552561 0.31214169
-0.12386352 0.13563754 0.31217951
-0.12373598 0.13576041 0.31222123
-0.12362117 0.13586871 0.31226248
-0.12349311 0.13598819 0.31230652
-0.1233405 0.13615382 0.31234351
-0.12319987 0.13631065 0.31238768
-0.12302186 0.13648281 0.31245589
-0.1228412 0.13664414 0.31250834
-0.12263843 0.13681416 0.31260738
-0.12244455 0.13698983 0.31272674
-0.12224517 0.13720059 0.3128114
-0.12202763 0.13742226 0.31294516
-0.12182234 0.13762107 0.31303096
-0.081051469 0.099600263 0.22526608
-0.081043422 0.099580608 0.22526495
-0.081031434 0.099539079 0.22526474
-0.081031434 0.099539064 0.22526477
-0.081026338 0.099539459 0.22526583
-0.081011795 0.099497691 0.22526407
-0.080997728 0.099455655 0.22526334
-0.080990016 0.099434584 0.22526246
-0.080971576 0.099412516 0.2252616
-0.022073403 0.10862463 0.24782357
-0.022047209 0.10855448 0.24783002
-0.022034142 0.10850525 0.24783294
-0.022029219 0.10847996 0.24783401
-0.022018086 0.10845666 0.24783581
-0.022011677 0.10843168 0.24783696
-0.022003746 0.10840684 0.24783805
-0.022000551 0.10843103 0.24783528
0.074545227 0.12339342 0.28207585
0.07457944 0.12324476 0.2820453
0.074628554 0.12307324 0.28204307
0.074642435 0.12298358 0.28204697
0.074652635 0.12295596 0.28205261
0.074666224 0.12293037 0.28206274
0.074666217 0.12293036 0.28206274
0.088013634 0.1339543 0.30441403
0.088071063 0.13443509 0.30463621
0.088089287 0.13471456 0.30473644
0.088133991 0.1346547 0.30476266
0.088150389 0.1345538 0.30470639
0.088153832 0.13422486 0.30456656
0.08815974 0.13379131 0.30445996
0.088214748 0.13362622 0.30444011
-0.12402318 0.13564582 0.31202343
-0.12395355 0.13568567 0.31210476
-0.12387662 0.13573487 0.31213412
-0.12380786 0.13576928 0.31216758
-0.12367707 0.13591217 0.31220451
-0.12356568 0.13602535 0.3122431
-0.12344146 0.13613081 0.31229225
-0.1233189 0.13627337 0.3123188
-0.12318683 0.13639407 0.31237173
-0.12304471 0.136526 0.31242356
-0.12288099 0.1366875 0.31247613
-0.12267396 0.13685562 0.31257465
-0.12249897 0.137005 0.31264317
-0.12231377 0.13716909 0.3127614
-0.12210936 0.13737077 0.31285545
-0.12190469 0.13758114 0.31296632
-0.081070386 0.099860407 0.22525088
-0.081065923 0.099795133 0.22525425
-0.081056729 0.099797189 0.22525376
-0.081051201 0.099776007 0.22525395
-0.081043012 0.099755518 0.22525287
-0.081032269 0.099712744 0.2252537
-0.081026949 0.099690944 0.22525412
-0.081018798 0.099669643 0.22525272
-0.08099781 0.099668495 0.22524987
-0.022098415 0.10882626 0.24780597
-0.022079291 0.10872777 0.24781571
-0.022059521 0.10870632 0.24781789
-0.022059524 0.10870632 0.24781789
-0.022059523 0.10870633 0.24781787
-0.022059519 0.10870632 0.24781784
-0.02205641 0.10873089 0.2478153
-0.022052793 0.10885739 0.24780911
0.074524544 0.12367097 0.28208619
0.074543379 0.12365424 0.28209028
0.074558929 0.123561 0.28206605
0.074574776 0.12350036 0.2820451
0.074611314 0.12334859 0.28202534
0.074644364 0.1232311 0.28203112
0.074649461 0.12325378 0.28201419
0.088051498 0.13503526 0.30472422
0.088051476 0.13503525 0.30472419
0.088102214 0.13503288 0.30478641
0.088109903 0.13489456 0.30475333
0.088117152 0.13473305 0.30466416
0.088156216 0.13467054 0.30469087
0.088156983 0.13453737 0.30465168
-0.12365906 0.13612737 0.31215438
-0.12370023 0.13600844 0.31215534
-0.12363339 0.13600819 0.3121964
-0.12351751 0.13614072 0.31223401
-0.12339581 0.13626745 0.31226969
-0.12326153 0.13641503 0.31232253
-0.12314679 0.13650374 0.3123703
-0.12302901 0.13663369 0.3124145
-0.12288245 0.13673943 0.31247103
-0.12267872 0.13691513 0.31253695
-0.1224854 0.13707773 0.31263947
-0.12231831 0.13719819 0.3127217
-0.12215276 0.13736597 0.31280234
-0.12196919 0.13756905 0.31288594
-0.12179603 0.13775849 0.31295905
-0.081094354 0.10012066 0.22523907
-0.081083208 0.10003413 0.22524123
-0.081069842 0.1000146 0.22524275
-0.081064135 0.09999349 0.225243
-0.081064135 0.09999349 0.22524303
-0.081052907 0.099950545 0.2252437
-0.081040293 0.099972695 0.22524378
-0.081034698 0.099950664 0.22524399
-0.081027679 0.099928387 0.22524336
-0.022173021 0.1091963 0.24777041
-0.022135388 0.10904998 0.24778427
-0.022124019 0.10897542 0.2477926
-0.022106649 0.10892894 0.24779981
-0.022103606 0.10895499 0.24779707
-0.022109143 0.10898039 0.24779642
-0.022102825 0.10916279 0.24779573
-0.022092847 0.10929293 0.24780838
-0.022088613 0.10931782 0.2478137
0.074524306 0.12402458 0.28208399
0.074526079 0.12399185 0.28207999
0.07453981 0.12403426 0.28210169
0.07456284 0.12408365 0.28213948
0.074569792 0.12405262 0.28212735
0.074584626 0.12401311 0.28208807
0.074589312 0.12398078 0.28207767
0.087966613 0.13594024 0.30488282
0.088012606 0.13579899 0.30490014
0.088045612 0.13563143 0.30489495
0.088101938 0.13528626 0.30482394
0.088055424 0.13515514 0.30470562
0.0880896 0.13496618 0.30465207
0.088135578 0.13490461 0.30467901
-0.12347225 0.13630813 0.31214374
-0.12335166 0.13637589 0.31224632
-0.12323862 0.13649981 0.31230384
-0.12309322 0.13664213 0.31236172
-0.12298696 0.13673753 0.31240565
-0.12286486 0.13684204 0.31244999
-0.12265738 0.13699847 0.31254089
-0.12241328 0.13719437 0.31263688
-0.12224457 0.13732491 0.31273732
-0.12209 0.13747777 0.31282309
-0.12195133 0.13760932 0.31288013
-0.12180502 0.13776751 0.31295997
-0.081114963 0.10041244 0.22523944
-0.081101894 0.10037022 0.22524068
-0.081095949 0.10034861 0.22524115
-0.081088759 0.10032701 0.22524136
-0.081087463 0.10034987 0.22524427
-0.081078775 0.10035088 0.22524677
-0.081079543 0.1003735 0.22524884
-0.081068344 0.100283 0.2252479
-0.081062473 0.10026053 0.2252481
-0.022197586 0.1094838 0.24775891
-0.022179857 0.10932581 0.24776052
-0.022164745 0.10927801 0.24776788
-0.022146484 0.10923161 0.24777706
-0.022119742 0.10923687 0.24778986
-0.022121131 0.10934236 0.24779649
-0.022116741 0.10947628 0.24781175
-0.022134587 0.10960411 0.24780987
-0.022139987 0.10976053 0.24782148
0.074528664 0.12434024 0.28207755
0.074536622 0.12431009 0.28206709
0.074536622 0.12431011 0.28206709
0.074562244 0.12432618 0.28210217
0.074585088 0.12437195 0.28214717
0.074589603 0.12437193 0.28213456
0.074593939 0.12439578 0.28211081
0.08793693 0.13611084 0.30487362
0.087953255 0.13631536 0.30488345
0.088011347 0.13631836 0.30495507
0.088025264 0.13614176 0.30495909
0.088013411 0.13584343 0.30489269
0.088050313 0.1353718 0.30471924
0.088062026 0.13515948 0.30466595
0.08807864 0.13508165 0.30464178
-0.12306139 0.13674602 0.31230563
-0.12292679 0.13687566 0.31235701
-0.12278827 0.13698652 0.31243655
-0.12260512 0.13712162 0.31250474
-0.12236854 0.13728407 0.31263196
-0.122132 0.13749146 0.31277734
-0.12192154 0.13769399 0.31289288
-0.12182915 0.13779677 0.31294164
-0.12173764 0.13789855 0.31299621
-0.12164982 0.13797766 0.3130489
-0.081166372 0.10079563 0.22525561
-0.081141591 0.10061575 0.22524782
-0.081130423 0.10057253 0.22524877
-0.081123233 0.10055132 0.22524978
-0.081114948 0.10053034 0.22525109
-0.081113696 0.10055307 0.22525406
-0.081113562 0.1005758 0.22525676
-0.081114449 0.10059842 0.22525892
-0.081116371 0.10062092 0.22526051
-0.081116371 0.1006209 0.22526053
-0.022230737 0.10977438 0.24775627
-0.022208499 0.10967073 0.24776298
-0.022193188 0.10959441 0.2477688
-0.022169281 0.10951822 0.24777518
-0.022157403 0.10952212 0.24778469
-0.022152925 0.10963125 0.24780235
-0.022154886 0.10973723 0.24780953
-0.022158811 0.10984056 0.24781656
-0.022153791 0.10994191 0.24782981
0.074527666 0.12464511 0.28203115
0.074526198 0.12458127 0.2820341
0.074526191 0.12458126 0.28203413
0.074554406 0.1246286 0.28206655
0.074582316 0.12467417 0.2821081
0.074599072 0.1247233 0.28213948
0.074593209 0.12466631 0.28207624
0.087925516 0.13632885 0.30484858
0.087952115 0.136491 0.30496937
0.087983571 0.13665472 0.30497882
0.087992296 0.13651821 0.30500084
0.087999575 0.13621034 0.30490789
0.088016309 0.13564712 0.30473459
0.088024177 0.13539399 0.30463973
0.088035807 0.13526899 0.30459446
-0.12274007 0.13711093 0.31238496
-0.12257213 0.13724145 0.31244949
-0.12230013 0.1374162 0.31260186
-0.1220834 0.13759881 0.31274253
-0.12188436 0.13782071 0.31287518
-0.12171844 0.13798557 0.31300205
-0.12163018 0.13806766 0.31306064
-0.081213295 0.1010578 0.2252565
-0.081195168 0.100972 0.22525749
-0.081177838 0.1008385 0.22525409
-0.081166379 0.10079565 0.22525562
-0.081150495 0.10075384 0.22525859
-0.081150487 0.10075384 0.22525856
-0.081150502 0.10075384 0.22525859
-0.081150502 0.10075386 0.22525862
-0.081151254 0.10084315 0.22526534
-0.08115419 0.10086527 0.22526576
-0.081183709 0.10101867 0.22526345
-0.022295905 0.11016779 0.24775447
-0.022247478 0.10993382 0.24775967
-0.022231095 0.10985705 0.2477649
-0.022206005 0.1097814 0.24777317
-0.022193687 0.10978548 0.24778304
-0.022189533 0.1098121 0.24778867
-0.022190457 0.10991716 0.24779865
-0.0221992 0.11007555 0.24780846
-0.022200221 0.11010204 0.24780864
0.074514039 0.12491112 0.28198671
0.074514367 0.12487993 0.28198689
0.074523076 0.12478706 0.28198478
0.074537359 0.12472538 0.28197369
0.074532777 0.12475704 0.28197819
0.074562371 0.12480377 0.28201365
0.074590616 0.12481711 0.28205469
0.074600346 0.12480839 0.28202721
0.08791472 0.13654311 0.30482647
0.087922998 0.13664751 0.30490348
0.087991193 0.13681918 0.30500358
0.087999098 0.13672963 0.30501208
0.087970488 0.13651209 0.3048813
0.087929986 0.13610102 0.30475152
0.08798866 0.13566203 0.30459481
0.087954573 0.13542604 0.30445635
-0.12204865 0.13772365 0.31267807
-0.12183658 0.13794608 0.31282973
-0.081265338 0.10137884 0.22524989
-0.081240751 0.1012531 0.22525483
-0.081229366 0.1011663 0.22525465
-0.081205338 0.10103771 0.22525726
-0.081193753 0.1009956 0.22525972
-0.081186093 0.10097479 0.22526112
-0.081157513 0.10079708 0.22525916
-0.081148624 0.10079856 0.22526263
-0.081151262 0.10084314 0.22526531
-0.081184313 0.10099675 0.22526237
-0.081186861 0.10110518 0.22526494
-0.08122015 0.10127825 0.22525989
-0.081236765 0.10142746 0.22525512
-0.022504967 0.11120315 0.24779172
-0.02239906 0.110764 0.24777167
-0.02231111 0.11033233 0.24775846
-0.022272006 0.1101208 0.24776156
-0.022245385 0.11004454 0.24776898
-0.022233075 0.1100212 0.2477755
-0.022228327 0.11007502 0.24778379
-0.022221895 0.11012731 0.24779592
