# .PCD v0.7 - Point Cloud Data file format
VERSION 0.7
FIELDS x y z
SIZE 4 4 4
TYPE F F F
COUNT 1 1 1
WIDTH 1353
HEIGHT 1
VIEWPOINT 0 0 0 1 0 0 0
POINTS 1353
DATA ascii
-0.04748759 0.079902038 0.31385931
-0.047018062 0.079887591 0.31377375
-0.046628147 0.079864182 0.31373107
-0.046292815 0.079864912 0.31368667
-0.0457788 0.079848118 0.31360695
-0.045181554 0.079837404 0.31348145
-0.044450901 0.079816036 0.31331962
-0.043835763 0.079788759 0.31322035
-0.0433474 0.079756565 0.31316826
-0.042823914 0.079744376 0.31307921
-0.042239416 0.079712041 0.31298035
-0.041515168 0.079665072 0.31282929
-0.040875342 0.079613641 0.31268668
-0.040137708 0.079536244 0.31250513
-0.039532319 0.079506181 0.31235594
-0.038919926 0.079476275 0.31220657
-0.038201716 0.079455994 0.31202954
-0.037458673 0.079445057 0.31184995
-0.036614485 0.079421557 0.31166646
-0.036007032 0.079391003 0.3115558
-0.035189152 0.079366043 0.31139478
-0.034464583 0.079326913 0.3112449
-0.033512034 0.079253703 0.31101876
-0.032758493 0.079189606 0.3107976
-0.031752624 0.079167709 0.3104912
-0.030911187 0.079120345 0.31026405
-0.030140013 0.079075754 0.3100687
-0.02932819 0.079054445 0.30990425
-0.028797669 0.079069704 0.30982229
-0.028002581 0.079029217 0.30970234
-0.027229778 0.079022348 0.30962804
-0.026447752 0.079035036 0.30961391
-0.025842901 0.079069257 0.30962384
-0.025060052 0.079109333 0.30972522
-0.024213474 0.07916306 0.30981597
-0.023466993 0.07916569 0.30987301
-0.022710651 0.079161108 0.30992022
-0.02199416 0.079165675 0.30990335
-0.021200549 0.079096757 0.30991319
-0.020440463 0.079024345 0.30992517
-0.0196606 0.078999914 0.3099533
-0.019135013 0.0789309 0.30995971
-0.018537907 0.078934312 0.30996847
-0.017921304 0.078969382 0.31003898
-0.017380731 0.079022437 0.31016919
-0.016874114 0.07906235 0.31031016
-0.016443064 0.079176739 0.31043258
-0.01607151 0.079348274 0.31059647
-0.015773308 0.079484209 0.31067044
-0.015394485 0.079474777 0.31060532
-0.015030722 0.079292037 0.31046426
-0.014504389 0.079056635 0.31019774
-0.014044128 0.078890815 0.30982086
-0.013599101 0.078830048 0.30963936
-0.013066888 0.078703381 0.30934227
-0.012549562 0.078643575 0.30924433
-0.011996582 0.078559861 0.30913031
-0.011459685 0.078532919 0.30905619
-0.010914208 0.078504018 0.30891794
-0.010416565 0.07846991 0.30882391
-0.0098568248 0.078385569 0.30869904
-0.0091035701 0.078365527 0.30843237
-0.0084562115 0.078328177 0.30825856
-0.0077982442 0.078275643 0.30805039
-0.0071410099 0.078228667 0.3078087
-0.0065232273 0.078162409 0.30760798
-0.0059745759 0.078133911 0.30745283
-0.005387573 0.078116201 0.30729839
-0.0048146071 0.078088008 0.30718151
-0.0041264207 0.078090176 0.30705404
-0.0033996769 0.078085281 0.30693224
-0.0026601783 0.078109458 0.30682638
-0.0019115853 0.078102544 0.30672258
-0.0010885929 0.078095287 0.30658546
-0.0002981424 0.078066081 0.30645373
0.00042047809 0.078041933 0.30632526
0.0012087724 0.077993028 0.3061862
0.0019520585 0.077933401 0.30605942
0.0026908661 0.077901393 0.30594373
0.0034273397 0.07787703 0.30583858
0.0042292611 0.07786046 0.30572867
0.0049550007 0.077839889 0.30563116
0.0055355597 0.077814415 0.30555004
0.0061375801 0.077792235 0.30547959
0.0067672306 0.077771097 0.3054181
0.0074578552 0.077753767 0.30536222
0.0081744585 0.077720769 0.30531868
0.0088199861 0.077686086 0.30527401
0.0094919363 0.077653766 0.30522448
0.010110596 0.077631533 0.3051742
0.010663629 0.077609569 0.30511644
0.011180963 0.077592574 0.30505791
0.011726755 0.077564172 0.30500695
0.012206635 0.077546231 0.3049714
0.012717389 0.077520885 0.3049351
0.013225053 0.077495866 0.30489936
0.013725163 0.077476189 0.30485728
0.014253231 0.077450529 0.3048166
0.014840121 0.077427514 0.30476779
0.015392219 0.077401049 0.30471832
0.015969312 0.077368155 0.30466083
0.016572971 0.077332295 0.30459291
0.017111164 0.077292398 0.30453363
0.017708188 0.077271432 0.30445397
0.018305158 0.077247985 0.30437976
0.018932292 0.077224404 0.30431089
0.019558271 0.077216208 0.30424085
0.020125065 0.077214308 0.30417773
0.020692095 0.077220984 0.30411318
0.021322507 0.077209376 0.30402735
0.022013694 0.077194408 0.30393976
0.022641871 0.077183858 0.303866
0.023269249 0.0771809 0.30381119
0.023865074 0.077175274 0.30377114
0.024548849 0.077180371 0.30371097
0.025288882 0.077181377 0.30364278
0.026023243 0.07718382 0.30355805
0.026730882 0.077179372 0.30346718
0.027323471 0.077177443 0.30339211
0.027887153 0.077157557 0.30333236
0.028481215 0.077151589 0.30326381
0.029077439 0.077136807 0.30320552
0.029731018 0.077129252 0.30313039
0.030319205 0.077113487 0.30306759
0.030931158 0.077115536 0.30298999
0.031511929 0.077097677 0.30291173
0.032060981 0.077087909 0.3028405
0.032608923 0.077065811 0.302764
0.033186503 0.077055469 0.30267206
0.033734858 0.077047668 0.30258742
0.034312278 0.077043243 0.30249783
0.034891762 0.077039823 0.30240977
0.035499737 0.077033892 0.30233294
0.036164902 0.077024981 0.3022587
0.036856495 0.076997608 0.30220339
0.037534993 0.076983131 0.30214986
0.03828039 0.076932818 0.30210048
0.038899861 0.076894216 0.30205783
0.039706927 0.076913647 0.30201778
0.040477552 0.076871164 0.30197486
0.041078746 0.076913156 0.30191487
0.041832365 0.076900095 0.30190888
0.042402431 0.076862231 0.3018485
0.043153826 0.076931655 0.30178863
0.043790821 0.076885059 0.30175266
0.044452034 0.076928742 0.30169949
0.045018807 0.076901995 0.30172828
0.045600835 0.076990545 0.30172667
0.046181902 0.077112272 0.30171335
0.046625786 0.077165253 0.30166766
0.047044981 0.077151991 0.30155566
0.047533087 0.077166773 0.30147538
0.047977678 0.077178039 0.30142131
0.048429187 0.077241696 0.30138993
0.048923366 0.077340648 0.30141425
0.049314652 0.07738173 0.30136958
0.049734209 0.077432379 0.30136424
0.050018407 0.077422887 0.30135268
0.050325967 0.077519707 0.30134174
0.050621491 0.07743457 0.3013142
0.050863706 0.077425428 0.3012985
0.051178247 0.07740175 0.30126709
0.051511351 0.077404857 0.30122629
0.051779326 0.077344082 0.30118713
0.0521161 0.077225402 0.30100414
0.052432224 0.077053741 0.30075914
0.052861918 0.077074699 0.30055574
0.053171739 0.077067286 0.30049756
0.053551339 0.077078454 0.30038601
0.053861041 0.077127546 0.30037373
0.054189216 0.077337816 0.30046707
0.054580241 0.077451564 0.30051851
0.054919243 0.077504456 0.30045316
-0.088784248 0.08047203 0.31838137
-0.08842852 0.080474988 0.31832713
-0.088035002 0.080506861 0.3182905
-0.087564394 0.080535442 0.31827632
-0.087113068 0.080565691 0.31826869
-0.086715221 0.080586314 0.31826347
-0.086159401 0.08063858 0.31824768
-0.08590319 0.080666944 0.31823781
-0.08557184 0.080715686 0.31823954
-0.085306972 0.080703273 0.3182435
-0.085081413 0.080702968 0.31824628
-0.08485128 0.080703743 0.31825313
-0.084615916 0.080704488 0.31825954
-0.084374398 0.080703735 0.31825995
-0.084079653 0.080691427 0.31825501
-0.083623528 0.080683328 0.31822422
-0.083070733 0.080669411 0.31818306
-0.082525052 0.080677785 0.31815228
-0.081848964 0.080690891 0.31810313
-0.080960833 0.080728762 0.31802672
-0.080271855 0.080760263 0.31796384
-0.079708137 0.080771364 0.31791469
-0.079063706 0.080755435 0.31782445
-0.078382805 0.080703959 0.31774521
-0.077671334 0.080646664 0.31767023
-0.07693018 0.080629699 0.31757638
-0.076393597 0.080586933 0.31752899
-0.075786822 0.08055272 0.31744239
-0.075183108 0.080525182 0.31735736
-0.074475504 0.080500975 0.31723711
-0.073705867 0.080436483 0.31711426
-0.072817579 0.08038307 0.31696856
-0.071958505 0.080348879 0.3168239
-0.071195021 0.080271393 0.31666639
-0.070453398 0.080239572 0.31655294
-0.069788411 0.080218717 0.31644022
-0.069130197 0.080177031 0.3163482
-0.068595789 0.08015763 0.31625187
-0.068031862 0.08013805 0.31614548
-0.067331046 0.080109984 0.31601655
-0.066716902 0.080097474 0.31591168
-0.066211678 0.080070838 0.31583661
-0.065825343 0.080021657 0.31578597
-0.06543041 0.080001801 0.31571725
-0.064967461 0.079988167 0.31563562
-0.06435056 0.07991863 0.31550625
-0.06379208 0.079850748 0.31540489
-0.063222103 0.079817772 0.31530523
-0.062575899 0.079813562 0.31519562
-0.061786003 0.07980112 0.31509554
-0.06097905 0.079816729 0.31499395
-0.060242366 0.079860605 0.3149274
-0.059433401 0.079855837 0.31485528
-0.05882762 0.079875886 0.31477612
-0.058180962 0.079877004 0.3147082
-0.057609186 0.07988824 0.31467202
-0.056831621 0.07986328 0.31459591
-0.056135155 0.079868279 0.31454033
-0.055513933 0.079861179 0.31450689
-0.054811392 0.079859465 0.31446436
-0.054143861 0.07985881 0.31441739
-0.053510536 0.079850078 0.31437215
-0.052756879 0.079850949 0.3143107
-0.052160945 0.079858892 0.31427252
-0.051602207 0.079851188 0.31425828
-0.050926186 0.079857334 0.31423786
-0.050287399 0.07987307 0.3142204
-0.049603894 0.079892062 0.31417003
-0.048794057 0.079922095 0.31405568
-0.048084725 0.079909749 0.31395668
-0.047530599 0.079901092 0.31386149
-0.047018062 0.079887599 0.31377369
-0.046505671 0.079876781 0.31368476
-0.046114381 0.079849876 0.31365085
-0.045601945 0.079844214 0.31355909
-0.045013756 0.07984408 0.31341514
-0.044364121 0.079820126 0.31328917
-0.043743376 0.079793088 0.31319407
-0.043173421 0.079763219 0.31309965
-0.042823914 0.079744376 0.31307924
-0.04228894 0.07971672 0.31299165
-0.041515168 0.079665072 0.31282935
-0.040875353 0.079613633 0.31268668
-0.040271498 0.079565011 0.31253821
-0.039532319 0.079506189 0.31235594
-0.038823325 0.079485551 0.31217954
-0.038058195 0.079462588 0.31199655
-0.037109911 0.079443984 0.31177208
-0.03636248 0.079429001 0.31160778
-0.035752784 0.079402395 0.31149814
-0.035133433 0.079371445 0.31138495
-0.034408197 0.079332799 0.31123632
-0.03340793 0.079267494 0.31098157
-0.032532662 0.079222128 0.31072667
-0.031805534 0.079190344 0.31052402
-0.031135589 0.079130322 0.31034058
-0.030200018 0.079086341 0.31010056
-0.029551949 0.079109043 0.30997655
-0.028797671 0.079069711 0.30982235
-0.027954197 0.079040028 0.30970168
-0.027140399 0.079052061 0.30963373
-0.026556639 0.079067655 0.30960912
-0.025779236 0.07911633 0.3096562
-0.024983609 0.079137355 0.30973855
-0.02417504 0.07920143 0.30980411
-0.023375014 0.079219118 0.3099032
-0.022634035 0.079243191 0.30994803
-0.021865197 0.079236068 0.31001106
-0.021141697 0.079200089 0.31001315
-0.020410996 0.079166755 0.31003445
-0.019780984 0.079120621 0.3100335
-0.019113226 0.079078212 0.31005079
-0.0184386 0.079078928 0.31006166
-0.017892588 0.079056308 0.31004825
-0.017320963 0.07913091 0.31019562
-0.016859375 0.079202786 0.31025186
-0.016395662 0.079303823 0.31044573
-0.015985804 0.07951089 0.31057051
-0.015615552 0.079559468 0.31062257
-0.015261518 0.079535268 0.31055555
-0.014870497 0.079376914 0.31032822
-0.014435768 0.079081982 0.31000945
-0.014026906 0.078918949 0.3097505
-0.013565036 0.078874826 0.30952647
-0.013104179 0.078778021 0.30936876
-0.012564722 0.078709416 0.30920359
-0.012078885 0.078664757 0.3091383
-0.011501941 0.078587055 0.30903009
-0.010945761 0.078533098 0.30890825
-0.010416565 0.07846991 0.30882394
-0.0097398339 0.078444719 0.30860463
-0.0091009904 0.078409016 0.30842379
-0.0084390901 0.078345895 0.30822009
-0.0078043672 0.078294791 0.308036
-0.0071710274 0.078261189 0.30781168
-0.0065968935 0.07820712 0.3076537
-0.0060378392 0.078152619 0.30746746
-0.0054443106 0.078139447 0.30732116
-0.0048452923 0.078120373 0.3071886
-0.0041528759 0.078107454 0.30706859
-0.0033564705 0.078119919 0.30692971
-0.0026194244 0.078141794 0.30682421
-0.0018380824 0.07812345 0.30670846
-0.0010509784 0.078120656 0.306575
-0.00029777113 0.078101233 0.30643982
0.00045718937 0.078066789 0.3063038
0.0012069222 0.078012161 0.30617779
0.0019899381 0.077965699 0.30604777
0.0027247439 0.077910691 0.30593896
0.0034228403 0.077896029 0.30583996
0.0041557527 0.077872753 0.30573961
0.0048819152 0.077856079 0.30563915
0.0055291438 0.077832744 0.30555028
0.006131398 0.077810019 0.30547839
0.0067983172 0.07777968 0.30541226
0.0074578533 0.077753775 0.30536228
0.0081438525 0.077739246 0.30530769
0.0088193687 0.077711888 0.30526313
0.0094845239 0.077677235 0.3052226
0.010074789 0.077645116 0.3051725
0.010628327 0.077622809 0.30511385
0.01120711 0.077602707 0.30505094
0.011694336 0.077582173 0.30499914
0.01220784 0.077555485 0.30495909
0.01268743 0.077532947 0.30492297
0.013255713 0.077497698 0.30489343
0.01378887 0.077479839 0.30484807
0.014284924 0.077462181 0.30480555
0.014809631 0.077444248 0.30475873
0.015362026 0.077414364 0.30471113
0.015939426 0.077380121 0.30465585
0.016512766 0.077346787 0.30459625
0.017113047 0.077307329 0.30453169
0.017740032 0.077284083 0.30444482
0.018366985 0.077267729 0.30436772
0.018963646 0.077250533 0.30430064
0.019619498 0.077245913 0.30422366
0.020186957 0.077235602 0.30415928
0.020815715 0.07722491 0.30407813
0.021474591 0.077223353 0.30398947
0.022073688 0.077212334 0.30391613
0.022731176 0.077206954 0.30383974
0.023357492 0.077211909 0.30378002
0.02395303 0.077206977 0.3037416
0.024549559 0.077210464 0.30368337
0.025317954 0.077214941 0.30361313
0.026027072 0.077219792 0.30352148
0.026764778 0.077210352 0.3034434
0.027387111 0.077201545 0.30336723
0.027914729 0.077194177 0.30330804
0.02851096 0.07717824 0.30324543
0.029075906 0.077165917 0.30318573
0.029700778 0.077145137 0.30312216
0.030344548 0.077141367 0.30304766
0.03098789 0.077122971 0.30297485
0.031539451 0.077111982 0.30289811
0.032057986 0.077106953 0.30282816
0.032608062 0.077080168 0.30275545
0.03315727 0.07706698 0.30266994
0.033763334 0.077054761 0.3025749
0.034282774 0.077056371 0.30249444
0.034889199 0.077061906 0.3024025
0.035469521 0.077047922 0.30232528
0.03613485 0.077038787 0.30225021
0.036798406 0.077028401 0.30218831
0.037505854 0.077006921 0.3021349
0.038171381 0.076974206 0.30208981
0.038984694 0.076999001 0.30205303
0.039725546 0.076996386 0.30200547
0.040408503 0.077009082 0.3019515
0.041143525 0.076993719 0.30191648
0.041691486 0.077028289 0.30186933
0.04253703 0.077030815 0.30185434
0.043123294 0.077013969 0.30174369
0.04384454 0.077011824 0.30170783
0.044405054 0.076973371 0.30166665
0.045029845 0.077078983 0.30165371
0.045574769 0.0771349 0.3017011
0.046177067 0.077240989 0.30168536
0.046698093 0.077360898 0.30164832
0.04713691 0.0773663 0.3015829
0.04758491 0.07741949 0.30147091
0.048059955 0.07746423 0.30141711
0.048498049 0.077497967 0.30138218
0.048947353 0.0775562 0.30135679
0.049215175 0.077527471 0.30130848
0.04966319 0.077577047 0.30127814
0.050019022 0.077632971 0.30129805
0.050352518 0.077706471 0.3013258
0.050532155 0.077687934 0.30133832
0.050841808 0.077699952 0.30132458
0.05118731 0.077696167 0.30131185
0.051512536 0.077652998 0.30129528
0.051771492 0.07761874 0.30120459
0.052113209 0.077599943 0.30106992
0.0524728 0.077393681 0.30085593
0.052840143 0.077146307 0.30060127
0.053189937 0.077180326 0.3004958
0.053511113 0.077179335 0.30043149
0.05384681 0.077274755 0.30041268
0.054162435 0.07738208 0.30050066
0.054680537 0.077641994 0.30057406
0.055007704 0.077708587 0.30058283
-0.087983027 0.080573894 0.31830654
-0.087516896 0.080547653 0.31827557
-0.087113068 0.080565691 0.31826869
-0.0867588 0.080599256 0.31825924
-0.086288065 0.08064086 0.31825924
-0.085832588 0.080729611 0.31823725
-0.085571848 0.080715686 0.31823951
-0.085306972 0.080703266 0.3182435
-0.085081413 0.080702968 0.31824628
-0.08485128 0.080703743 0.31825313
-0.084615923 0.080704488 0.31825951
-0.084374398 0.080703728 0.31825995
-0.084079653 0.080691412 0.31825504
-0.083623514 0.080683306 0.31822419
-0.083219238 0.080693588 0.31819922
-0.082672842 0.080700397 0.3181614
-0.081853367 0.080714695 0.31810841
-0.081051685 0.080784157 0.31804359
-0.080232665 0.080822438 0.31798387
-0.079791144 0.080802299 0.31793541
-0.0790985 0.080794424 0.31784242
-0.078378513 0.080726743 0.31775105
-0.077665627 0.080670521 0.31767175
-0.077011578 0.080650397 0.31758186
-0.076469511 0.080616854 0.31753427
-0.075855181 0.080570064 0.31746089
-0.075183108 0.080525197 0.31735733
-0.074550793 0.080499664 0.31726038
-0.073821679 0.080483049 0.31712115
-0.073081121 0.080426358 0.3170121
-0.072261155 0.080398403 0.31688136
-0.071532659 0.080362648 0.31674612
-0.070533514 0.080251507 0.31655857
-0.069824606 0.080232173 0.31644136
-0.069237933 0.080200747 0.31634948
-0.068631135 0.080167346 0.3162497
-0.067845806 0.080131687 0.31610069
-0.067188367 0.080120429 0.31598076
-0.066567212 0.080086231 0.3158766
-0.066073515 0.080036774 0.31579879
-0.065574944 0.080014162 0.3157196
-0.065252498 0.080004029 0.31567001
-0.064898774 0.079996459 0.31561223
-0.064313702 0.079920679 0.31549484
-0.063784778 0.079888262 0.31540695
-0.063182995 0.079846829 0.31530556
-0.062466014 0.07981699 0.31518152
-0.061706498 0.079816282 0.31504804
-0.060799573 0.079839706 0.31494981
-0.059962146 0.079893865 0.31487522
-0.059218045 0.079882815 0.31480539
-0.058684964 0.079898134 0.31473783
-0.058036279 0.079895549 0.31467372
-0.057381704 0.079891272 0.3146286
-0.056683671 0.079878971 0.31456858
-0.056023642 0.079878181 0.31452152
-0.055362049 0.079878986 0.31448057
-0.054697696 0.079879783 0.31443936
-0.054030053 0.079879746 0.31439427
-0.053354554 0.079863966 0.31434917
-0.052679613 0.079861775 0.31429544
-0.052042454 0.07985808 0.31425962
-0.051446632 0.079869248 0.31423414
-0.050809775 0.07987535 0.3142159
-0.050210226 0.079888307 0.31420004
-0.04952623 0.079908729 0.31415156
-0.04879405 0.079922095 0.31405568
-0.048126791 0.079918802 0.31395423
-0.047573231 0.079910226 0.31386957
-0.047106016 0.0799013 0.31379306
-0.046550173 0.079885967 0.31369218
-0.046036933 0.079868883 0.31361091
-0.045441784 0.079858683 0.3134875
-0.044847734 0.079854675 0.31334096
-0.044275586 0.079825878 0.31326568
-0.043700647 0.079795666 0.31318527
-0.04308388 0.079769425 0.31307736
-0.042872857 0.079751968 0.31308988
-0.042288937 0.079716697 0.31299162
-0.041656893 0.079683639 0.31285852
-0.040925171 0.079633534 0.31269622
-0.040228594 0.079574041 0.31252971
-0.039521877 0.079535663 0.31234786
-0.038726844 0.079494894 0.31215307
-0.037756827 0.079466917 0.31192273
-0.036921058 0.079463594 0.31171295
-0.036315907 0.079431333 0.31159422
-0.035658132 0.079409756 0.31146714
-0.03499037 0.079371497 0.3113423
-0.034310009 0.079347387 0.31120378
-0.033456448 0.079295054 0.31099907
-0.032532662 0.079222128 0.31072667
-0.031749178 0.079191543 0.31050244
-0.031191392 0.079139486 0.31035131
-0.030255655 0.079117671 0.31012124
-0.029551951 0.079109043 0.30997655
-0.028748196 0.079084158 0.30982217
-0.027852103 0.079061739 0.3096911
-0.02708623 0.079058878 0.30962139
-0.026515694 0.079086237 0.30961666
-0.02572557 0.079119913 0.30964547
-0.024894463 0.079194844 0.3097243
-0.024138032 0.079215065 0.30981234
-0.023333415 0.079262152 0.3098937
-0.022576105 0.07927902 0.30997175
-0.021803845 0.079308204 0.31005728
-0.021079855 0.079329863 0.310083
-0.020340482 0.079342023 0.31016666
-0.019745059 0.079290867 0.31013975
-0.019063281 0.079212844 0.31010485
-0.01839551 0.079211943 0.31011105
-0.01782285 0.079245359 0.31012201
-0.017309008 0.0792538 0.31011435
-0.016835429 0.079283118 0.31025726
-0.016382918 0.079435229 0.31034929
-0.015957644 0.079636894 0.31049186
-0.015588698 0.07967189 0.31056046
-0.015243867 0.079644904 0.31045216
-0.014864231 0.07951355 0.31031409
-0.0144733 0.079262115 0.31003919
-0.014055924 0.079067282 0.30976358
-0.013600118 0.078948349 0.3095791
-0.013120932 0.078872323 0.30942899
-0.012662266 0.078851245 0.30931988
-0.012168477 0.078790531 0.30924934
-0.011625235 0.078707859 0.30912709
-0.011067093 0.078638718 0.30899456
-0.010490307 0.078532226 0.30883741
-0.0097650895 0.078485966 0.30861169
-0.0090822084 0.078432463 0.30843899
-0.0084260516 0.078381062 0.30822673
-0.0077310419 0.078323908 0.307969
-0.0072032539 0.078268744 0.30781773
-0.0066290875 0.078239739 0.30765647
-0.006056672 0.07819958 0.30748758
-0.0054747472 0.078150824 0.30733204
-0.0048304573 0.078161456 0.30719817
-0.0041142697 0.078132287 0.30705738
-0.0033564703 0.078119904 0.30692968
-0.0026194246 0.078141794 0.30682418
-0.0018356228 0.078148045 0.30670846
-0.0010144493 0.078127451 0.30656612
-0.0003711296 0.078127928 0.30644855
0.00042084587 0.078080267 0.30631188
0.0012090858 0.078031234 0.30617276
0.0019932287 0.077984229 0.30604145
0.0027287507 0.07793355 0.3059327
0.0034228405 0.077896029 0.30584002
0.00411767 0.077882804 0.30574727
0.0048818775 0.077858217 0.30563837
0.0054568122 0.077845171 0.30556223
0.0060993512 0.077822275 0.30547538
0.0067666606 0.077791125 0.30540678
0.0074265627 0.077764533 0.30535474
0.0081438525 0.077743672 0.30530772
0.0087877354 0.077720374 0.30526596
0.0094239274 0.07769613 0.30521968
0.0099839829 0.07766436 0.30517694
0.010597717 0.077630751 0.30511642
0.011178109 0.077618033 0.30504182
0.011694045 0.077589363 0.30499488
0.012178177 0.077568084 0.30494833
0.0126886 0.077542134 0.30491072
0.013225697 0.0775114 0.30488059
0.013758934 0.077493683 0.30483657
0.014284436 0.077470414 0.30479917
0.014841101 0.077450708 0.30475092
0.015392299 0.077422984 0.30470136
0.01597096 0.077398382 0.30463788
0.016513763 0.077365369 0.30458522
0.01702206 0.077330962 0.30453223
0.01773941 0.077301294 0.30443797
0.01836656 0.077279828 0.30436319
0.019023148 0.07726568 0.304286
0.019619131 0.077259935 0.30421942
0.020216405 0.077254862 0.30414757
0.020815058 0.077242732 0.30407009
0.021473665 0.0772411 0.30398169
0.022102321 0.077231295 0.30390078
0.022729941 0.077224232 0.30383098
0.023328178 0.077228114 0.30377206
0.023921784 0.077234432 0.30372262
0.024575332 0.077241831 0.30366993
0.02531738 0.07724949 0.3035925
0.026083775 0.077247709 0.30351031
0.026764788 0.077210359 0.3034434
0.027357757 0.077204965 0.30336949
0.027888535 0.077207446 0.30330354
0.028451648 0.077198274 0.30324221
0.029045435 0.07718312 0.30317461
0.029668493 0.077177078 0.30310988
0.030287551 0.077161171 0.30304363
0.030928086 0.077147752 0.30297646
0.031480003 0.077136986 0.30290094
0.032026891 0.077121429 0.30282259
0.032633819 0.077095702 0.30274096
0.033183239 0.077082582 0.30265564
0.033733703 0.077071697 0.30257386
0.034338016 0.077075966 0.30247736
0.03491557 0.077079765 0.30239058
0.03552324 0.077084348 0.3023088
0.036106594 0.077058218 0.30224508
0.036741536 0.077042192 0.30218515
0.037421785 0.077027857 0.30213463
0.03811872 0.077022597 0.3020826
0.03893486 0.077055059 0.30204701
0.039707512 0.077102624 0.30200154
0.040431846 0.07712324 0.30195528
0.041089453 0.077108972 0.30190492
0.041795313 0.077121645 0.30187866
0.042485304 0.077083908 0.30184069
0.04316945 0.077167146 0.30179206
0.043799158 0.077186227 0.30174619
0.044484776 0.077180825 0.3017242
0.045122743 0.077324688 0.30169621
0.045719724 0.077463344 0.30167052
0.046208221 0.077518828 0.30162302
0.046765838 0.077588327 0.3016375
0.047207352 0.077676058 0.30157444
0.047618482 0.077683039 0.30149847
0.048147231 0.077778496 0.30147776
0.048591577 0.077833697 0.30141786
0.048968766 0.077812515 0.3013562
0.049273632 0.077710889 0.30127656
0.04966104 0.077722445 0.30124298
0.050052539 0.077785373 0.30126303
0.050338756 0.077912576 0.30131379
0.050561856 0.078019574 0.30136067
0.05087366 0.078078695 0.30140737
0.051182393 0.077991128 0.30138841
0.051474735 0.077985056 0.30131933
0.051771518 0.077937871 0.30124617
0.052120693 0.077846996 0.30113691
0.052497301 0.07777895 0.30095446
0.05283428 0.077637032 0.30076689
0.053197648 0.077439137 0.30057997
0.053578474 0.077363245 0.30049375
0.053832065 0.077478699 0.3005397
0.054228675 0.077776745 0.30064541
0.054600351 0.077910736 0.30071631
0.055065546 0.077983648 0.30070841
-0.087696277 0.080586053 0.31828523
-0.08711306 0.080565691 0.31826869
-0.086717211 0.080631875 0.31825235
-0.086333007 0.080692418 0.31824857
-0.086002663 0.08074145 0.31824335
-0.085787736 0.080737628 0.31823763
-0.085526422 0.080723666 0.31824055
-0.085215174 0.08071471 0.31824473
-0.084851265 0.080703743 0.31825313
-0.084615909 0.080704473 0.31825954
-0.084374405 0.080703728 0.31825995
-0.084079653 0.080691405 0.31825501
-0.083720773 0.080715053 0.31822765
-0.083318993 0.080708221 0.31820258
-0.082678132 0.080725729 0.31817001
-0.082043886 0.08077205 0.31813946
-0.081337839 0.080829479 0.31808627
-0.08055152 0.080851182 0.31802097
-0.080010384 0.080848388 0.31797045
-0.079256661 0.080861844 0.31788269
-0.078659333 0.080796286 0.31780377
-0.07806655 0.080760896 0.31772923
-0.077360637 0.080700628 0.31764227
-0.076701052 0.080662712 0.31755611
-0.076122344 0.080611847 0.31750107
-0.075441115 0.080571607 0.31740537
-0.074885651 0.080524907 0.31734642
-0.074182652 0.080501221 0.31722778
-0.073531665 0.080482043 0.31710589
-0.072634667 0.080445193 0.31696382
-0.071709961 0.080390632 0.31679925
-0.070653945 0.080329262 0.31657761
-0.069902837 0.080240257 0.31646255
-0.069231689 0.080203809 0.31635052
-0.068626314 0.080182679 0.31622803
-0.067770347 0.080152415 0.3160637
-0.066958748 0.080124542 0.31590843
-0.066343278 0.080096819 0.31580079
-0.065781675 0.080042787 0.31569642
-0.065397128 0.080038801 0.31563261
-0.064914592 0.080002688 0.31557006
-0.06445916 0.079956122 0.31549314
-0.064069398 0.079909444 0.31543323
-0.06364841 0.079865187 0.31537566
-0.063011155 0.079839878 0.31525195
-0.062393412 0.079842724 0.3151398
-0.061526455 0.079837836 0.31501824
-0.060618956 0.079860404 0.31490025
-0.059894104 0.079910368 0.31484404
-0.05911437 0.079904519 0.31477398
-0.058616661 0.07991419 0.31471631
-0.058038037 0.079906158 0.31467119
-0.057344288 0.079892837 0.31462237
-0.056610443 0.079886936 0.31455427
-0.055877559 0.079893976 0.31449068
-0.055214927 0.07989464 0.31444806
-0.054509435 0.079891644 0.31440845
-0.053875677 0.079882883 0.31437322
-0.053242125 0.079881407 0.31432483
-0.052525871 0.079873055 0.31427386
-0.051849145 0.079874463 0.31423303
-0.051330917 0.079880983 0.31421718
-0.050773248 0.079884186 0.31420529
-0.05013271 0.079899654 0.31418422
-0.049566291 0.079915889 0.31415424
-0.048876431 0.079935476 0.31406537
-0.048297003 0.079935484 0.31398553
-0.047704019 0.079922467 0.31389946
-0.04715053 0.07990811 0.31380242
-0.046638817 0.079890251 0.31371829
-0.046082903 0.079875544 0.31361911
-0.045453992 0.079869673 0.31346971
-0.044847734 0.079854675 0.31334096
-0.044275593 0.079825878 0.31326565
-0.043664016 0.079800494 0.31316099
-0.04322394 0.079792187 0.31310853
-0.042830233 0.079754099 0.31307867
-0.042248275 0.079722978 0.31297219
-0.041704293 0.079694413 0.31286934
-0.041066799 0.07966008 0.3127315
-0.040185343 0.079580098 0.31252173
-0.039383613 0.079538383 0.31231457
-0.038547877 0.079507612 0.31213379
-0.037472941 0.079470009 0.31183928
-0.036736012 0.079445615 0.31167144
-0.036132082 0.079431586 0.31154275
-0.035517342 0.07940457 0.31143054
-0.034941658 0.079373911 0.31132799
-0.034260251 0.079349704 0.31118846
-0.033513229 0.079307824 0.3110103
-0.032584395 0.079258032 0.3107456
-0.03174895 0.079209454 0.31049928
-0.030966228 0.07915169 0.3102732
-0.030029578 0.079116464 0.31004006
-0.02927633 0.079102933 0.30989203
-0.028584071 0.079093419 0.30977976
-0.027797153 0.079065248 0.30967882
-0.027040694 0.079073898 0.30962572
-0.026379757 0.079129733 0.30961975
-0.025687275 0.079166159 0.30965301
-0.024880338 0.079207629 0.30970001
-0.02407393 0.079268515 0.30977342
-0.023351744 0.079325095 0.30984244
-0.02255048 0.079402559 0.30996275
-0.02178802 0.079433158 0.31005397
-0.021082338 0.079449125 0.31012645
-0.02045352 0.079468966 0.31013772
-0.019783873 0.079441622 0.31016344
-0.019105542 0.07938876 0.31016994
-0.018409273 0.079441853 0.31023452
-0.017789807 0.079463772 0.3102116
-0.017277867 0.07947693 0.31021944
-0.016813176 0.079592444 0.31027237
-0.016371699 0.079689614 0.31041923
-0.015951993 0.079858959 0.31053716
-0.015611514 0.079900771 0.310518
-0.015278184 0.07985881 0.31048304
-0.014914905 0.079764798 0.31037748
-0.014490459 0.079533927 0.31014249
-0.014117751 0.07937891 0.30997345
-0.013689586 0.079234712 0.30978724
-0.01324578 0.079101995 0.30962583
-0.01282662 0.079119198 0.30961373
-0.012334977 0.078987315 0.3094565
-0.011796808 0.078858346 0.30927509
-0.011198449 0.078740418 0.30907208
-0.010493579 0.078577377 0.30882326
-0.0097939111 0.078531116 0.30861169
-0.0090330541 0.078464195 0.30840164
-0.0083966376 0.078409821 0.30821267
-0.007778042 0.078356035 0.30800375
-0.007192038 0.078289486 0.30782619
-0.0066290158 0.078260407 0.30765489
-0.0060823727 0.078214988 0.30750555
-0.0055238307 0.078185208 0.3073718
-0.0048304573 0.078161448 0.3071982
-0.0040831985 0.0781461 0.30705023
-0.0032900616 0.078143857 0.30691776
-0.0025844942 0.078151807 0.30681929
-0.0017999304 0.078188851 0.30669808
-0.0010542561 0.078159183 0.30656731
-0.00037400908 0.078147158 0.30644196
0.00038416177 0.07809101 0.30631831
0.001139557 0.078057714 0.30618665
0.0019606594 0.078000084 0.30604973
0.0027008366 0.077966779 0.30593118
0.003427187 0.077915989 0.30583173
0.0041224328 0.077902779 0.30573913
0.0048110648 0.07788118 0.3056452
0.0054588425 0.077857539 0.30555585
0.0061013349 0.07783448 0.30546871
0.0068019857 0.077807233 0.30539477
0.007461349 0.077780575 0.30534303
0.0081133246 0.077756926 0.30530193
0.0087576611 0.077733673 0.30526125
0.0093246317 0.077711388 0.30522344
0.0099544106 0.077675298 0.30517313
0.010568564 0.07764332 0.30511177
0.011178016 0.07762599 0.30504033
0.011664814 0.07760302 0.30498773
0.012177927 0.077575415 0.30494481
0.012688219 0.077548958 0.30490544
0.013195639 0.077523656 0.30486974
0.013728934 0.077505998 0.30482677
0.01428554 0.077485278 0.30478764
0.014778755 0.077473193 0.30474448
0.015300173 0.077447698 0.30470127
0.015848763 0.077424295 0.30464786
0.016422616 0.07738743 0.30458981
0.016992839 0.077353656 0.30452472
0.017680205 0.077320494 0.30444241
0.018367715 0.077305093 0.30435464
0.019022921 0.077296212 0.30428296
0.019588618 0.077298515 0.30421996
0.020214487 0.077281356 0.30414757
0.020785116 0.077282511 0.30407766
0.02144401 0.077278316 0.30398571
0.022100644 0.077248573 0.30389628
0.022699779 0.077249549 0.30382544
0.02332636 0.077245295 0.30376676
0.023951216 0.077257752 0.30370796
0.024600618 0.077279218 0.30364203
0.025288109 0.077284269 0.30356693
0.025971955 0.077281676 0.30349183
0.026650883 0.077260666 0.30342045
0.027356483 0.077234432 0.30335593
0.027889624 0.077222928 0.30329663
0.028452335 0.07721673 0.30323133
0.029102897 0.077200234 0.3031584
0.029696729 0.077188782 0.30309796
0.030258561 0.077180676 0.30303243
0.030871348 0.077161886 0.30297291
0.03141949 0.077148199 0.3029024
0.032027788 0.077141248 0.30281338
0.032603882 0.07712692 0.30272946
0.033153545 0.077101178 0.30265409
0.03373114 0.077096939 0.30256507
0.034335598 0.077101685 0.30247006
0.03491307 0.077100396 0.30238131
0.035492867 0.077105775 0.30230004
0.036103796 0.077098809 0.30223432
0.036737613 0.077085428 0.3021785
0.037340015 0.077078536 0.30214
0.038162056 0.077121019 0.30210474
0.038998157 0.07717073 0.3020553
0.039757796 0.077227741 0.30201244
0.040447846 0.077250808 0.30195343
0.041184828 0.077255465 0.30192575
0.041869994 0.077256002 0.30189377
0.042500909 0.077274837 0.30185172
0.043209199 0.077341959 0.30182308
0.043881811 0.077450044 0.30179077
0.044577308 0.077474847 0.30178073
0.045202468 0.077584386 0.30173743
0.045813605 0.077706613 0.30169594
0.04631111 0.077786252 0.30164903
0.046865422 0.077911243 0.3016184
0.047313321 0.077968761 0.30159226
0.047746915 0.078012191 0.30155945
0.04814589 0.078038402 0.30151415
0.048635431 0.078055613 0.30144966
0.049057301 0.078044295 0.30138925
0.049337629 0.078025438 0.30132511
0.049728446 0.078032508 0.30129987
0.050041776 0.078055948 0.30128494
0.050339706 0.078185827 0.30134115
0.050590482 0.078292936 0.30139583
0.050914731 0.078386076 0.30143046
0.05118984 0.078338072 0.30142128
0.051479004 0.078277789 0.30135536
0.051825326 0.078122243 0.30122891
0.052145787 0.078110918 0.30114052
0.052469123 0.078107469 0.30105519
0.05279145 0.078076981 0.30099177
0.053115059 0.078042462 0.30092824
0.053481746 0.078028418 0.30089533
0.053802341 0.078058593 0.30086195
0.054170191 0.078130648 0.30082425
0.054643128 0.078287601 0.30089137
0.054984532 0.078216873 0.30083671
-0.085526414 0.080723666 0.31824049
-0.085261181 0.08071135 0.31824568
-0.084987976 0.080714703 0.31824988
-0.084615894 0.080704458 0.31825954
-0.084374398 0.08070372 0.31825992
-0.084122732 0.080713525 0.31824648
-0.083771579 0.080716759 0.3182334
-0.083321743 0.080715559 0.31820267
-0.082919635 0.080768041 0.31818724
-0.082334019 0.080798 0.31815881
-0.081608586 0.080866046 0.31811798
-0.080952726 0.080887951 0.31807423
-0.080349237 0.080919676 0.31802782
-0.073133364 0.080481946 0.31711403
-0.072103903 0.080417998 0.31690264
-0.071225464 0.080368899 0.31672686
-0.070159264 0.080277905 0.31649289
-0.069265611 0.080214307 0.31634995
-0.06839662 0.080193646 0.31615975
-0.067387804 0.080163568 0.31595674
-0.066690467 0.080121987 0.31582284
-0.066094421 0.080064476 0.31570727
-0.065573283 0.080067873 0.31559846
-0.06499593 0.079983614 0.31547073
-0.064430863 0.07986325 0.31535149
-0.063899145 0.079853557 0.31531891
-0.063600905 0.079852745 0.31528974
-0.06319724 0.079850182 0.31523833
-0.062692389 0.079828002 0.31516236
-0.062046628 0.079849936 0.31508452
-0.061313495 0.079878442 0.31495082
-0.060520366 0.079898417 0.31486276
-0.059756603 0.079944849 0.31478325
-0.059081659 0.079919562 0.3147552
-0.058548227 0.079933822 0.31469247
-0.058041941 0.079919018 0.31466639
-0.057348255 0.079906337 0.31461972
-0.056577664 0.0799044 0.31454322
-0.055772115 0.079918303 0.31446585
-0.055030528 0.079917781 0.31440979
-0.054364186 0.079919122 0.31436765
-0.053726394 0.079903498 0.31433785
-0.053087484 0.079894505 0.31430176
-0.052368887 0.07988447 0.31425393
-0.051732011 0.079888888 0.31421673
-0.05129762 0.079905674 0.31419662
-0.050733004 0.079898544 0.31419763
-0.050172247 0.079906307 0.31418523
-0.049606316 0.079925254 0.31415567
-0.049120635 0.07991647 0.3141222
-0.048381858 0.079931855 0.31400472
-0.047786653 0.079927072 0.31391791
-0.047235545 0.07991448 0.31382567
-0.046682678 0.079890333 0.31373459
-0.046127476 0.079875931 0.31363648
-0.045453981 0.079869665 0.31346968
-0.044847738 0.079854675 0.31334087
-0.044236753 0.079829268 0.31324774
-0.043709531 0.0798105 0.31316927
-0.04336869 0.07978972 0.31314671
-0.042835444 0.079768114 0.31306979
-0.04229955 0.079743445 0.31298092
-0.041661665 0.079696685 0.31285837
-0.041024279 0.079663001 0.31272289
-0.040040683 0.079586253 0.31247944
-0.039164752 0.079537123 0.31228513
-0.038417891 0.079513684 0.31210703
-0.0373911 0.079484627 0.31182063
-0.036549281 0.079446904 0.31162399
-0.035938561 0.079414085 0.31150314
-0.035471294 0.079410255 0.31141493
-0.034895554 0.079396926 0.31131056
-0.034263358 0.079373978 0.31118482
-0.033469189 0.079324201 0.31098327
-0.032532588 0.079267099 0.31072471
-0.031748947 0.079209447 0.31049928
-0.030910783 0.079163514 0.3102583
-0.030029578 0.079116464 0.31004003
-0.02927633 0.079102933 0.30989203
-0.028528269 0.079089664 0.3097665
-0.027789731 0.079080492 0.30967224
-0.027031787 0.079090849 0.30961293
-0.026367866 0.079139695 0.30960634
-0.025581861 0.079174265 0.30963293
-0.024880163 0.079240754 0.30969694
-0.024104327 0.079281017 0.30974939
-0.023272047 0.07935331 0.30985147
-0.022509119 0.079436205 0.30991775
-0.021811483 0.079501592 0.30999461
-0.021096198 0.079519212 0.31003055
-0.020495415 0.079530247 0.31000623
-0.019824609 0.079547547 0.31010064
-0.019090351 0.07964427 0.31021228
-0.018384254 0.079717331 0.31032681
-0.017788824 0.079840794 0.31040186
-0.017236125 0.079829417 0.31040439
-0.016757393 0.079990178 0.3104963
-0.016369436 0.080085009 0.3106319
-0.016013015 0.080119506 0.31063375
-0.015690044 0.080114 0.31060266
-0.015367456 0.080087885 0.31054929
-0.015003439 0.079951398 0.31045905
-0.014616422 0.079916291 0.31031784
-0.014246921 0.079785883 0.31021795
-0.013910854 0.079754345 0.31016016
-0.013540609 0.079769306 0.31013355
-0.0131762 0.079697132 0.31006101
-0.012745773 0.079603918 0.30994949
-0.012161728 0.07938914 0.3097305
-0.01135764 0.078919739 0.30918592
-0.010438977 0.078635149 0.3087815
-0.0097057158 0.07857132 0.30859077
-0.0089129424 0.078493364 0.30832958
-0.0083462903 0.078420676 0.30818501
-0.0077222376 0.078362845 0.30797705
-0.0072776582 0.07832922 0.30786839
-0.0067571304 0.078301825 0.30769867
-0.0062137521 0.078280859 0.30755201
-0.0055713188 0.078247041 0.30737731
-0.0048386487 0.078179106 0.30719259
-0.0040886872 0.078186534 0.30705625
-0.0033269008 0.07819888 0.30693519
-0.0025547803 0.078181304 0.30681017
-0.0018451338 0.078206666 0.30669796
-0.0010920669 0.078187451 0.30657354
-0.0003745881 0.078160137 0.30643904
0.00038528221 0.078125693 0.30630794
0.0011068556 0.078083374 0.30618817
0.0018996556 0.078043729 0.30605838
0.0026660461 0.077975914 0.30593196
0.0034000054 0.077945769 0.30582616
0.0041981353 0.077928632 0.30571917
0.0048511955 0.077905297 0.30563191
0.0055329562 0.07788308 0.30553707
0.0061749769 0.077860437 0.3054525
0.0068122512 0.077841036 0.30538037
0.0074716676 0.077813372 0.30532646
0.008123585 0.077788629 0.30528298
0.0087357005 0.077762917 0.30524659
0.0093364762 0.077731781 0.30520731
0.0099283624 0.077698953 0.30515933
0.010573608 0.077674046 0.3050907
0.011118647 0.07763271 0.30504197
0.011634122 0.077603191 0.30499262
0.012147058 0.0775754 0.30494919
0.012657194 0.077548862 0.30490971
0.013133422 0.077518433 0.30488294
0.013664693 0.077511624 0.30483294
0.014223506 0.077508815 0.30477914
0.01474914 0.077491276 0.30473587
0.015299866 0.077469848 0.3046906
0.015817147 0.07744889 0.30464208
0.016365603 0.077418484 0.30458218
0.016963836 0.077386372 0.3045173
0.017651906 0.077353448 0.30443683
0.018306736 0.077327579 0.30436349
0.018931687 0.077327833 0.30429229
0.019558275 0.077320956 0.30422586
0.020184413 0.07730747 0.30415317
0.020754576 0.07730563 0.3040849
0.021413855 0.077299386 0.30399176
0.022131767 0.077272855 0.3038933
0.022700101 0.077263482 0.30382311
0.023322379 0.077274404 0.30375546
0.023948841 0.077287801 0.30369088
0.024571739 0.077302113 0.30362976
0.025256118 0.077298544 0.30356577
0.025970008 0.077302106 0.30348882
0.026617408 0.077284694 0.30342078
0.027295887 0.077261582 0.30334863
0.027887993 0.077256963 0.3032774
0.028510632 0.077233069 0.30321866
0.029045383 0.077216506 0.30316085
0.029693339 0.077217408 0.30308053
0.030287186 0.077208117 0.30302304
0.030898614 0.077194728 0.3029547
0.031422425 0.077165306 0.30290222
0.031999875 0.077155948 0.3028231
0.032546896 0.077142373 0.30273753
0.033122934 0.07712952 0.30265281
0.033673633 0.077120684 0.30257231
0.034278113 0.077125929 0.30247894
0.034855258 0.077123024 0.30239058
0.035464298 0.077131286 0.30230722
0.036075704 0.07712502 0.30224451
0.036712036 0.077132434 0.30219132
0.037367854 0.077129453 0.30214062
0.038230993 0.077239551 0.30211964
0.039035447 0.077301644 0.30207354
0.039785977 0.077344015 0.30202383
0.040496569 0.077385716 0.30199516
0.041250054 0.077431746 0.30196479
0.041968856 0.077454738 0.30194595
0.042637974 0.077526674 0.30190676
0.043374598 0.077556856 0.30184153
0.044028636 0.077694222 0.30180448
0.044724237 0.077813916 0.30179361
0.045363877 0.077875689 0.30177903
0.045923904 0.078002363 0.30172661
0.046492916 0.078148626 0.30172029
0.046981238 0.078206941 0.30168265
0.047431361 0.078295395 0.3016403
0.047839336 0.078368381 0.30161265
0.048230372 0.07839597 0.30155653
0.048697293 0.078435436 0.30150491
0.049093749 0.078383423 0.30144709
0.049486216 0.078397244 0.30141804
0.049807444 0.078427069 0.30139461
0.050176676 0.078445315 0.3014127
0.05043425 0.078551069 0.30143037
0.050702967 0.078628242 0.30144826
0.050954979 0.078638919 0.30146587
0.051163349 0.078617841 0.30143026
0.051480133 0.078514382 0.30135816
0.051839616 0.078430474 0.30127448
0.052190375 0.078375146 0.30117995
0.052472126 0.078488916 0.30120397
0.052744027 0.078558691 0.30119836
0.05311206 0.078722976 0.30120689
0.053434361 0.078720622 0.3011927
0.053819127 0.078588367 0.30113441
0.054196447 0.078588814 0.30106542
0.054569665 0.078523152 0.30098358
-0.083517611 0.080740966 0.3182165
-0.083024964 0.080772571 0.31819552
-0.071690515 0.080410771 0.31686157
-0.070417099 0.080354452 0.31653348
-0.069367319 0.080240257 0.31635419
-0.068264835 0.080202296 0.31612679
-0.067073576 0.080143385 0.31586507
-0.066306666 0.080122307 0.31566751
-0.065825433 0.080070183 0.31557071
-0.065342709 0.080013439 0.31547704
-0.064641714 0.079894334 0.3153339
-0.064137906 0.079860777 0.31522626
-0.063780479 0.079852685 0.31520209
-0.063358665 0.07984262 0.31519863
-0.062884033 0.079854921 0.31515375
-0.062624261 0.079854928 0.31514215
-0.062043969 0.079868987 0.31505057
-0.061247885 0.079896651 0.31494075
-0.060383029 0.079920821 0.31483096
-0.05979253 0.079961963 0.31474856
-0.059127837 0.079958491 0.3147307
-0.058626339 0.079944417 0.31469816
-0.058013655 0.079933777 0.31465954
-0.053535286 0.079917625 0.31431064
-0.052976865 0.079915218 0.31427607
-0.052337147 0.079907857 0.31423554
-0.051700044 0.07991188 0.31419593
-0.051147636 0.079931699 0.31416321
-0.050699707 0.079920329 0.31417459
-0.050250798 0.079925522 0.31417909
-0.049685769 0.07993117 0.31415847
-0.049045045 0.079942271 0.31408003
-0.048422158 0.079950318 0.31400317
-0.047914993 0.079931065 0.31394699
-0.047409765 0.079926491 0.31386948
-0.046859287 0.079913795 0.31377748
-0.04601898 0.079902373 0.31358796
-0.045385063 0.079879992 0.31344363
-0.044902276 0.07986702 0.31336087
-0.044331275 0.079842143 0.31327844
-0.043858308 0.079827584 0.31319574
-0.043414317 0.079800017 0.31315517
-0.042929672 0.079780899 0.31309202
-0.042395908 0.079750367 0.31300464
-0.041669548 0.079712972 0.31285712
-0.040941663 0.07967294 0.31270868
-0.039866101 0.079587936 0.31245601
-0.039121892 0.079544574 0.31228104
-0.021166265 0.079513386 0.30991012
-0.020487022 0.079514146 0.30994394
-0.019811155 0.079639129 0.31001577
-0.01908928 0.079843752 0.31024948
-0.018413728 0.080116339 0.3105132
-0.017732752 0.080311537 0.31065595
-0.017204516 0.080391303 0.31070948
-0.016832791 0.080317423 0.31072986
-0.016476488 0.080402881 0.31078178
-0.016125897 0.080493413 0.31079108
-0.015813941 0.080476932 0.31077555
-0.015504143 0.080429614 0.31074294
-0.015142358 0.080386929 0.31064421
-0.014803057 0.080296382 0.31056949
-0.014468906 0.080250084 0.31051123
-0.014214442 0.080237716 0.31048501
-0.013872081 0.080247313 0.310482
-0.01356144 0.080234863 0.310444
-0.013170143 0.080093957 0.31032816
-0.012440706 0.079722606 0.30996722
-0.011648644 0.079392053 0.3095569
-0.010369594 0.078660205 0.30876681
-0.0094328951 0.078549229 0.30843601
-0.0088020517 0.07847292 0.3082526
-0.0082303463 0.078430846 0.30809507
-0.0077369558 0.078380533 0.30796543
-0.0072099813 0.078361467 0.30781686
-0.0068249288 0.078351192 0.30772677
-0.0062592216 0.078306384 0.30756304
-0.0056103976 0.078249849 0.30738351
-0.0048118737 0.078230567 0.30719826
-0.0040328414 0.078223556 0.30704415
-0.0033316507 0.078234434 0.30694586
-0.0025632661 0.078239143 0.30681738
-0.0018476028 0.078220405 0.30669788
-0.0012072929 0.078236677 0.30658603
-0.00041327058 0.07818602 0.30643851
0.00031230613 0.078142576 0.30631939
0.0010708278 0.0781091 0.30618712
0.0018288785 0.078077167 0.30606091
0.0026428166 0.078026049 0.30592933
0.0033789005 0.077994704 0.30582058
0.0041007563 0.077940986 0.30572447
0.004861223 0.077935889 0.30561766
0.0055088135 0.077911861 0.30552876
0.0061512813 0.077889241 0.30544516
0.0067889267 0.077869534 0.30537274
0.0074489778 0.077841103 0.30531749
0.0081014251 0.077815682 0.30527321
0.008713535 0.07778734 0.30523694
0.0093144365 0.077755988 0.30519927
0.0099380314 0.07772629 0.3051455
0.010521063 0.07769122 0.30508858
0.01106546 0.077648699 0.30503747
0.011579713 0.077618219 0.30498561
0.012091384 0.077589497 0.30493987
0.012536916 0.0775536 0.30491507
0.013042951 0.077528767 0.30488276
0.013606397 0.077528663 0.3048217
0.014133918 0.077523194 0.30477965
0.014690393 0.077507272 0.30473146
0.0152089 0.077492759 0.30468589
0.015727695 0.077462845 0.30464166
0.016272975 0.077432714 0.30458567
0.01687286 0.077408731 0.30452281
0.017556941 0.077385634 0.30445084
0.01821319 0.077365898 0.30437991
0.018869247 0.077362217 0.30430534
0.019525329 0.07735002 0.30423513
0.020121047 0.077342749 0.30416861
0.020754648 0.077333316 0.3040888
0.021531262 0.077318296 0.30397576
0.022160416 0.077289782 0.30389091
0.022759423 0.077272967 0.3038182
0.02334773 0.077305846 0.30373833
0.0239409 0.077314988 0.30367443
0.024595058 0.077320471 0.30361122
0.025279628 0.077334009 0.30354622
0.025907665 0.077329293 0.303487
0.026618315 0.077295206 0.30341271
0.027265662 0.077277571 0.30334377
0.027861884 0.077261038 0.30327919
0.02842631 0.077252544 0.30322024
0.02901016 0.077253088 0.30313486
0.02966355 0.077246487 0.30306554
0.030287979 0.077229165 0.30301279
0.030814333 0.077206641 0.3029643
0.031422138 0.077194057 0.30289218
0.031917404 0.077172168 0.30282846
0.032490626 0.077150531 0.30274537
0.033068854 0.077144094 0.30266139
0.033701129 0.077148348 0.30256432
0.034305606 0.077154271 0.30247092
0.034912191 0.077161215 0.30238044
0.035493571 0.077145815 0.30230448
0.036104929 0.077139907 0.30224279
0.036741696 0.07714808 0.30219162
0.037476853 0.077221349 0.30215716
0.038336571 0.077344358 0.30213025
0.039140761 0.077444881 0.30209458
0.039871916 0.077503473 0.30205899
0.040668644 0.077640675 0.30204099
0.041396119 0.077723399 0.302021
0.042115498 0.07777556 0.30198929
0.042847555 0.077801593 0.30194005
0.043508451 0.077875726 0.30187154
0.044193778 0.077994086 0.30183843
0.044875756 0.078144357 0.30181438
0.045534033 0.078258157 0.30182081
0.04612381 0.078373708 0.30177894
0.046690717 0.078560501 0.30175659
0.047182437 0.078712583 0.30177167
0.047540549 0.078765832 0.30173352
0.047979232 0.078825012 0.3016932
0.04837605 0.078829452 0.3016479
0.048792642 0.078858092 0.30159271
0.04922922 0.078895308 0.30157402
0.049613304 0.078896962 0.30151734
0.049987674 0.078962915 0.30151114
0.050424177 0.079080358 0.30156845
0.050650883 0.079155073 0.30156526
0.050832517 0.079162516 0.30155647
0.050990637 0.079073168 0.30150932
0.051211108 0.078956455 0.30147958
0.051433731 0.078888662 0.30141786
0.051806547 0.078741752 0.30132207
0.052152902 0.078776874 0.30131957
0.052457307 0.079021737 0.30137584
0.052781887 0.079362191 0.30144611
0.053247489 0.079560049 0.30152255
0.053655718 0.07961408 0.30156913
0.053914424 0.079343453 0.30145925
0.054226544 0.0790231 0.30127957
0.05454031 0.078793421 0.3011243
-0.070909292 0.080384515 0.31667894
-0.069357626 0.08025232 0.31634632
-0.068025284 0.080199651 0.31606978
-0.066925503 0.080164492 0.31578612
-0.066139907 0.080082126 0.3155688
-0.019846464 0.079792507 0.3100332
-0.019059461 0.080144823 0.31035674
-0.018327208 0.080523781 0.31066802
-0.017745927 0.080748461 0.31081292
-0.017387014 0.080765843 0.3109082
-0.016929207 0.08086165 0.31093737
-0.01659384 0.08084701 0.31098095
-0.016281176 0.080834284 0.31097168
-0.016015297 0.080825418 0.3109788
-0.01572015 0.080798857 0.31096488
-0.015454388 0.080772765 0.31092086
-0.01510138 0.08072748 0.31089804
-0.014757593 0.080717713 0.31080708
-0.014498063 0.080721885 0.31077594
-0.014184039 0.080743439 0.31081423
-0.013924773 0.080704294 0.31078896
-0.013480257 0.080571838 0.31061968
-0.012775155 0.080232449 0.31021094
-0.011702538 0.079547592 0.30960867
-0.010182923 0.078693405 0.30865523
-0.0093352953 0.078548312 0.30839276
-0.0086309602 0.078464732 0.30815724
0.0061676269 0.07790944 0.30543497
0.0068354737 0.077879936 0.30535996
0.0073999194 0.077871308 0.30530336
0.0080179144 0.077837549 0.30526328
0.0086639645 0.07781297 0.3052232
0.0092653027 0.077781275 0.30518714
0.0098575484 0.077747673 0.30514118
0.010441168 0.077712335 0.30508599
0.010984984 0.077668667 0.30503327
0.011524145 0.077626444 0.30498391
0.0120024 0.077591158 0.30494279
0.012510232 0.077564538 0.30490541
0.012983108 0.077537388 0.3048768
0.013488798 0.077527612 0.30482969
0.01407974 0.077532768 0.30477178
0.01466398 0.077524595 0.30471936
0.015179606 0.077494778 0.30468494
0.015729168 0.077470444 0.3046357
0.016237661 0.077442855 0.304589
0.016866913 0.077435702 0.30452809
0.017520647 0.077420086 0.30446768
0.018209351 0.07739865 0.30438456
0.018893255 0.077387437 0.3043136
0.01949162 0.07736887 0.30424765
