# .PCD v0.7 - Point Cloud Data file format
VERSION 0.7
FIELDS x y z
SIZE 4 4 4
TYPE F F F
COUNT 1 1 1
WIDTH 1393
HEIGHT 1
VIEWPOINT 0 0 0 1 0 0 0
POINTS 1393
DATA ascii
0.052566741 0.094708189 0.30095744
-0.078369409 0.10105033 0.31904256
-0.077588886 0.10088186 0.31851065
-0.076861933 0.10078078 0.3181915
-0.017939996 0.098085202 0.30968085
-0.017320041 0.098152585 0.30989361
-0.016704947 0.098253675 0.31021276
-0.016083039 0.098321058 0.31042552
-0.015449674 0.098321058 0.31042552
-0.014816309 0.098321058 0.31042552
0.046840783 0.094917901 0.29968086
0.047418531 0.09485051 0.29946807
0.04797836 0.094749428 0.29914895
0.048554156 0.094682038 0.29893616
0.049164079 0.094682038 0.29893616
0.049791716 0.094715729 0.29904255
0.050455648 0.094816819 0.29936171
0.051157176 0.094985291 0.29989362
0.051879238 0.095187463 0.30053192
0.052548163 0.095288545 0.30085108
-0.078264877 0.10156563 0.31861702
-0.077511139 0.10142998 0.3181915
-0.076810531 0.10136215 0.31797871
-0.017933832 0.098683134 0.30957446
-0.017308149 0.098717049 0.30968085
-0.01669349 0.098818779 0.31
-0.016072016 0.098886602 0.31021276
-0.01544438 0.098920517 0.31031916
-0.014816309 0.098954424 0.31042552
0.046824154 0.095495433 0.29957446
0.047401689 0.09542761 0.29936171
0.047961295 0.095325872 0.29904255
0.048536878 0.09525805 0.29882979
0.049164079 0.095291957 0.29893616
0.049791716 0.095325872 0.29904255
0.050455648 0.09542761 0.29936171
0.051120881 0.095529348 0.29968086
0.051824145 0.095698901 0.30021277
0.052473836 0.095766723 0.30042553
-0.078264877 0.10221571 0.31861702
-0.077511139 0.1020792 0.3181915
-0.076836228 0.10204507 0.3180851
-0.017946159 0.099383026 0.30978724
-0.017320041 0.09941715 0.30989361
-0.016699219 0.099485412 0.3101064
-0.016077528 0.099553667 0.31031916
-0.015454969 0.099621922 0.31053191
-0.014826465 0.099656053 0.31063831
0.046857409 0.096174911 0.29978722
0.047435381 0.096106656 0.29957446
0.04797836 0.095970146 0.29914895
0.048554156 0.095901884 0.29893616
0.049164079 0.095901884 0.29893616
0.049791716 0.095936015 0.29904255
0.050419789 0.095970146 0.29914895
0.05104829 0.09600427 0.29925531
0.051713958 0.096106656 0.29957446
0.052343767 0.096140787 0.29968086
-0.078369409 0.10300317 0.31904256
-0.077666625 0.10293447 0.31882977
-0.076990418 0.10290013 0.31872341
-0.01797081 0.10015246 0.31021276
-0.017337877 0.10015246 0.31021276
-0.016710676 0.10018682 0.31031916
-0.016094064 0.10028985 0.31063831
-0.015476149 0.10039289 0.31095746
-0.014851853 0.10046158 0.31117022
0.046973806 0.097026996 0.30053192
0.047536451 0.096923962 0.30021277
0.048046604 0.096717879 0.29957446
0.048588715 0.096580505 0.29914895
0.049181577 0.096546151 0.29904255
0.049774002 0.096511804 0.29893616
0.050365996 0.096477464 0.29882979
0.050975703 0.096477464 0.29882979
0.051603772 0.096511804 0.29893616
0.052232277 0.096546151 0.29904255
-0.017989298 0.10088909 0.31053191
-0.017355716 0.10088909 0.31053191
-0.016722133 0.10088909 0.31053191
-0.016099574 0.10095821 0.31074467
-0.015486738 0.10109647 0.31117022
-0.014862007 0.10116559 0.31138298
0.047056947 0.097812988 0.30106384
0.047603827 0.097674735 0.30063829
0.048097793 0.0974328 0.29989362
0.048605993 0.09722542 0.29925531
0.049164079 0.09712173 0.29893616
0.049738575 0.097052604 0.2987234
0.050312206 0.096983477 0.29851064
0.050903112 0.096948914 0.29840425
0.051511951 0.096948914 0.29840425
0.052139372 0.096983477 0.29851064
-0.018001623 0.10159223 0.31074467
-0.017361661 0.10155745 0.31063831
-0.016722133 0.10152267 0.31053191
-0.016099574 0.10159223 0.31074467
-0.015481442 0.10169657 0.31106383
0.047040317 0.098392472 0.30095744
0.047603827 0.098288134 0.30063829
0.048097793 0.098044671 0.29989362
0.048588715 0.097801216 0.29914895
0.049129087 0.097662091 0.2987234
0.049685437 0.097557753 0.29840425
0.050258413 0.097488195 0.29819149
0.050830524 0.097418636 0.29797873
0.051456854 0.097453408 0.29808509
0.052065041 0.097453408 0.29808509
-0.018007787 0.10226125 0.31085107
-0.017361661 0.10219125 0.31063831
-0.016716404 0.10212125 0.31042552
-0.016083039 0.10212125 0.31042552
-0.015460265 0.10219125 0.31063831
0.046957176 0.098831534 0.30042553
0.047519602 0.098726541 0.30010638
0.048029542 0.098516561 0.29946807
0.048536878 0.098306581 0.29882979
0.049076598 0.098166592 0.29840425
0.04965001 0.098096602 0.29819149
0.050222553 0.098026603 0.29797873
0.050794233 0.097956613 0.29776597
0.051383402 0.097921617 0.29765958
0.051990718 0.097921617 0.29765958
-0.08089219 0.10550132 0.31872341
-0.080268674 0.10553653 0.31882977
-0.079697862 0.10564217 0.31914893
-0.018075578 0.10328283 0.31202129
-0.017361661 0.10282505 0.31063831
-0.016704947 0.10268419 0.31021276
-0.016072016 0.10268419 0.31021276
-0.015439086 0.10268419 0.31021276
0.046857409 0.09923321 0.29978722
0.047435381 0.099162787 0.29957446
0.047961295 0.098986715 0.29904255
0.048485041 0.098810643 0.29851064
0.049041606 0.098705001 0.29819149
0.049614586 0.098634578 0.29797873
0.050186697 0.098564148 0.29776597
0.050757933 0.098493718 0.29755318
0.051328305 0.098423287 0.29734042
0.051916391 0.098388068 0.29723403
-0.080295458 0.10622247 0.31893617
-0.079591602 0.10615161 0.31872341
-0.018143369 0.1043092 0.3131915
-0.017349768 0.10338798 0.31042552
-0.016699219 0.10328169 0.3101064
-0.016060993 0.10324626 0.31
-0.015428497 0.10324626 0.31
0.046790898 0.099703148 0.29936171
0.047368001 0.099632293 0.29914895
0.047910109 0.099490561 0.2987234
0.048450485 0.099348843 0.29829788
0.049006615 0.099242546 0.29797873
0.049596868 0.099207111 0.29787233
0.050186697 0.099171683 0.29776597
0.050757933 0.099100813 0.29755318
0.051309939 0.098994523 0.29723403
0.051879231 0.098923661 0.29702127
-0.079511903 0.10669496 0.31840426
-0.078967646 0.10683755 0.31882977
-0.078395531 0.10694449 0.31914893
-0.018174183 0.10512645 0.31372342
-0.017320041 0.10384311 0.30989361
-0.016676303 0.10377181 0.30968085
-0.016044458 0.10377181 0.30968085
-0.015407317 0.10373616 0.30957446
0.046790898 0.10031394 0.29936171
0.047368001 0.10024264 0.29914895
0.047893051 0.1000644 0.29861704
0.048415922 0.099886157 0.29808509
0.048989117 0.099814862 0.29787233
0.049579158 0.099779218 0.29776597
0.050168764 0.099743567 0.29765958
0.050757933 0.099707916 0.29755318
0.051309939 0.099600971 0.29723403
0.051879231 0.099529676 0.29702127
-0.079458773 0.10727288 0.3181915
-0.078862257 0.10734461 0.31840426
-0.078238748 0.10738047 0.31851065
-0.077614799 0.10741633 0.31861702
-0.018106392 0.10537202 0.3125532
-0.017272474 0.10418846 0.30904254
-0.016641932 0.10418846 0.30904254
-0.016011387 0.10418846 0.30904254
-0.015370255 0.10411674 0.30882978
-0.014714759 0.10393741 0.30829787
0.046790898 0.10092473 0.29936171
0.047351155 0.10081714 0.29904255
0.047875986 0.10063781 0.29851064
0.048398647 0.10045849 0.29797873
0.048954125 0.10035089 0.29765958
0.049543731 0.10031502 0.29755318
0.05015083 0.10031502 0.29755318
0.050721638 0.10024329 0.29734042
0.051291581 0.10017157 0.29712766
0.051879231 0.10013569 0.29702127
-0.079379074 0.10781384 0.31787235
-0.078730516 0.10781384 0.31787235
-0.07810808 0.10784992 0.31797871
-0.017964648 0.10517984 0.3101064
-0.017218964 0.10449427 0.30808511
-0.016596101 0.10453035 0.30819148
-0.015972806 0.10456643 0.30829787
-0.015333193 0.10449427 0.30808511
-0.014674138 0.10427777 0.30744681
0.046774268 0.10149944 0.29925531
0.04733431 0.10139119 0.29893616
0.04785892 0.10121078 0.29840425
0.048381366 0.10103037 0.29787233
0.048936628 0.10092212 0.29755318
0.049508303 0.10084996 0.29734042
0.050097041 0.10081387 0.29723403
0.050703492 0.10081387 0.29723403
0.051291581 0.1007778 0.29712766
0.051879231 0.10074171 0.29702127
-0.079299375 0.1083535 0.31755319
-0.078598768 0.1082809 0.31734043
-0.077977426 0.1083172 0.3174468
-0.017853715 0.10515916 0.30819148
-0.017183289 0.10490506 0.30744681
-0.01656173 0.10494137 0.3075532
-0.015945248 0.10501396 0.30776596
-0.015301426 0.10490506 0.30744681
-0.014643672 0.10468727 0.3068085
-0.013998246 0.10454207 0.30638298
0.046691131 0.10192852 0.2987234
0.04726693 0.10185592 0.29851064
0.047807734 0.10171071 0.29808509
0.048346806 0.10156552 0.29765958
0.048901636 0.10145663 0.29734042
0.04947288 0.10138403 0.29712766
0.050079115 0.10138403 0.29712766
0.050685346 0.10138403 0.29712766
0.051291581 0.10138403 0.29712766
0.051879231 0.10134773 0.29702127
-0.079193108 0.10885534 0.31712765
-0.078493372 0.10878231 0.31691489
-0.0777945 0.10870928 0.31670213
-0.017798251 0.10545932 0.30723405
-0.017171398 0.10545932 0.30723405
-0.016550271 0.10549583 0.30734041
-0.015934225 0.10556887 0.3075532
-0.01529613 0.10549583 0.30734041
-0.01464875 0.10534977 0.3069149
0.04660799 0.10235543 0.29819149
0.047182705 0.1022824 0.29797873
0.047739491 0.10217284 0.29765958
0.048294969 0.10206329 0.29734042
0.048866648 0.10199026 0.29712766
0.049455166 0.10195374 0.29702127
0.050079115 0.10199026 0.29712766
0.050685346 0.10199026 0.29712766
0.051291581 0.10199026 0.29712766
0.051897813 0.10199026 0.29712766
-0.079139978 0.10942891 0.31691489
-0.078414321 0.10931871 0.31659573
-0.077716105 0.10924525 0.31638297
-0.018450623 0.10623311 0.30765957
-0.017816739 0.10619637 0.3075532
-0.017183289 0.10615963 0.30744681
-0.01656173 0.10619637 0.3075532
-0.015945248 0.10626984 0.30776596
-0.01531731 0.10626984 0.30776596
-0.01466906 0.1061229 0.30734041
0.046508223 0.10274342 0.29755318
0.047098484 0.1027067 0.29744682
0.04767124 0.10263322 0.29723403
0.048243131 0.10255976 0.29702127
0.048831657 0.10252303 0.29691491
0.049419738 0.1024863 0.29680851
0.050043255 0.10252303 0.29691491
0.050667197 0.10255976 0.29702127
0.051291581 0.1025965 0.29712766
0.051897813 0.1025965 0.29712766
-0.080027632 0.11040808 0.31787235
-0.079086848 0.11000162 0.31670213
-0.078387976 0.10992772 0.31648937
-0.077716105 0.10989077 0.31638297
-0.017822901 0.10686082 0.30765957
-0.017189234 0.10682388 0.3075532
-0.016567457 0.10686082 0.30765957
-0.015956271 0.10697167 0.30797872
-0.015333193 0.10700863 0.30808511
0.046491597 0.10331358 0.29744682
0.047081634 0.10327663 0.29734042
0.047637116 0.10316578 0.29702127
0.048208576 0.10309187 0.29680851
0.048796661 0.10305493 0.29670212
0.049384315 0.10301798 0.29659575
0.050007388 0.10305493 0.29670212
0.050630905 0.10309187 0.29680851
0.051254854 0.10312883 0.29691491
0.051860653 0.10312883 0.29691491
-0.079652667 0.11053628 0.31638297
-0.079033718 0.11057346 0.31648937
-0.078361623 0.11053628 0.31638297
-0.077689976 0.11049912 0.31627661
-0.017810576 0.10741422 0.30744681
-0.017177342 0.10737704 0.30734041
-0.01656173 0.10745139 0.3075532
-0.015956271 0.10760005 0.30797872
-0.015338487 0.10767438 0.30819148
0.046524853 0.1039948 0.29765958
0.047115326 0.10395763 0.29755318
0.047654182 0.10380896 0.29712766
0.048208576 0.10369746 0.29680851
0.048779167 0.10362313 0.29659575
0.049366601 0.10358595 0.29648936
0.049953602 0.10354879 0.29638299
0.05057646 0.10358595 0.29648936
0.051181391 0.10358595 0.29648936
0.051804908 0.10362313 0.29659575
-0.080082186 0.11088273 0.31553191
-0.079491965 0.1109575 0.31574467
-0.078954019 0.11110704 0.31617022
-0.078335285 0.11114443 0.31627661
-0.077689976 0.11114443 0.31627661
-0.017761273 0.10774242 0.30659574
-0.017147614 0.10781719 0.3068085
-0.016544543 0.10796674 0.30723405
-0.015939737 0.10811627 0.30765957
-0.015327899 0.10822842 0.30797872
0.04659136 0.10475165 0.29808509
0.047165859 0.10467689 0.29787233
0.047705367 0.10452735 0.29744682
0.048243131 0.10437781 0.29702127
0.048779167 0.10422827 0.29659575
0.049348891 0.10415351 0.29638299
0.049917739 0.10407873 0.2961702
0.050522018 0.10407873 0.2961702
0.051144663 0.10411612 0.2962766
0.051749162 0.10411612 0.2962766
-0.079839192 0.11118811 0.31457448
-0.079358049 0.11141371 0.31521276
-0.078847751 0.11160171 0.31574467
-0.078256235 0.11167692 0.31595746
-0.07763771 0.11171452 0.31606382
-0.017705807 0.10802955 0.30563828
-0.01711194 0.10821757 0.30617023
-0.016515899 0.10840558 0.30670214
-0.0159232 0.10863119 0.30734041
-0.01531731 0.10878159 0.30776596
-0.014699525 0.1088568 0.30797872
0.04660799 0.10539744 0.29819149
0.047182705 0.10532224 0.29797873
0.047722425 0.10517183 0.29755318
0.048243131 0.10498382 0.29702127
0.048779167 0.10483342 0.29659575
0.04931346 0.10468301 0.2961702
0.049899813 0.10464542 0.29606384
0.050485726 0.10460781 0.29595745
0.051107936 0.10464542 0.29606384
0.051693417 0.10460781 0.29595745
-0.079677187 0.11160302 0.31393617
-0.079277702 0.11194338 0.3148936
-0.078794621 0.11217029 0.31553191
-0.078177184 0.11220812 0.3156383
-0.07745479 0.11209466 0.31531915
-0.017668832 0.10842625 0.30500001
-0.017082209 0.10865315 0.30563828
-0.016498715 0.10891789 0.30638298
-0.015906667 0.10914481 0.30702129
-0.015306721 0.1093339 0.3075532
-0.014694449 0.10944735 0.30787235
0.046541482 0.10585458 0.29776597
0.047115326 0.10577893 0.29755318
0.04767124 0.10566548 0.29723403
0.048208576 0.10551421 0.29680851
0.048744176 0.10536294 0.29638299
0.04929575 0.10524948 0.29606384
0.049881879 0.10521165 0.29595745
0.050467577 0.10517383 0.29585105
0.051071204 0.10517383 0.29585105
0.051656254 0.10513602 0.29574469
0.052240867 0.1050982 0.29563829
-0.080127195 0.1119773 0.3131915
-0.079650186 0.11220551 0.31382978
-0.079250924 0.11254783 0.31478724
-0.078714922 0.11269997 0.31521276
-0.078045443 0.11266194 0.31510639
-0.077219598 0.11239568 0.31436169
-0.018265607 0.1088964 0.30457446
-0.017662669 0.1090105 0.30489361
-0.017076265 0.10923872 0.30553192
-0.016492985 0.10950497 0.30627659
-0.015895642 0.10969514 0.3068085
-0.01529613 0.10988532 0.30734041
-0.014679216 0.10996141 0.3075532
0.04640846 0.10615782 0.29691491
0.046997409 0.10611979 0.29680851
0.047585931 0.10608175 0.29670212
0.04813946 0.10596765 0.29638299
0.048691686 0.10585354 0.29606384
0.049260318 0.10577746 0.29585105
0.04984602 0.10573943 0.29574469
0.050449431 0.10573943 0.29574469
0.051016115 0.10566336 0.29553193
0.051581927 0.10558728 0.29531914
0.052146874 0.10551121 0.29510638
-0.080181628 0.11269281 0.31340426
-0.079677187 0.11288407 0.31393617
-0.079250924 0.1131901 0.31478724
-0.078661792 0.1132666 0.315
-0.077887349 0.11307534 0.31446809
-0.07698442 0.11269281 0.31340426
-0.076189481 0.1124633 0.31276596
-0.018297505 0.10970908 0.30510637
-0.017687321 0.1097856 0.30531916
-0.017094102 0.10997687 0.30585107
-0.016492985 0.11012987 0.30627659
-0.015890133 0.11028288 0.30670214
-0.015285541 0.11043589 0.30712765
0.046325319 0.10657236 0.29638299
0.046913188 0.10653411 0.2962766
0.047500622 0.10649585 0.2961702
0.048070341 0.10641935 0.29595745
0.048656691 0.10638109 0.29585105
0.049224894 0.10630459 0.29563829
0.04982809 0.10630459 0.29563829
0.050413139 0.10626634 0.29553193
0.050979383 0.10618982 0.29531914
0.051507603 0.10603682 0.29489362
0.052071683 0.10596032 0.29468086
-0.08034493 0.11356307 0.31404254
-0.079812184 0.11371695 0.31446809
-0.079304487 0.1139093 0.315
-0.078635223 0.11387082 0.3148936
-0.077781945 0.11356307 0.31404254
-0.076801486 0.11306296 0.31265956
-0.075956248 0.1127552 0.3118085
-0.018342165 0.1106009 0.30585107
-0.017724296 0.11063936 0.30595744
-0.017117884 0.11075477 0.30627659
-0.016504442 0.11083171 0.30648935
-0.015890133 0.11090865 0.30670214
-0.015274952 0.11098559 0.3069149
0.046879496 0.10706167 0.29606384
0.047466498 0.10702319 0.29595745
0.048035786 0.10694625 0.29574469
0.048604205 0.10686932 0.29553193
0.049171753 0.10679237 0.29531914
0.049774297 0.10679237 0.29531914
0.05037684 0.10679237 0.29531914
0.050942656 0.10671543 0.29510638
0.051470444 0.10656156 0.29468086
0.052034084 0.10648461 0.29446808
-0.080535449 0.11447462 0.31478724
-0.079947188 0.114552 0.315
-0.079384841 0.11466806 0.31531915
-0.078661792 0.114552 0.315
-0.077781945 0.11420381 0.31404254
-0.076775365 0.1136622 0.3125532
-0.075930335 0.11335271 0.31170213
-0.018367684 0.11137967 0.30627659
-0.017748948 0.11141836 0.30638298
-0.017129775 0.11145704 0.30648935
-0.01651017 0.11149573 0.30659574
-0.015884619 0.11149573 0.30659574
-0.015259068 0.11149573 0.30659574
0.046862651 0.10762703 0.29595745
0.047449432 0.10758834 0.29585105
0.04800123 0.10747229 0.29553193
0.048551716 0.10735624 0.29521278
0.049136329 0.10731754 0.29510638
0.049738437 0.10731754 0.29510638
0.050322399 0.10727885 0.29499999
0.050905928 0.10724017 0.29489362
0.051451858 0.10712411 0.29457447
0.052034084 0.10708541 0.29446808
-0.080753192 0.11542812 0.3156383
-0.080136187 0.11546702 0.31574467
-0.079465188 0.11542812 0.3156383
-0.078714922 0.1152725 0.31521276
-0.077834651 0.11492237 0.31425533
-0.076906018 0.11449443 0.31308511
-0.076085828 0.1142221 0.31234044
-0.018374065 0.11204348 0.30638298
-0.01775511 0.11208237 0.30648935
-0.017135723 0.11212128 0.30659574
-0.01651017 0.11212128 0.30659574
-0.015879108 0.11208237 0.30648935
-0.015243185 0.11200457 0.30627659
0.046845805 0.10819197 0.29585105
0.047432374 0.10815307 0.29574469
0.047966667 0.10799745 0.29531914
0.048516721 0.10788074 0.29499999
0.049083188 0.10780293 0.29478723
0.049684647 0.10780293 0.29478723
0.050286103 0.10780293 0.29478723
0.0508692 0.10776404 0.29468086
0.051433276 0.10768622 0.29446808
0.052015286 0.10764733 0.29436171
-0.080970928 0.11638509 0.31648937
-0.080271192 0.11630686 0.31627661
-0.079545535 0.11618949 0.31595746
-0.07876806 0.11599389 0.31542554
-0.077913702 0.11568092 0.31457448
-0.077036679 0.11532882 0.31361702
-0.076267228 0.11513322 0.31308511
-0.018380444 0.1127077 0.30648935
-0.017761273 0.11274683 0.30659574
-0.017135723 0.11274683 0.30659574
-0.016504442 0.1127077 0.30648935
-0.015857061 0.11255123 0.30606383
-0.015216712 0.11243387 0.30574468
0.046812117 0.10871737 0.29563829
0.047398251 0.10867825 0.29553193
0.047949392 0.10856088 0.29521278
0.048499227 0.10844352 0.29489362
0.049065478 0.10836528 0.29468086
0.049648788 0.10832616 0.29457447
0.050249811 0.10832616 0.29457447
0.050850835 0.10832616 0.29457447
0.051414698 0.10824791 0.29436171
0.051996488 0.10820879 0.29425532
-0.081134222 0.11726685 0.31712765
-0.080352187 0.11707016 0.31659573
-0.079545535 0.11683414 0.31595746
-0.078714922 0.11655877 0.31521276
-0.077887349 0.1162834 0.31446809
-0.077062815 0.11600804 0.31372342
-0.076344974 0.11589003 0.31340426
-0.018386824 0.11337239 0.30659574
-0.017767437 0.11341172 0.30670214
-0.017135723 0.11337239 0.30659574
-0.016487258 0.11321504 0.30617023
-0.015829504 0.112979 0.30553192
-0.015184944 0.11282165 0.30510637
0.046795275 0.10928123 0.29553193
0.047381189 0.10924189 0.29542553
0.047949392 0.10916321 0.29521278
0.048516721 0.10908452 0.29499999
0.049065478 0.10896652 0.29468086
0.049648788 0.10892718 0.29457447
0.050231662 0.10888784 0.29446808
0.050814107 0.1088485 0.29436171
0.051396113 0.10880917 0.29425532
0.051958892 0.10873049 0.29404256
-0.081161447 0.11795345 0.31723404
-0.080352187 0.11771612 0.31659573
-0.079491965 0.11739967 0.31574467
-0.078661792 0.11712279 0.315
-0.077860996 0.11688546 0.31436169
-0.077088937 0.11668769 0.31382978
-0.018393205 0.11403749 0.30670214
-0.017767437 0.11403749 0.30670214
-0.017129775 0.11395837 0.30648935
-0.016470071 0.11372105 0.30585107
-0.015807455 0.11344416 0.30510637
-0.015163766 0.11328594 0.30468085
0.046778426 0.10984465 0.29542553
0.047364123 0.10980508 0.29531914
0.047949392 0.10976554 0.29521278
0.048499227 0.10964687 0.29489362
0.049065478 0.10956776 0.29468086
0.049630854 0.10948864 0.29446808
0.050213519 0.1094491 0.29436171
0.050777376 0.10936998 0.29414892
0.051358953 0.10933043 0.29404256
0.051940091 0.10929087 0.29393616
-0.081808701 0.1186007 0.31723404
-0.081052579 0.11844162 0.31680852
-0.080244191 0.11820298 0.31617022
-0.079384841 0.11788481 0.31531915
-0.078582093 0.11764617 0.31468084
-0.077781945 0.11740754 0.31404254
-0.077062815 0.11728823 0.31372342
-0.018386824 0.11462349 0.30659574
-0.01775511 0.11458371 0.30648935
-0.017117884 0.11450417 0.30627659
-0.016458612 0.11426553 0.30563828
-0.015801946 0.1140269 0.30500001
0.046727892 0.11032809 0.29510638
0.04733 0.11032809 0.29510638
0.047914829 0.11028831 0.29499999
0.048499227 0.11024854 0.29489362
0.049065478 0.110169 0.29468086
0.049612928 0.11004969 0.29436171
0.05019537 0.11000991 0.29425532
0.050759014 0.10993037 0.29404256
0.051340368 0.1098906 0.29393616
-0.081616662 0.11896804 0.31648937
-0.080889277 0.11884807 0.31617022
-0.080082186 0.11860813 0.31553191
-0.079277702 0.11836819 0.3148936
-0.078475833 0.11812827 0.31425533
-0.077729255 0.11796831 0.31382978
-0.077010542 0.11784834 0.31351063
-0.018361306 0.11508909 0.30617023
-0.01773046 0.11504909 0.30606383
-0.017100047 0.1150091 0.30595744
-0.016458612 0.11488913 0.30563828
-0.015812969 0.11472918 0.30521277
0.046660513 0.11077025 0.29468086
0.047261756 0.11077025 0.29468086
0.047862995 0.11077025 0.29468086
0.048446741 0.11073025 0.29457447
0.049030047 0.11069026 0.29446808
0.049594995 0.11061028 0.29425532
0.050159074 0.11053031 0.29404256
0.050740648 0.11049031 0.29393616
0.051340368 0.11049031 0.29393616
-0.08136975 0.11925191 0.31553191
-0.080698758 0.11921172 0.31542554
-0.079947188 0.11905089 0.315
-0.07917057 0.11884986 0.31446809
-0.078369565 0.11860862 0.31382978
-0.077623859 0.1184478 0.31340426
-0.076906018 0.11832718 0.31308511
-0.018329404 0.11551273 0.30563828
-0.017705807 0.11551273 0.30563828
-0.017088156 0.11555294 0.30574468
-0.016464341 0.11555294 0.30574468
-0.015835013 0.11551273 0.30563828
0.046609979 0.11125087 0.29436171
0.047210567 0.11125087 0.29436171
0.047793876 0.11121066 0.29425532
0.048376754 0.11117045 0.29414892
0.048959199 0.11113025 0.29404256
0.049541205 0.11109003 0.29393616
0.050122783 0.11104984 0.2938298
0.05070392 0.11100963 0.2937234
0.051303208 0.11100963 0.2937234
-0.081122853 0.1195319 0.31457448
-0.080535449 0.11961274 0.31478724
-0.079866186 0.11957231 0.31468084
-0.079117008 0.11941063 0.31425533
-0.078343004 0.11920851 0.31372342
-0.077544808 0.11896597 0.31308511
-0.076827623 0.1188447 0.31276596
-0.018310266 0.11601506 0.30531916
-0.017693482 0.11605548 0.30542552
-0.017082209 0.11613633 0.30563828
-0.016470071 0.11621718 0.30585107
-0.01585155 0.11625759 0.30595744
0.046609979 0.11185145 0.29436171
0.047193505 0.11181103 0.29425532
0.047759321 0.11173019 0.29404256
0.048306771 0.11160892 0.2937234
0.048888344 0.11156849 0.29361701
0.049469486 0.11152807 0.29351065
0.050050192 0.11148764 0.29340425
0.050648827 0.11148764 0.29340425
0.051247463 0.11148764 0.29340425
-0.080985673 0.11997052 0.31404254
-0.080426581 0.12009244 0.31436169
-0.079839192 0.12017373 0.31457448
-0.079143785 0.12009244 0.31436169
-0.078343004 0.1198486 0.31372342
-0.077544808 0.11960476 0.31308511
-0.076801486 0.11944219 0.31265956
-0.018310266 0.11663801 0.30531916
-0.017693482 0.11667864 0.30542552
-0.017082209 0.11675992 0.30563828
-0.016470071 0.11684121 0.30585107
-0.01585155 0.11688185 0.30595744
0.046660513 0.11257397 0.29468086
0.047210567 0.11245205 0.29436171
0.047742039 0.11228948 0.29393616
0.048254281 0.11208628 0.29340425
0.048817493 0.112005 0.29319149
0.049397763 0.11196435 0.2930851
0.049995746 0.11196435 0.2930851
0.050575372 0.11192372 0.29297873
0.051173139 0.11192372 0.29297873
-0.081515819 0.12044784 0.31361702
-0.080930807 0.12052955 0.31382978
-0.080399364 0.12069298 0.31425533
-0.079839192 0.12081556 0.31457448
-0.07917057 0.12077469 0.31446809
-0.078369565 0.12052955 0.31382978
-0.077571161 0.12028441 0.3131915
-0.076827623 0.12012097 0.31276596
-0.018316645 0.11730181 0.30542552
-0.017699646 0.11734267 0.30553192
-0.017082209 0.11738352 0.30563828
-0.016458612 0.11738352 0.30563828
-0.015835013 0.11738352 0.30563828
0.046711046 0.11329778 0.29499999
0.04724469 0.11313435 0.29457447
0.047742039 0.1128892 0.29393616
0.048236787 0.11264406 0.29329789
0.048782066 0.11252149 0.29297873
0.049361903 0.11248063 0.29287234
0.049941305 0.11243977 0.29276595
0.05053864 0.11243977 0.29276595
0.051117394 0.11239891 0.29265958
-0.081488162 0.12104663 0.31351063
-0.080930807 0.12116986 0.31382978
-0.080399364 0.12133417 0.31425533
-0.079812184 0.12141631 0.31446809
-0.07917057 0.12141631 0.31446809
-0.078396134 0.12121094 0.31393617
-0.077597506 0.12096449 0.31329787
-0.076879889 0.12084126 0.31297871
-0.018303886 0.11784282 0.30521277
-0.017681157 0.11784282 0.30521277
-0.017058427 0.11784282 0.30521277
-0.016429968 0.11780175 0.30510637
-0.015807455 0.11780175 0.30510637
0.046711046 0.11389966 0.29499999
0.04724469 0.11373537 0.29457447
0.047742039 0.11348892 0.29393616
0.048236787 0.11324248 0.29329789
0.048764352 0.11307818 0.29287234
0.049326044 0.11299603 0.29265958
0.049923159 0.11299603 0.29265958
0.050501913 0.11295495 0.29255319
0.051098812 0.11295495 0.29255319
-0.081488162 0.12168629 0.31351063
-0.080903374 0.12176888 0.31372342
-0.080372147 0.12193405 0.31414893
-0.079785183 0.12201662 0.31436169
-0.079117008 0.12197534 0.31425533
-0.078343004 0.12176888 0.31372342
-0.077544808 0.12152113 0.31308511
-0.076801486 0.12135596 0.31265956
-0.018259227 0.11817652 0.3044681
-0.017650342 0.11825909 0.30468085
-0.017028699 0.11825909 0.30468085
-0.016401324 0.1182178 0.30457446
-0.015774388 0.11817652 0.3044681
0.046643667 0.11433639 0.29457447
0.047193505 0.11421252 0.29425532
0.047707483 0.11400606 0.2937234
0.04821929 0.11379961 0.29319149
0.048764352 0.11367573 0.29287234
0.049326044 0.11359315 0.29265958
0.049905013 0.11355186 0.29255319
0.050501913 0.11355186 0.29255319
0.051098812 0.11355186 0.29255319
-0.081405215 0.12220144 0.3131915
-0.080821075 0.12228445 0.31340426
-0.080290496 0.12245048 0.31382978
-0.07970418 0.12253349 0.31404254
-0.07903666 0.12249199 0.31393617
-0.078263305 0.12228445 0.31340426
-0.077439412 0.12199388 0.31265956
-0.076696962 0.12182786 0.31223404
-0.018227328 0.11859018 0.30393618
-0.017619528 0.1186732 0.30414894
-0.017004915 0.1187147 0.30425531
-0.016384138 0.1187147 0.30425531
-0.015763363 0.1187147 0.30425531
0.047125258 0.11464687 0.2938298
0.047655646 0.11448082 0.29340425
0.048201792 0.11435629 0.2930851
0.048764352 0.11427328 0.29287234
0.049326044 0.11419027 0.29265958
0.049886867 0.11410725 0.29244682
0.050483551 0.11410725 0.29244682
0.051061649 0.11406574 0.29234043
-0.081184007 0.12250664 0.31234044
-0.080738768 0.12279872 0.31308511
-0.080208845 0.12296561 0.31351063
-0.079596184 0.12300734 0.31361702
-0.078902744 0.1229239 0.31340426
-0.078130476 0.12271526 0.31287235
-0.077334017 0.12246491 0.31223404
-0.018220948 0.11916858 0.30382979
-0.017607203 0.11921031 0.30393618
-0.016993023 0.11925203 0.30404255
-0.016384138 0.11933548 0.30425531
-0.015774388 0.11941893 0.3044681
-0.015158471 0.11946066 0.30457446
0.047057007 0.11507946 0.29340425
0.047621086 0.11499601 0.29319149
0.048201792 0.11495428 0.2930851
0.048764352 0.11487083 0.29287234
0.049326044 0.11478738 0.29265958
0.049868718 0.11466221 0.29234043
0.050428458 0.11457875 0.29212767
0.051005904 0.11453702 0.29202127
-0.081263907 0.12230505 0.31021276
-0.080990441 0.12285031 0.31159574
-0.080629028 0.12326973 0.31265956
-0.080127195 0.12347946 0.3131915
-0.079515181 0.12352139 0.31329787
-0.078822397 0.12343751 0.31308511
-0.078050777 0.1232278 0.3125532
-0.077307671 0.12306002 0.31212765
-0.018233707 0.11987237 0.30404255
-0.017613364 0.11987237 0.30404255
-0.016998969 0.11991432 0.30414894
-0.016389867 0.1199982 0.3043617
-0.015785409 0.12012403 0.30468085
-0.01517965 0.12024986 0.30500001
0.047005821 0.11555227 0.2930851
0.047603808 0.11555227 0.2930851
0.048184298 0.11551033 0.29297873
0.048746638 0.11542644 0.29276595
0.04930811 0.11534255 0.29255319
0.049850568 0.11521672 0.29223403
0.050391722 0.11509089 0.29191488
0.050968744 0.11504896 0.29180852
-0.081040964 0.1226007 0.3093617
-0.080879837 0.12331742 0.31117022
-0.080601595 0.1238655 0.3125532
-0.080127195 0.12411846 0.3131915
-0.079515181 0.12416062 0.31329787
-0.078822397 0.1240763 0.31308511
-0.078103907 0.12394982 0.31276596
-0.077386715 0.12382334 0.3124468
-0.018259227 0.12066136 0.3044681
-0.017631853 0.12061919 0.3043617
-0.017004915 0.12057703 0.30425531
-0.016389867 0.12061919 0.3043617
-0.015785409 0.12074567 0.30468085
-0.01517965 0.12087215 0.30500001
0.047005821 0.11615025 0.2930851
0.047603808 0.11615025 0.2930851
0.048184298 0.1161081 0.29297873
0.048746638 0.11602377 0.29276595
0.04930811 0.11593945 0.29255319
0.049832426 0.11577082 0.29212767
0.050373364 0.11564434 0.29180852
0.05093158 0.11556002 0.29159576
-0.081278965 0.12263863 0.30787235
-0.080957353 0.12310477 0.30904254
-0.080852188 0.12390993 0.31106383
-0.080629028 0.12454557 0.31265956
-0.080154411 0.12479984 0.31329787
-0.079569183 0.12488459 0.31351063
-0.078902744 0.12484222 0.31340426
-0.078236736 0.12479984 0.31329787
-0.077571161 0.12475747 0.3131915
-0.018278368 0.1214097 0.30478725
-0.017644178 0.12132493 0.30457446
-0.017004915 0.1211978 0.30425531
-0.016384138 0.1211978 0.30425531
-0.015774388 0.12128257 0.3044681
-0.015163766 0.12136732 0.30468085
0.047005821 0.11674824 0.2930851
0.04758653 0.11670586 0.29297873
0.0481668 0.11666349 0.29287234
0.048728928 0.11657874 0.29265958
0.049290184 0.11649399 0.29244682
0.049832426 0.11636685 0.29212767
0.050373364 0.11623972 0.29180852
0.050950162 0.11619734 0.29170212
-0.081068829 0.12390569 0.30946809
-0.080879837 0.12458719 0.31117022
-0.080656469 0.1252261 0.31276596
-0.080181628 0.12548167 0.31340426
-0.079623185 0.12560944 0.31372342
-0.079009876 0.12565203 0.31382978
-0.078396134 0.12569463 0.31393617
-0.0777556 0.12569463 0.31393617
-0.018291127 0.12211674 0.30500001
-0.017650342 0.12198896 0.30468085
-0.017004915 0.12181858 0.30425531
-0.016366953 0.12169081 0.30393618
-0.015746828 0.12169081 0.30393618
-0.015131998 0.1217334 0.30404255
0.046971697 0.11726104 0.29287234
0.047569249 0.11726104 0.29287234
0.048131809 0.11717585 0.29265958
0.04871121 0.11713325 0.29255319
0.049272254 0.11704807 0.29234043
0.049814276 0.11692028 0.29202127
0.050373364 0.1168351 0.29180852
0.050950162 0.1167925 0.29170212
-0.08129178 0.12487959 0.31031916
-0.080935143 0.12530769 0.31138298
-0.080601595 0.12577862 0.3125532
-0.080127195 0.12603548 0.3131915
-0.079596184 0.12620673 0.31361702
-0.07903666 0.12633516 0.31393617
-0.078475833 0.12646359 0.31425533
-0.077860996 0.1265064 0.31436169
-0.018284746 0.12269623 0.30489361
-0.017644178 0.12256779 0.30457446
-0.016987078 0.12231094 0.30393618
-0.016344039 0.12213968 0.30351064
-0.015713759 0.12205406 0.30329788
-0.01508964 0.12201125 0.30319148
0.046954636 0.11781577 0.29276595
0.047551967 0.11781577 0.29276595
0.048114311 0.11773016 0.29255319
0.048675787 0.11764453 0.29234043
0.049236394 0.11755891 0.29212767
0.049777981 0.11743048 0.29180852
0.050336637 0.11734486 0.29159576
0.050912999 0.11730205 0.29148936
-0.081486851 0.12581393 0.31106383
-0.080962792 0.12598605 0.31148937
-0.080519296 0.12628724 0.31223404
-0.080045544 0.12654541 0.31287235
-0.079515181 0.12671752 0.31329787
-0.078983098 0.12688963 0.31372342
-0.078449264 0.12706174 0.31414893
-0.018259227 0.1231462 0.3044681
-0.017613364 0.12297408 0.30404255
-0.016957348 0.12271591 0.30340424
-0.016315395 0.1225438 0.30297872
-0.015669664 0.12232866 0.30244681
-0.015020811 0.12207049 0.30180851
0.046971697 0.11845614 0.29287234
0.047551967 0.11841311 0.29276595
0.048096821 0.11828403 0.29244682
0.048658073 0.11819797 0.29223403
0.049200527 0.11806888 0.29191488
0.04972354 0.11789677 0.29148936
0.050263174 0.11776769 0.29117021
0.050820094 0.11768164 0.29095745
-0.081570461 0.12657833 0.31138298
-0.080990441 0.12666482 0.31159574
-0.08043699 0.12679456 0.31191489
-0.079936676 0.12701078 0.3124468
-0.079434186 0.12722701 0.31297871
-0.078929521 0.12744322 0.31351063
-0.078369565 0.12757297 0.31382978
-0.018214567 0.12346468 0.30372339
-0.017576387 0.12333494 0.30340424
-0.016927619 0.12311872 0.30287233
-0.016292479 0.12298898 0.30255318
-0.015642107 0.12272952 0.3019149
-0.014978454 0.12234031 0.30095744
0.046988763 0.11909694 0.29297873
0.047551967 0.11901044 0.29276595
0.048096821 0.11888071 0.29244682
0.048640363 0.11875098 0.29212767
0.049164671 0.11857799 0.29170212
0.049669098 0.11836177 0.29117021
0.050171353 0.11814554 0.2906383
0.050727185 0.11805905 0.29042554
-0.081626192 0.12730058 0.31159574
-0.081018098 0.12734404 0.31170213
-0.08043699 0.12743096 0.31191489
-0.079882242 0.12756135 0.31223404
-0.079380184 0.12777866 0.31276596
-0.078875959 0.12799597 0.31329787
-0.078316435 0.12812635 0.31361702
-0.018807871 0.12391053 0.30329788
-0.018176289 0.12382361 0.30308512
-0.017533248 0.12364975 0.30265957
-0.016897891 0.12351937 0.30234042
-0.016275294 0.12347592 0.30223405
-0.015631083 0.12325861 0.30170214
-0.01497316 0.12291091 0.30085108
0.046971697 0.11965124 0.29287234
0.047534693 0.11956432 0.29265958
0.048061822 0.11939047 0.29223403
0.048587222 0.11921662 0.29180852
0.049110878 0.11904277 0.29138297
0.049614657 0.11882546 0.29085106
0.050097901 0.1185647 0.29021278
0.05063428 0.1184343 0.28989363
-0.081737667 0.12811105 0.31202129
-0.081101052 0.12811105 0.31202129
-0.08046443 0.12811105 0.31202129
-0.079855017 0.12815472 0.31212765
-0.07932619 0.12832944 0.3125532
-0.078822397 0.12854783 0.31308511
-0.078263305 0.12867887 0.31340426
-0.018761691 0.12422359 0.30255318
-0.018138008 0.12417992 0.30244681
-0.017502435 0.12404888 0.30212766
-0.016874108 0.12396152 0.3019149
-0.016263835 0.1240052 0.30202127
-0.015636595 0.12391784 0.30180851
-0.014999634 0.12374313 0.30138299
0.046920512 0.12011775 0.29255319
0.047482856 0.1200304 0.29234043
0.048009332 0.11985567 0.29191488
0.048551798 0.11972465 0.29159576
0.049075019 0.11954992 0.29117021
0.049578361 0.11933153 0.2906383
0.050079532 0.11911313 0.29010639
0.050615694 0.1189821 0.28978723
-0.081849143 0.12892325 0.3124468
-0.081211649 0.12892325 0.3124468
-0.080519296 0.12883545 0.31223404
-0.079882242 0.12883545 0.31223404
-0.079272188 0.12887935 0.31234044
-0.078742042 0.12905493 0.31276596
-0.078157037 0.12914273 0.31297871
-0.018728707 0.12462141 0.30202127
-0.01810611 0.12457753 0.3019149
-0.017483946 0.12453362 0.30180851
-0.016868161 0.12453362 0.30180851
-0.016263835 0.12462141 0.30202127
-0.01565313 0.12466531 0.30212766
-0.01504199 0.12470922 0.30223405
0.046835203 0.12049517 0.29202127
0.047413737 0.12045127 0.29191488
0.047939353 0.12027569 0.29148936
0.048480943 0.120144 0.29117021
0.049021229 0.12001231 0.29085106
0.049560212 0.11988062 0.2905319
0.050097901 0.11974894 0.29021278
0.050652858 0.11966114 0.28999999
-0.081988484 0.12978131 0.31297871
-0.08132226 0.1297372 0.31287235
-0.080601595 0.12960486 0.3125532
-0.079882242 0.12947251 0.31223404
-0.079245187 0.12947251 0.31223404
-0.078634918 0.12951663 0.31234044
-0.078050777 0.12960486 0.3125532
-0.018695721 0.12501706 0.30148935
-0.01808697 0.12506118 0.30159575
-0.017471621 0.12506118 0.30159575
-0.016868161 0.12514941 0.30180851
-0.016269565 0.12528175 0.30212766
-0.015669664 0.12541409 0.30244681
-0.015063168 0.12550232 0.30265957
0.046766955 0.12091454 0.29159576
0.047344621 0.12087042 0.29148936
0.047886863 0.12073808 0.29117021
0.048427802 0.12060574 0.29085106
0.04898537 0.12051751 0.2906383
0.049542069 0.12042929 0.29042554
0.05011626 0.12038517 0.29031914
0.050690025 0.12034107 0.29021278
-0.082016349 0.13046421 0.31308511
-0.081349909 0.13041988 0.31297871
-0.080656469 0.13033122 0.31276596
-0.079936676 0.13019823 0.3124468
-0.079272188 0.13015391 0.31234044
-0.078661695 0.13019823 0.3124468
-0.078050777 0.13024256 0.3125532
-0.018675931 0.1254992 0.3011702
-0.018067829 0.12554355 0.30127659
-0.017465457 0.1256322 0.30148935
-0.016874108 0.12580952 0.3019149
-0.016275294 0.12594251 0.30223405
-0.015680688 0.12611984 0.30265957
-0.015073757 0.1262085 0.30287233
0.046732828 0.12142082 0.29138297
0.047292784 0.12133216 0.29117021
0.04781688 0.12115484 0.29074469
0.04835695 0.12102185 0.29042554
0.04891365 0.12093319 0.29021278
0.049505774 0.12093319 0.29021278
0.050097901 0.12093319 0.29021278
0.050690025 0.12093319 0.29021278
-0.081932746 0.13096936 0.31276596
-0.08132226 0.13101391 0.31287235
-0.080629028 0.13092481 0.31265956
-0.079963893 0.13088027 0.3125532
-0.079380184 0.13096936 0.31276596
-0.078822397 0.13110301 0.31308511
-0.078236736 0.1311921 0.31329787
-0.018656142 0.12598006 0.30085108
-0.01805507 0.12606914 0.30106384
-0.017465457 0.12624733 0.30148935
-0.016874108 0.12642553 0.3019149
-0.016286751 0.12664826 0.30244681
-0.015697224 0.126871 0.30297872
-0.01508964 0.1269601 0.30319148
0.046172012 0.12210444 0.29159576
0.046732828 0.12201533 0.29138297
0.047275502 0.12188169 0.29106382
0.047799382 0.1217035 0.2906383
0.048321526 0.12152532 0.29021278
0.048877787 0.12143622 0.28999999
0.049469475 0.12143622 0.28999999
0.050079532 0.12148076 0.29010639
0.05067144 0.12148076 0.29010639
-0.081821278 0.13142845 0.31234044
-0.081211649 0.1314732 0.3124468
-0.080574162 0.1314732 0.3124468
-0.079963893 0.13151798 0.3125532
-0.079488188 0.13178657 0.3131915
-0.07903666 0.13209991 0.31393617
-0.078528963 0.13232373 0.31446809
-0.018636351 0.1264596 0.30053192
-0.018035932 0.12654912 0.30074468
-0.017453132 0.12677294 0.30127659
-0.016880054 0.12708628 0.30202127
-0.016303938 0.12739964 0.30276597
-0.015719268 0.12766822 0.30340424
-0.015116114 0.12780252 0.30372339
0.046749894 0.12265461 0.29148936
0.047292784 0.12252031 0.29117021
0.047799382 0.1222965 0.2906383
0.048303809 0.12207267 0.29010639
0.048841927 0.12193838 0.28978723
0.049433183 0.12193838 0.28978723
0.050042804 0.12198315 0.28989363
0.051098812 0.12310226 0.29255319
-0.081765532 0.13197576 0.31212765
-0.081128694 0.13197576 0.31212765
-0.080491856 0.13197576 0.31212765
-0.079936676 0.1321107 0.3124468
-0.079515181 0.13247055 0.31329787
-0.07917057 0.13296534 0.31446809
-0.07876806 0.13337019 0.31542554
-0.018609961 0.12689283 0.30010638
-0.018016791 0.12702778 0.30042553
-0.017440807 0.12729768 0.30106384
-0.016874108 0.12765753 0.3019149
-0.016315395 0.12810734 0.30297872
-0.015741317 0.1284672 0.30382979
-0.015142587 0.12864712 0.30425531
0.046784017 0.1233393 0.29170212
0.047327343 0.12320435 0.29138297
0.04781688 0.12293448 0.29074469
0.048321526 0.12270956 0.29021278
0.048859857 0.12257462 0.28989363
0.049433183 0.12252963 0.28978723
0.050042804 0.12257462 0.28989363
0.051470444 0.12459879 0.29468086
-0.081737667 0.13256739 0.31202129
-0.081101052 0.13256739 0.31202129
-0.08046443 0.13256739 0.31202129
-0.079882242 0.1326578 0.31223404
-0.079461187 0.13301937 0.31308511
-0.079117008 0.13351656 0.31425533
-0.078741491 0.13396855 0.31531915
-0.018590171 0.12736955 0.29978722
-0.01799765 0.12750515 0.30010638
-0.017428482 0.12782155 0.30085108
-0.016868161 0.12822832 0.30180851
-0.016309666 0.1286803 0.30287233
-0.015741317 0.12908711 0.30382979
-0.015147882 0.1293131 0.3043617
0.046801079 0.12397967 0.29180852
0.047344621 0.12384407 0.29148936
0.047834374 0.12357287 0.29085106
0.048321526 0.12330169 0.29021278
0.048859857 0.12316609 0.28989363
0.049451333 0.12316609 0.28989363
0.050061166 0.12321129 0.28999999
-0.081626192 0.13302235 0.31159574
-0.081018098 0.13306777 0.31170213
-0.08043699 0.13315859 0.31191489
-0.079855017 0.13324942 0.31212765
-0.079353184 0.1334765 0.31265956
-0.078956306 0.13388525 0.31361702
-0.078555532 0.13429399 0.31457448
-0.07801909 0.13447565 0.315
-0.018590171 0.12798122 0.29978722
-0.01799765 0.12811746 0.30010638
-0.017416155 0.12834454 0.30063829
-0.016844379 0.12866245 0.30138299
-0.016286751 0.12911661 0.30244681
-0.015719268 0.12952535 0.30340424
-0.015126704 0.12975243 0.30393618
0.046732828 0.12439338 0.29138297
0.047292784 0.12430255 0.29117021
0.047781885 0.12403005 0.2905319
0.048286095 0.12380297 0.28999999
0.048841927 0.12371214 0.28978723
0.049433183 0.12371214 0.28978723
0.050042804 0.12375757 0.28989363
-0.081319638 0.13315614 0.31042552
-0.080879837 0.13347557 0.31117022
-0.080409557 0.13374937 0.3118085
-0.079855017 0.13388626 0.31212765
-0.079299182 0.13402316 0.3124468
-0.078768827 0.1342057 0.31287235
-0.078289866 0.13447949 0.31351063
-0.018603366 0.12868415 0.30000001
-0.01799765 0.12872978 0.30010638
-0.01740383 0.12886667 0.30042553
-0.016820597 0.12909484 0.30095744
-0.01624665 0.12941428 0.30170214
-0.015669664 0.1297337 0.30244681
-0.015073757 0.12991622 0.30287233
0.046630461 0.12471411 0.29074469
0.047189109 0.12462283 0.2905319
0.047694404 0.12439466 0.28999999
0.048215244 0.12421214 0.28957447
0.048788134 0.1241665 0.28946808
0.049396891 0.12421214 0.28957447
0.050006073 0.12425777 0.28968084
0.051098812 0.12548985 0.29255319
-0.081559815 0.13314761 0.30893618
-0.081096694 0.1334227 0.30957446
-0.080741584 0.13388121 0.31063831
-0.080327258 0.134248 0.31148937
-0.079855017 0.13452309 0.31212765
-0.079245187 0.13456896 0.31223404
-0.078634918 0.13461481 0.31234044
-0.078024209 0.13466065 0.3124468
-0.018596768 0.12925039 0.29989362
-0.017984891 0.12925039 0.29989362
-0.017379178 0.12929624 0.30000001
-0.016784921 0.12943378 0.30031914
-0.016195092 0.12961718 0.30074468
-0.015609036 0.12984642 0.30127659
-0.015004927 0.12993813 0.30148935
0.04656221 0.1251239 0.29031914
0.047119994 0.12503222 0.29010639
0.047624424 0.12480296 0.28957447
0.048144389 0.12461956 0.28914893
0.048716418 0.12457372 0.28904256
0.049306154 0.12457372 0.28904256
0.049914252 0.12461956 0.28914893
0.05063428 0.12494051 0.28989363
-0.081587896 0.13382401 0.30904254
-0.081013098 0.13391614 0.30925533
-0.080603331 0.13428468 0.3101064
-0.080217518 0.13469927 0.31106383
-0.079746157 0.13497567 0.31170213
-0.079164185 0.13506781 0.31191489
-0.078474216 0.13497567 0.31170213
-0.077785119 0.13488355 0.31148937
-0.018590171 0.12981619 0.29978722
-0.017972132 0.12977013 0.29968086
-0.017360689 0.12977013 0.29968086
-0.016749248 0.12977013 0.29968086
-0.016143532 0.12981619 0.29978722
-0.015542897 0.12990834 0.30000001
-0.014936097 0.1299544 0.30010638
0.046698708 0.12608479 0.29117021
0.047119994 0.12562412 0.29010639
0.047589432 0.12530166 0.28936172
0.048091251 0.12507132 0.28882977
0.048644692 0.12497918 0.28861701
0.049233563 0.12497918 0.28861701
0.049822431 0.12497918 0.28861701
0.050374139 0.12488705 0.28840426
-0.082416564 0.13477854 0.30978724
-0.081700243 0.13463968 0.30946809
-0.081040964 0.1345934 0.3093617
-0.08049272 0.13473225 0.30968085
-0.080025479 0.13500996 0.31031916
-0.079555638 0.13528766 0.31095746
-0.078975186 0.13538022 0.31117022
-0.078313515 0.13533394 0.31106383
-0.077678852 0.13533394 0.31106383
-0.077149577 0.13551909 0.31148937
-0.018596768 0.13047414 0.29989362
-0.017978512 0.13042785 0.29978722
-0.017354526 0.13033529 0.29957446
-0.016731409 0.13024272 0.29936171
-0.016109161 0.13015015 0.29914895
-0.015493291 0.13010387 0.29904255
-0.014877856 0.13005757 0.29893616
0.046954636 0.12737311 0.29276595
0.047189109 0.12640116 0.2905319
0.047589432 0.12589204 0.28936172
0.048073538 0.12561435 0.28872341
0.048626766 0.12552178 0.28851065
0.049197268 0.12547548 0.28840426
0.049767338 0.1254292 0.28829786
0.050299812 0.12529035 0.28797871
0.050868582 0.12524407 0.28787234
-0.083162703 0.1355966 0.31021276
-0.082473166 0.13550361 0.31
-0.081756413 0.1353641 0.30968085
-0.081040964 0.1352246 0.3093617
-0.080354467 0.1351316 0.30914894
-0.079806007 0.1352711 0.30946809
-0.079283461 0.1354571 0.30989361
-0.078732185 0.1355966 0.31021276
-0.078152813 0.1356896 0.31042552
-0.077599153 0.13582911 0.31074467
-0.077175923 0.13620111 0.31159574
-0.076827623 0.13671263 0.31276596
-0.018623155 0.13127202 0.30031914
-0.018004032 0.13122553 0.30021277
-0.017366851 0.13103952 0.29978722
-0.016731409 0.13085352 0.29936171
-0.016097702 0.13066751 0.29893616
-0.015465734 0.13048151 0.29851064
-0.014835499 0.1302955 0.29808509
0.04726693 0.13048151 0.29851064
0.047210567 0.12866797 0.29436171
0.047292784 0.12727293 0.29117021
0.047606926 0.12652892 0.28946808
0.048055824 0.12615691 0.28861701
0.048608836 0.12606391 0.28840426
0.049179118 0.12601741 0.28829786
0.049767338 0.12601741 0.28829786
0.050336976 0.12597091 0.2881915
0.050924979 0.12597091 0.2881915
-0.083335847 0.13548204 0.30851063
-0.082877509 0.13576235 0.30914894
-0.082359955 0.13594922 0.30957446
-0.081672154 0.13585579 0.3093617
-0.080957353 0.13571563 0.30904254
-0.080216207 0.13552876 0.30861703
-0.079586536 0.13552876 0.30861703
-0.079011291 0.1356222 0.30882978
-0.078489184 0.13580908 0.30925533
-0.077965334 0.13599594 0.30968085
-0.077519454 0.13632296 0.31042552
-0.077228621 0.1369303 0.3118085
-0.076932155 0.13753764 0.3131915
-0.018649545 0.13207163 0.30074468
-0.01802955 0.13202491 0.30063829
-0.017397666 0.13188475 0.30031914
-0.016755192 0.13165116 0.29978722
-0.016114889 0.13141759 0.29925531
-0.015465734 0.13109057 0.29851064
-0.014830206 0.13085698 0.29797873
0.047688052 0.1322585 0.3011702
0.047432374 0.1298759 0.29574469
0.047361903 0.1280539 0.29159576
0.047606926 0.12711953 0.28946808
0.048055824 0.12674579 0.28861701
0.048590902 0.12660563 0.28829786
0.049179118 0.12660563 0.28829786
0.049804069 0.12669908 0.28851065
0.050429884 0.12679251 0.28872341
0.051112961 0.1270261 0.28925532
-0.083531 0.13540748 0.3069149
-0.082962275 0.13550134 0.30712765
-0.082478233 0.13573602 0.30765957
-0.082020327 0.13601764 0.30829787
-0.081447475 0.1361115 0.30851063
-0.080790147 0.13606457 0.30840427
-0.080077954 0.13592377 0.30808511
-0.079394497 0.1358299 0.30787235
-0.078793555 0.13587683 0.30797872
-0.078273185 0.13606457 0.30840427
-0.077777855 0.13629925 0.30893618
-0.077386625 0.13672166 0.30989361
-0.077096879 0.13733181 0.31127658
-0.076879889 0.13808277 0.31297871
-0.018616559 0.13245058 0.30021277
-0.018023172 0.13259138 0.30053192
-0.01740383 0.13254444 0.30042553
-0.01677303 0.13240364 0.30010638
-0.016137805 0.1322159 0.29968086
-0.015493291 0.13193429 0.29904255
-0.014851383 0.13165267 0.29840425
-0.014237469 0.13160574 0.29829788
0.047534749 0.13076092 0.29638299
0.047396459 0.12874271 0.29180852
0.047606926 0.12771013 0.28946808
0.0480204 0.12724079 0.28840426
0.048572976 0.12714693 0.2881915
0.049179118 0.12719385 0.28829786
0.049822431 0.12733465 0.28861701
0.050504208 0.12756933 0.28914893
0.051244549 0.12794481 0.28999999
0.051969349 0.12827337 0.29074469
-0.083415188 0.13584507 0.30648935
-0.082732379 0.13575077 0.30627659
-0.082164519 0.13584507 0.30648935
-0.081708997 0.13612798 0.30712765
-0.081222787 0.13636374 0.30765957
-0.080650806 0.13645805 0.30787235
-0.079994999 0.13641089 0.30776596
-0.07931219 0.1363166 0.3075532
-0.078684688 0.1363166 0.3075532
-0.078138188 0.13645805 0.30787235
-0.077617161 0.13664666 0.30829787
-0.077174097 0.13697672 0.30904254
-0.076859742 0.13754255 0.31031916
-0.019113248 0.13226151 0.29840425
-0.018557187 0.13263872 0.29925531
-0.017984891 0.13292165 0.29989362
-0.017385339 0.13301595 0.30010638
-0.016767085 0.1329688 0.30000001
-0.016143532 0.13287449 0.29978722
-0.015509827 0.13268588 0.29936171
-0.014883151 0.13254443 0.29904255
-0.014267933 0.13249727 0.29893616
-0.01365315 0.13245013 0.29882979
0.047500622 0.13127132 0.2961702
0.047379181 0.12929094 0.29170212
0.047589432 0.12825359 0.28936172
0.048002683 0.12778206 0.28829786
0.048555043 0.12768777 0.2880851
0.049142826 0.12768777 0.2880851
0.049804069 0.12787639 0.28851065
0.050504208 0.12815928 0.28914893
0.051244549 0.12853651 0.28999999
0.051969349 0.12886657 0.29074469
0.052735649 0.12929094 0.29170212
-0.1861009 0.14082837 0.31627661
-0.18539321 0.140781 0.31617022
-0.18468596 0.14073363 0.31606382
-0.08321251 0.13613883 0.30574468
-0.082473755 0.13594936 0.30531916
-0.081907846 0.13604409 0.30553192
-0.081482582 0.13637567 0.30627659
-0.081082359 0.13675462 0.30712765
-0.080595069 0.13699147 0.30765957
-0.079994999 0.13703884 0.30776596
-0.079367064 0.13703884 0.30776596
-0.078711905 0.13699147 0.30765957
-0.078111187 0.13703884 0.30776596
-0.077510029 0.13708621 0.30787235
-0.076988138 0.13727568 0.30829787
-0.019644745 0.13234928 0.29723403
-0.019072367 0.13258615 0.29776597
-0.018511008 0.13291773 0.29851064
-0.017940233 0.13320194 0.29914895
-0.017342201 0.13329668 0.29936171
-0.016737355 0.13334404 0.29946807
-0.016126346 0.13334404 0.29946807
-0.015509827 0.13329668 0.29936171
-0.014899035 0.13329668 0.29936171
-0.014278089 0.13320194 0.29914895
-0.013658009 0.1331072 0.29893616
0.047398251 0.13159139 0.29553193
0.047361903 0.12983873 0.29159576
