# .PCD v0.7 - Point Cloud Data file format
VERSION 0.7
FIELDS x y z
SIZE 4 4 4
TYPE F F F
COUNT 1 1 1
WIDTH 1392
HEIGHT 1
VIEWPOINT 0 0 0 1 0 0 0
POINTS 1392
DATA ascii
-0.028990904 0.07337971 0.19627659
-0.028621433 0.07345926 0.19648936
-0.02828165 0.073618345 0.1969149
-0.027955191 0.073817208 0.19744681
-0.027596874 0.073936522 0.19776596
-0.026371587 0.095890783 0.25648937
-0.025848269 0.095890783 0.25648937
-0.025314445 0.095851004 0.25638297
-0.024781059 0.09581124 0.25627661
-0.024258174 0.09581124 0.25627661
-0.023754995 0.095890783 0.25648937
-0.023250947 0.095970325 0.25670213
-0.022746032 0.096049868 0.25691488
0.017665077 0.11724845 0.31361702
0.018273907 0.11704959 0.31308511
0.018861288 0.11673141 0.31223404
0.01943191 0.11633369 0.31117022
0.019991329 0.1158962 0.31
0.020581361 0.11565756 0.3093617
0.019657699 0.098396428 0.26319149
0.020145714 0.098157793 0.26255319
0.020631125 0.097919159 0.26191488
0.021131126 0.097760074 0.26148936
0.021655831 0.097720295 0.26138297
0.022198167 0.097760074 0.26148936
0.022722438 0.097720295 0.26138297
0.023227349 0.097600989 0.26106384
0.02372127 0.097441897 0.2606383
0.024223356 0.097322576 0.26031914
-0.15244976 0.099813186 0.26553193
-0.15215142 0.099973142 0.26595744
-0.15203328 0.10025306 0.26670212
-0.15185168 0.100493 0.26734042
-0.15154707 0.10065296 0.26776597
-0.15106073 0.10069294 0.26787233
-0.15051419 0.10069294 0.26787233
-0.1499081 0.10065296 0.26776597
-0.14918375 0.10053299 0.26744682
-0.14834246 0.10033305 0.2669149
-0.14750333 0.10013311 0.26638299
-0.14672506 0.099973142 0.26595744
-0.146007 0.099853173 0.26563829
-0.14517374 0.099653229 0.26510638
-0.14445871 0.09953326 0.26478723
-0.031863093 0.073940136 0.19670212
-0.03142773 0.073860161 0.19648936
-0.030942839 0.07366021 0.19595745
-0.030509859 0.073580228 0.19574468
-0.03011048 0.073580228 0.19574468
-0.029743396 0.07366021 0.19595745
-0.02935951 0.073700197 0.19606383
-0.028975192 0.073740192 0.19617021
-0.028590439 0.073780179 0.19627659
-0.028220532 0.073860161 0.19648936
-0.027864819 0.07398013 0.19680852
-0.027492957 0.074060105 0.19702128
-0.026338773 0.096294127 0.25617021
-0.025816105 0.096294127 0.25617021
-0.025293438 0.096294127 0.25617021
-0.024760483 0.09625414 0.25606382
-0.024238033 0.09625414 0.25606382
-0.023725437 0.096294127 0.25617021
-0.023212405 0.096334122 0.25627661
-0.022689521 0.096334122 0.25627661
0.017665077 0.11788833 0.31361702
0.018273907 0.11768838 0.31308511
0.01885486 0.11732847 0.31212765
0.019411979 0.11684861 0.31085107
0.019963887 0.11636873 0.30957446
0.020553051 0.1161288 0.30893618
0.019151619 0.09909337 0.26361701
0.019657699 0.098933421 0.26319149
0.020137552 0.098653503 0.26244682
0.020631125 0.098453544 0.26191488
0.021139724 0.09833359 0.26159576
0.021664647 0.098293595 0.26148936
0.022189135 0.0982536 0.26138297
0.022703942 0.098173626 0.26117021
0.023198953 0.098013669 0.26074469
0.023682542 0.097813725 0.26021278
0.024183759 0.097693756 0.25989363
-0.15244976 0.10035495 0.26553193
-0.15221229 0.10055599 0.26606384
-0.15209393 0.10083743 0.26680851
-0.15191212 0.10107867 0.26744682
-0.15160728 0.10123949 0.26787233
-0.15112074 0.1012797 0.26797873
-0.15069352 0.10136011 0.26819149
-0.1502059 0.10140032 0.26829788
-0.14953978 0.1013199 0.26808509
-0.14863807 0.10107867 0.26744682
-0.14768003 0.10079722 0.26670212
-0.14678375 0.10055599 0.26606384
-0.031863093 0.074341469 0.19670212
-0.03142773 0.074261054 0.19648936
-0.030959636 0.074100234 0.19606383
-0.030509859 0.073979609 0.19574468
-0.03011048 0.073979609 0.19574468
-0.029727247 0.074019819 0.19585106
-0.029343581 0.07406003 0.19595745
-0.028959479 0.074100234 0.19606383
-0.028574944 0.074140437 0.19617021
-0.028189974 0.07418064 0.19627659
-0.027819633 0.074261054 0.19648936
-0.026273144 0.096575558 0.25553191
-0.025773223 0.09665598 0.2557447
-0.025261926 0.096696176 0.25585106
-0.02473991 0.096696176 0.25585106
-0.024227964 0.096736386 0.25595745
-0.023705732 0.096736386 0.25595745
-0.023173861 0.096696176 0.25585106
-0.022651846 0.096696176 0.25585106
0.017019425 0.11848799 0.31351063
0.017647101 0.11840758 0.31329787
0.018255278 0.11820655 0.31276596
0.018835582 0.11784469 0.3118085
0.019398693 0.11740243 0.31063831
0.019950166 0.11691995 0.3093617
0.020538894 0.11667871 0.30872339
0.019136162 0.099550821 0.26340425
0.019641807 0.099390008 0.26297873
0.02012939 0.099148765 0.26234043
0.020622747 0.098947734 0.26180851
0.021131126 0.098827116 0.26148936
0.021664647 0.098827116 0.26148936
0.022189135 0.098786905 0.26138297
0.022703942 0.098706491 0.26117021
0.023198953 0.098545671 0.26074469
0.023692222 0.098384842 0.26031914
0.024193658 0.098264217 0.25999999
-0.15238866 0.1008563 0.26542553
-0.15215142 0.10105842 0.26595744
-0.15209393 0.1013818 0.26680851
-0.15191212 0.10162435 0.26744682
-0.15160728 0.10178603 0.26787233
-0.15118071 0.10186688 0.26808509
-0.15087284 0.10202858 0.26851064
-0.15044412 0.10210942 0.2687234
-0.14989583 0.10210942 0.2687234
-0.14911106 0.10194773 0.26829788
-0.14821021 0.10170519 0.26765957
-0.031845864 0.074702382 0.19659574
-0.031393699 0.074581109 0.19627659
-0.030942839 0.074459843 0.19595745
-0.03049328 0.07433857 0.1956383
-0.030094117 0.07433857 0.1956383
-0.029694952 0.07433857 0.1956383
-0.02932765 0.074419416 0.19585106
-0.028943766 0.074459843 0.19595745
-0.028574944 0.074540682 0.19617021
-0.028189974 0.074581109 0.19627659
-0.027804572 0.074621536 0.19638298
-0.026218453 0.096894808 0.255
-0.025730338 0.097016074 0.25531915
-0.025230413 0.09709692 0.25553191
-0.024729624 0.097177774 0.2557447
-0.024217894 0.097218193 0.25585106
-0.023695877 0.097218193 0.25585106
-0.023164228 0.097177774 0.2557447
-0.022633009 0.097137347 0.2556383
0.016973224 0.11880427 0.31265956
0.017605156 0.11876385 0.3125532
0.018224234 0.11864258 0.31223404
0.01882273 0.11840004 0.31159574
0.019392049 0.11799581 0.31053191
0.019963887 0.11763199 0.30957446
0.020553051 0.11738946 0.30893618
0.019112976 0.099966981 0.2630851
0.019625915 0.099845707 0.26276594
0.020121226 0.099643596 0.26223403
0.020614367 0.099441476 0.26170212
0.021131126 0.09936063 0.26148936
0.021664647 0.09936063 0.26148936
0.022207199 0.099401064 0.26159576
0.022731688 0.09936063 0.26148936
0.023236811 0.099239364 0.26117021
0.023740634 0.099118091 0.26085106
0.024253054 0.099037245 0.2606383
-0.15226652 0.10131657 0.26521277
-0.15202971 0.10151977 0.26574469
-0.15197265 0.10184489 0.26659575
-0.15185168 0.10212938 0.26734042
-0.15154707 0.10229194 0.26776597
-0.15124071 0.1024545 0.26819149
-0.15099239 0.1026577 0.2687234
-0.15068236 0.10282027 0.26914895
-0.15025188 0.10290155 0.2693617
-0.14958405 0.10282027 0.26914895
-0.148976 0.10277962 0.26904255
-0.031759698 0.074900292 0.19606383
-0.031325635 0.074819013 0.19585106
-0.030875646 0.074697092 0.19553192
-0.030443534 0.074615814 0.19531915
-0.030045023 0.074615814 0.19531915
-0.02964651 0.074615814 0.19531915
-0.02927986 0.074697092 0.19553192
-0.028912339 0.074778371 0.19574468
-0.028543953 0.074859656 0.19595745
-0.028189974 0.07498157 0.19627659
-0.027804572 0.075022221 0.19638298
-0.026694115 0.097252533 0.25457448
-0.026185639 0.097293161 0.25468084
-0.025687454 0.097374454 0.25489363
-0.025209406 0.097537011 0.25531915
-0.024719337 0.097658932 0.2556383
-0.024207825 0.097699575 0.2557447
-0.023686027 0.097699575 0.2557447
-0.023144955 0.097618289 0.25553191
-0.022614172 0.097577654 0.25542554
0.016932797 0.11915771 0.31191489
0.017569201 0.11915771 0.31191489
0.018193187 0.11907643 0.31170213
0.018803449 0.11891387 0.31127658
0.019392049 0.11862939 0.31053191
0.019970747 0.11830426 0.30968085
0.020574285 0.1181417 0.30925533
0.01909752 0.10042248 0.26287234
0.019617971 0.1003412 0.26265958
0.020113064 0.100138 0.26212767
0.020614367 0.099975429 0.26170212
0.02112253 0.099853508 0.26138297
0.021664647 0.099894151 0.26148936
0.022216229 0.099975429 0.26170212
0.022750182 0.099975429 0.26170212
0.023284137 0.099975429 0.26170212
0.02380841 0.099934794 0.26159576
0.024332248 0.099894151 0.26148936
-0.15220544 0.10181683 0.26510638
-0.15190798 0.10198026 0.26553193
-0.15185137 0.10230712 0.26638299
-0.15167041 0.10255226 0.26702127
-0.15148686 0.1027974 0.26765957
-0.15124071 0.10300169 0.26819149
-0.15099239 0.10320598 0.2687234
-0.1507419 0.10341027 0.26925531
-0.15037057 0.10353284 0.26957446
-0.14987968 0.1035737 0.26968086
-0.14932944 0.1035737 0.26968086
-0.031708002 0.075177751 0.19574468
-0.031257574 0.075055182 0.19542553
-0.030825248 0.074973464 0.19521277
-0.030393789 0.074891746 0.19499999
-0.029995928 0.074891746 0.19499999
-0.029598068 0.074891746 0.19499999
-0.029216139 0.074932612 0.19510639
-0.028849486 0.075014323 0.19531915
-0.028497463 0.0751369 0.1956383
-0.028144138 0.075259469 0.19595745
-0.027774446 0.07534118 0.19617021
-0.026682958 0.097731076 0.25446808
-0.026163764 0.097731076 0.25446808
-0.025666011 0.097812794 0.25468084
-0.025177894 0.097935364 0.255
-0.024688475 0.098057941 0.25531915
-0.024187684 0.098139651 0.25553191
-0.023656467 0.0980988 0.25542554
-0.023106413 0.09797623 0.25510639
-0.022576496 0.097935364 0.255
0.016915472 0.11967154 0.31159574
0.017545233 0.11963069 0.31148937
0.018174559 0.11958983 0.31138298
0.018790599 0.11946726 0.31106383
0.019392049 0.11926297 0.31053191
0.019984467 0.11901782 0.30989361
0.019082062 0.10087711 0.26265958
0.019602079 0.1007954 0.26244682
0.0201049 0.10063196 0.26202127
0.020605987 0.10046853 0.26159576
0.02112253 0.10038681 0.26138297
0.021655831 0.10038681 0.26138297
0.022216229 0.10050938 0.26170212
0.022777926 0.10063196 0.26202127
0.023321999 0.10067282 0.26212767
0.023856821 0.10067282 0.26212767
-0.15226652 0.10239881 0.26521277
-0.15190798 0.10252203 0.26553193
-0.15173006 0.10276847 0.2661702
-0.15154956 0.10301492 0.26680851
-0.15136644 0.10326137 0.26744682
-0.15112074 0.10346674 0.26797873
-0.15081306 0.10363103 0.26840425
-0.15056323 0.1038364 0.26893616
-0.15025188 0.10400071 0.2693617
-0.14987968 0.10412394 0.26968086
-0.032107383 0.075577132 0.19574468
-0.031690769 0.075536057 0.1956383
-0.031223543 0.075371765 0.19521277
-0.030774852 0.075248539 0.19489361
-0.030344047 0.075166389 0.19468085
-0.029946838 0.075166389 0.19468085
-0.029549627 0.075166389 0.19468085
-0.029168347 0.075207464 0.19478723
-0.028802346 0.075289607 0.19499999
-0.028466469 0.075453907 0.19542553
-0.0280983 0.075536057 0.1956383
-0.02772926 0.075618207 0.19585106
-0.026682958 0.09825027 0.25446808
-0.026163764 0.09825027 0.25446808
-0.025644569 0.09825027 0.25446808
-0.025146382 0.09833242 0.25468084
-0.024647329 0.098414578 0.25489363
-0.024147406 0.09849672 0.25510639
-0.023617055 0.098455645 0.255
-0.023077505 0.098373495 0.25478724
-0.022538822 0.098291352 0.25457448
0.016903922 0.12022515 0.31138298
0.01753924 0.12022515 0.31138298
0.018168349 0.12018407 0.31127658
0.018784173 0.12006085 0.31095746
0.019385405 0.11985547 0.31042552
0.019991329 0.11969118 0.31
0.019058876 0.10128979 0.26234043
0.019586187 0.10124871 0.26223403
0.020088576 0.10108442 0.26180851
0.020597607 0.10096119 0.26148936
0.021113934 0.10087904 0.2612766
0.021647019 0.10087904 0.2612766
0.022198167 0.10096119 0.26148936
0.022768678 0.10112549 0.26191488
0.023340927 0.10128979 0.26234043
0.023885868 0.10133087 0.26244682
-0.15232758 0.10298121 0.26531914
-0.15196884 0.10310508 0.26563829
-0.15173006 0.10331154 0.2661702
-0.15148912 0.10351799 0.26670212
-0.15124603 0.10372446 0.26723406
-0.15094075 0.10388962 0.26765957
-0.15063374 0.10405479 0.26808509
-0.15026544 0.10417866 0.26840425
-0.15001452 0.10438512 0.26893616
-0.14964317 0.104509 0.26925531
-0.032142282 0.076059103 0.19595745
-0.031708002 0.075976513 0.19574468
-0.031223543 0.075770058 0.19521277
-0.030758055 0.075604893 0.19478723
-0.030327465 0.075522311 0.19457448
-0.029914107 0.075481012 0.19446808
-0.029517332 0.075481012 0.19446808
-0.029136488 0.075522311 0.19457448
-0.028786633 0.075646177 0.19489361
-0.028419983 0.075728767 0.19510639
-0.02806774 0.07585264 0.19542553
-0.026682958 0.098769471 0.25446808
-0.026152825 0.098728172 0.25436169
-0.025623128 0.098686889 0.25425532
-0.025104368 0.098686889 0.25425532
-0.024595892 0.098728172 0.25436169
-0.024086986 0.098769471 0.25446808
-0.023577645 0.098810762 0.25457448
-0.023048598 0.098769471 0.25446808
-0.022519983 0.098728172 0.25436169
0.016880821 0.12069531 0.31095746
0.017521264 0.12073659 0.31106383
0.018155931 0.12073659 0.31106383
0.018771319 0.12061271 0.31074467
0.019378763 0.12044755 0.31031916
0.019950166 0.12007593 0.3093617
0.01908979 0.10199021 0.26276594
0.019554405 0.10161859 0.26180851
0.020064088 0.10149471 0.26148936
0.020572467 0.10137083 0.26117021
0.021079546 0.10124696 0.26085106
0.021611763 0.10124696 0.26085106
0.022162044 0.10132955 0.26106384
0.022731688 0.10149471 0.26148936
0.023312533 0.10170117 0.26202127
0.023876185 0.10182504 0.26234043
-0.15232758 0.10352254 0.26531914
-0.15196884 0.10364707 0.26563829
-0.15173006 0.10385461 0.2661702
-0.15148912 0.10406215 0.26670212
-0.15118581 0.10422819 0.26712766
-0.15082078 0.10435272 0.26744682
-0.15045443 0.10447725 0.26776597
-0.15008676 0.10460176 0.26808509
-0.14971781 0.10472629 0.26840425
-0.032142282 0.076458916 0.19595745
-0.031708002 0.076375894 0.19574468
-0.031240558 0.076209858 0.19531915
-0.030774852 0.076043822 0.19489361
-0.030327465 0.0759193 0.19457448
-0.029897744 0.075836278 0.1943617
-0.029501185 0.075836278 0.1943617
-0.029136488 0.0759193 0.19457448
-0.02877092 0.076002315 0.19478723
-0.028404485 0.076085329 0.19499999
-0.028021904 0.076126844 0.19510639
-0.026682958 0.099288665 0.25446808
-0.026152825 0.09924715 0.25436169
-0.025601687 0.099122636 0.25404257
-0.025062351 0.099039607 0.25382978
-0.024554746 0.099081121 0.25393617
-0.024046708 0.099122636 0.25404257
-0.023548087 0.09920565 0.25425532
-0.023038961 0.09924715 0.25436169
0.016846171 0.1210807 0.31031916
0.017491302 0.12116372 0.31053191
0.018124884 0.12116372 0.31053191
0.018745614 0.1210807 0.31031916
0.019345546 0.12087316 0.30978724
0.019881561 0.12029203 0.30829787
0.019128434 0.10273389 0.26329789
0.01952262 0.10198672 0.26138297
0.020031437 0.10186221 0.26106384
0.020538948 0.10173768 0.26074469
0.02104516 0.10161315 0.26042554
0.021567693 0.10157163 0.26031914
0.022107858 0.10161315 0.26042554
0.022685448 0.10182069 0.26095745
0.023274673 0.10206974 0.26159576
0.023847139 0.10223577 0.26202127
-0.15220544 0.10398042 0.26510638
-0.15196884 0.10418905 0.26563829
-0.15173006 0.10439768 0.2661702
-0.15148912 0.10460631 0.26670212
-0.15118581 0.10477322 0.26712766
-0.15082078 0.10489839 0.26744682
-0.15033486 0.10494012 0.26755318
-0.14984854 0.10498184 0.26765957
-0.14936177 0.10502357 0.26776597
-0.032072484 0.076691829 0.19553192
-0.031673536 0.076691829 0.19553192
-0.031223543 0.076566644 0.19521277
-0.030774852 0.076441467 0.19489361
-0.030344047 0.07635802 0.19468085
-0.029914107 0.076274566 0.19446808
-0.029533481 0.076316297 0.19457448
-0.029152418 0.07635802 0.19468085
-0.02877092 0.076399744 0.19478723
-0.028373493 0.076399744 0.19478723
-0.027991345 0.076441467 0.19489361
-0.026671803 0.099766128 0.25436169
-0.02613095 0.099682681 0.25414893
-0.025590966 0.099599227 0.25393617
-0.025051849 0.099515781 0.25372341
-0.024534173 0.099515781 0.25372341
-0.024026567 0.099557497 0.25382978
-0.023538234 0.099682681 0.25414893
-0.023029327 0.099724405 0.25425532
0.016185232 0.12150522 0.30978724
0.016823068 0.12154694 0.30989361
0.017455349 0.12154694 0.30989361
0.018087627 0.12154694 0.30989361
0.018713484 0.12150522 0.30978724
0.019318972 0.12133832 0.3093617
0.019812958 0.12050381 0.30723405
0.019159349 0.10343799 0.2637234
0.01950673 0.10243657 0.26117021
0.019998785 0.10222795 0.2606383
0.020505428 0.10210277 0.26031914
0.021019368 0.10201932 0.26010638
0.021532439 0.10193587 0.25989363
0.022071732 0.10197759 0.25999999
0.022648454 0.10218622 0.2605319
0.023246277 0.1024783 0.2612766
0.023847139 0.10277038 0.26202127
-0.15250117 0.10435356 0.26468086
-0.15214434 0.10447938 0.26499999
-0.15190798 0.1046891 0.26553193
-0.15173006 0.10494075 0.2661702
-0.15148912 0.10515046 0.26670212
-0.15118581 0.10531824 0.26712766
-0.15076077 0.10540212 0.26734042
-0.1502751 0.10544407 0.26744682
-0.14966986 0.10540212 0.26734042
-0.1491244 0.10540212 0.26734042
-0.031967785 0.076839112 0.19489361
-0.031587373 0.076881051 0.19499999
-0.031172495 0.076839112 0.19489361
-0.030758055 0.076797172 0.19478723
-0.030344047 0.076755226 0.19468085
-0.029946838 0.076755226 0.19468085
-0.029549627 0.076755226 0.19468085
-0.029152418 0.076755226 0.19468085
-0.028755208 0.076755226 0.19468085
-0.028357998 0.076755226 0.19468085
-0.027960788 0.076755226 0.19468085
-0.026649492 0.10020122 0.25414893
-0.026120013 0.10015929 0.25404257
-0.025580242 0.10007539 0.25382978
-0.025051849 0.10003345 0.25372341
-0.024534173 0.10003345 0.25372341
-0.024036637 0.10011734 0.25393617
-0.023538234 0.10020122 0.25414893
-0.02301969 0.10020122 0.25414893
0.016168557 0.12201145 0.30946809
0.016805744 0.12205339 0.30957446
0.017437372 0.12205339 0.30957446
0.018069001 0.12205339 0.30957446
0.018681351 0.12192757 0.30925533
0.019292399 0.12180174 0.30893618
0.019771794 0.12087899 0.30659574
0.019143892 0.10389218 0.26351064
0.019498786 0.10292751 0.26106384
0.019990621 0.10271779 0.2605319
0.02048867 0.10255001 0.26010638
0.021002175 0.10246614 0.25989363
0.021523625 0.10242419 0.25978723
0.022053672 0.10242419 0.25978723
0.022620711 0.10259196 0.26021278
0.023236811 0.10296945 0.26117021
0.023847139 0.10330498 0.26202127
-0.15243986 0.10485142 0.26457447
-0.15208328 0.10497791 0.26489362
-0.15184712 0.10518871 0.26542553
-0.15166943 0.10544167 0.26606384
-0.15136828 0.1056103 0.26648936
-0.15106541 0.10577895 0.2669149
-0.15064079 0.10586327 0.26712766
-0.15009578 0.10586327 0.26712766
-0.14949118 0.1058211 0.26702127
-0.032259427 0.076983802 0.19425532
-0.031880535 0.077025957 0.1943617
-0.031501211 0.077068113 0.19446808
-0.031121451 0.077110283 0.19457448
-0.030724458 0.077110283 0.19457448
-0.030327465 0.077110283 0.19457448
-0.029946838 0.077152438 0.19468085
-0.029549627 0.077152438 0.19468085
-0.029152418 0.077152438 0.19468085
-0.028755208 0.077152438 0.19468085
-0.028342502 0.077110283 0.19457448
-0.027960788 0.077152438 0.19468085
-0.026616028 0.10059328 0.25382978
-0.026098134 0.10059328 0.25382978
-0.025569525 0.10055113 0.25372341
-0.025051849 0.10055113 0.25372341
-0.024554746 0.10063545 0.25393617
-0.024046708 0.10067761 0.25404257
-0.023538234 0.10071976 0.25414893
-0.02301969 0.10071976 0.25414893
0.016174113 0.12268502 0.30957446
0.016811518 0.12272719 0.30968085
0.017443364 0.12272719 0.30968085
0.018069001 0.12268502 0.30957446
0.018674925 0.12251639 0.30914894
0.019272467 0.12230559 0.30861703
0.019785514 0.12158886 0.3068085
0.01909752 0.10417687 0.26287234
0.019498786 0.10346016 0.26106384
0.019982459 0.1032072 0.26042554
0.020480288 0.10303855 0.25999999
0.021002175 0.1029964 0.25989363
0.021523625 0.10295424 0.25978723
0.022053672 0.10295424 0.25978723
0.022611463 0.10308072 0.26010638
0.023217881 0.10341799 0.26095745
0.023827774 0.10375527 0.26180851
-0.15243986 0.10539124 0.26457447
-0.15208328 0.10551837 0.26489362
-0.15184712 0.10573026 0.26542553
-0.15160878 0.10594214 0.26595744
-0.15130787 0.10611165 0.26638299
-0.15094498 0.10623877 0.26670212
-0.15040082 0.10623877 0.26670212
-0.14985666 0.10623877 0.26670212
-0.14925295 0.1061964 0.26659575
-0.032206427 0.077253006 0.19393617
-0.031810738 0.077253006 0.19393617
-0.031432278 0.077295385 0.19404255
-0.031070404 0.077380143 0.19425532
-0.03069086 0.077422515 0.1943617
-0.030310882 0.077464893 0.19446808
-0.029930472 0.077507272 0.19457448
-0.029533481 0.077507272 0.19457448
-0.029152418 0.077549651 0.19468085
-0.028755208 0.077549651 0.19468085
-0.028357998 0.077549651 0.19468085
-0.027960788 0.077549651 0.19468085
-0.026604874 0.1010688 0.25372341
-0.026076259 0.10102642 0.25361702
-0.025558801 0.10102642 0.25361702
-0.025051849 0.1010688 0.25372341
-0.024565035 0.10119594 0.25404257
-0.024066847 0.10128069 0.25425532
-0.023557939 0.10132306 0.25436169
-0.023038961 0.10132306 0.25436169
0.016201906 0.12352854 0.3101064
0.01683462 0.12352854 0.3101064
0.017461341 0.12348616 0.31
0.018075211 0.12335903 0.30968085
0.018668497 0.12310477 0.30904254
0.019252537 0.12280813 0.30829787
0.019806096 0.12234198 0.30712765
0.018681364 0.10539124 0.26457447
0.01904342 0.10441658 0.26212767
0.019490838 0.10395043 0.26095745
0.019966135 0.1036538 0.26021278
0.02047191 0.10352667 0.25989363
0.021002175 0.10352667 0.25989363
0.021523625 0.10348428 0.25978723
0.022053672 0.10348428 0.25978723
0.022602214 0.10356903 0.25999999
0.023180021 0.10378092 0.2605319
0.02376968 0.10403518 0.26117021
-0.15237856 0.10588846 0.26446807
-0.15208328 0.10605884 0.26489362
-0.15184712 0.10627181 0.26542553
-0.15160878 0.10648478 0.26595744
-0.151187 0.10656996 0.2661702
-0.15076436 0.10665516 0.26638299
-0.15022086 0.10665516 0.26638299
-0.14961757 0.10661256 0.2662766
-0.032188762 0.077606104 0.19382979
-0.031793289 0.077606104 0.19382979
-0.031415045 0.077648699 0.19393617
-0.031036371 0.077691294 0.19404255
-0.030674063 0.077776484 0.19425532
-0.030294301 0.077819072 0.1943617
-0.029897744 0.077819072 0.1943617
-0.029517332 0.077861667 0.19446808
-0.029120555 0.077861667 0.19446808
-0.028739495 0.077904269 0.19457448
-0.028357998 0.077946857 0.19468085
-0.027976066 0.077989452 0.19478723
-0.027133919 0.10162907 0.25382978
-0.026604874 0.10158648 0.25372341
-0.026076259 0.10154388 0.25361702
-0.025558801 0.10154388 0.25361702
-0.025062351 0.10162907 0.25382978
-0.024575319 0.10175685 0.25414893
-0.024086986 0.10188463 0.25446808
-0.023577645 0.10192724 0.25457448
0.016235255 0.12441681 0.31074467
0.016863495 0.12437423 0.31063831
0.017485309 0.12428903 0.31042552
0.018087627 0.12407606 0.30989361
0.018668497 0.12373531 0.30904254
0.019245893 0.12339456 0.30819148
0.019847259 0.12322418 0.30776596
0.018508596 0.1049514 0.26212767
0.019012503 0.10478102 0.26170212
0.019482892 0.10444026 0.26085106
0.019957971 0.10414211 0.26010638
0.02046353 0.10401433 0.25978723
0.020984979 0.10397173 0.25968084
0.021514809 0.10397173 0.25968084
0.02203561 0.10392915 0.25957447
0.022574469 0.10397173 0.25968084
0.023132695 0.10409951 0.25999999
0.023682542 0.10418471 0.26021278
-0.15231727 0.10638525 0.26436171
-0.15214434 0.10664211 0.26499999
-0.15190798 0.10685617 0.26553193
-0.15160878 0.10702741 0.26595744
-0.15112658 0.10707023 0.26606384
-0.15058373 0.10707023 0.26606384
-0.15004088 0.10707023 0.26606384
-0.14949802 0.10707023 0.26606384
-0.032224093 0.078087196 0.19404255
-0.031810738 0.078044392 0.19393617
-0.031415045 0.078044392 0.19393617
-0.031036371 0.078087196 0.19404255
-0.030674063 0.078172825 0.19425532
-0.030277722 0.078172825 0.19425532
-0.029881379 0.078172825 0.19425532
-0.029485038 0.078172825 0.19425532
-0.029104626 0.078215636 0.1943617
-0.028739495 0.078301258 0.19457448
-0.028357998 0.078344069 0.19468085
-0.027976066 0.07838688 0.19478723
-0.027156666 0.10223259 0.25404257
-0.026616028 0.10214696 0.25382978
-0.026076259 0.10206134 0.25361702
-0.025558801 0.10206134 0.25361702
-0.025072856 0.10218977 0.25393617
-0.024606181 0.10240383 0.25446808
-0.024127267 0.10257508 0.25489363
-0.023626909 0.1026607 0.25510639
0.016251929 0.12517926 0.31106383
0.016875045 0.12509364 0.31085107
0.017491302 0.12496521 0.31053191
0.018093837 0.12475115 0.31
0.018674925 0.12440867 0.30914894
0.019252537 0.12406618 0.30829787
0.019854121 0.12389494 0.30787235
0.018486062 0.10535779 0.26180851
0.018997047 0.10522936 0.26148936
0.019474948 0.10492968 0.26074469
0.019957971 0.10467281 0.26010638
0.02045515 0.10450156 0.25968084
0.020967785 0.10441595 0.25946808
0.02148837 0.10437314 0.25936171
0.022008516 0.10433032 0.25925532
0.022546727 0.10437314 0.25936171
0.023085371 0.10441595 0.25946808
0.023624448 0.10445876 0.25957447
-0.15273364 0.10683858 0.26414895
-0.15237856 0.10696765 0.26446807
-0.15220544 0.10722583 0.26510638
-0.15196884 0.10744096 0.26563829
-0.15160878 0.10757005 0.26595744
-0.15112658 0.10761308 0.26606384
-0.15052351 0.10757005 0.26595744
-0.14992088 0.10752702 0.26585105
-0.032241762 0.078526139 0.19414894
-0.031810738 0.078440078 0.19393617
-0.031397816 0.07839705 0.19382979
-0.031036371 0.078483105 0.19404255
-0.030657265 0.078526139 0.19414894
-0.030277722 0.078569166 0.19425532
-0.029881379 0.078569166 0.19425532
-0.029485038 0.078569166 0.19425532
-0.029104626 0.078612193 0.1943617
-0.02872378 0.078655221 0.19446808
-0.028357998 0.078741275 0.19468085
-0.027168036 0.10279394 0.25414893
-0.026627183 0.10270789 0.25393617
-0.026087198 0.10262183 0.25372341
-0.025569525 0.10262183 0.25372341
-0.025093863 0.10279394 0.25414893
-0.024626754 0.10300907 0.25468084
-0.024167545 0.10326724 0.25531915
-0.023676172 0.10339633 0.2556383
0.016240813 0.12572788 0.31085107
0.016869269 0.12568484 0.31074467
0.017479319 0.12551273 0.31031916
0.018087627 0.12534063 0.30989361
0.018681351 0.12508246 0.30925533
0.019272467 0.12482429 0.30861703
0.019874701 0.12465217 0.30819148
0.01847104 0.1058059 0.26159576
0.018981591 0.10567682 0.2612766
0.019467002 0.10541864 0.2606383
0.019949807 0.10516047 0.25999999
0.02044677 0.10498837 0.25957447
0.020950593 0.10485929 0.25925532
0.02147074 0.10481625 0.25914893
0.021990456 0.10477323 0.25904256
0.022518983 0.10477323 0.25904256
0.023066441 0.10485929 0.25925532
0.023605086 0.10490232 0.25936171
-0.15285666 0.10746402 0.26436171
-0.15250117 0.10759375 0.26468086
-0.15226652 0.10780998 0.26521277
-0.15202971 0.1080262 0.26574469
-0.15166943 0.10815594 0.26606384
-0.15112658 0.10815594 0.26606384
-0.15052351 0.10811269 0.26595744
-0.032691538 0.079051994 0.19446808
-0.032277096 0.079008751 0.1943617
-0.031828187 0.078879014 0.19404255
-0.031415045 0.07883577 0.19393617
-0.031019356 0.07883577 0.19393617
-0.030657265 0.078922264 0.19414894
-0.030277722 0.078965507 0.19425532
-0.029881379 0.078965507 0.19425532
-0.029485038 0.078965507 0.19425532
-0.029104626 0.079008751 0.1943617
-0.02872378 0.079051994 0.19446808
-0.028342502 0.079095244 0.19457448
-0.02769817 0.10335573 0.25425532
-0.027168036 0.10331248 0.25414893
-0.026627183 0.10322599 0.25393617
-0.026087198 0.1031395 0.25372341
-0.025580242 0.10318274 0.25382978
-0.025104368 0.10335573 0.25425532
-0.024637042 0.10357195 0.25478724
-0.024177616 0.10383143 0.25542554
0.016218578 0.12618913 0.31042552
0.016840395 0.12610264 0.31021276
0.017461341 0.12601615 0.31
0.018075211 0.12588641 0.30968085
0.018681351 0.12571344 0.30925533
0.019279111 0.12549721 0.30872339
0.019895282 0.12541071 0.30851063
0.018448504 0.1062099 0.2612766
0.018966133 0.10612342 0.26106384
0.019459054 0.10590718 0.2605319
0.019941647 0.10564772 0.25989363
0.02043839 0.10547473 0.25946808
0.020941995 0.105345 0.25914893
0.021453112 0.10525851 0.25893617
0.021981424 0.10525851 0.25893617
0.022518983 0.10530176 0.25904256
0.023056975 0.105345 0.25914893
0.023595402 0.10538825 0.25925532
-0.1533343 0.10795993 0.26425532
-0.15291816 0.10804684 0.26446807
-0.15256245 0.10817724 0.26478723
-0.15226652 0.10835109 0.26521277
-0.15202971 0.1085684 0.26574469
-0.15166943 0.10869879 0.26606384
-0.15112658 0.10869879 0.26606384
-0.15058373 0.10869879 0.26606384
-0.032727305 0.0795357 0.19468085
-0.032294761 0.079448767 0.19446808
-0.031845637 0.079318389 0.19414894
-0.031415045 0.079231463 0.19393617
-0.031019356 0.079231463 0.19393617
-0.030640464 0.079274923 0.19404255
-0.030244557 0.079274923 0.19404255
-0.029865015 0.079318389 0.19414894
-0.029485038 0.079361849 0.19425532
-0.029120555 0.079448767 0.19446808
-0.028739495 0.079492234 0.19457448
-0.028357998 0.0795357 0.19468085
-0.027674992 0.10378757 0.25404257
-0.027156666 0.10378757 0.25404257
-0.026616028 0.10370064 0.25382978
-0.026087198 0.10365718 0.25372341
-0.025580242 0.10370064 0.25382978
-0.025093863 0.10383102 0.25414893
-0.024616469 0.10400488 0.25457448
-0.024137335 0.10417872 0.255
0.016185232 0.12656172 0.30978724
0.016811518 0.12651825 0.30968085
0.017437372 0.12647478 0.30957446
0.018056583 0.12638786 0.3093617
0.018668497 0.12625748 0.30904254
0.019252537 0.12595326 0.30829787
0.019675748 0.12464938 0.30510637
0.01847104 0.10687338 0.26159576
0.018942947 0.10652568 0.26074469
0.019435219 0.10630837 0.26021278
0.019925319 0.10609105 0.25968084
0.020421632 0.10591721 0.25925532
0.020924801 0.10578682 0.25893617
0.021444298 0.10574336 0.25882977
0.021981424 0.10578682 0.25893617
0.022528229 0.10587374 0.25914893
0.023066441 0.10591721 0.25925532
-0.15345776 0.10858645 0.26446807
-0.15291816 0.10858645 0.26446807
-0.15256245 0.10871749 0.26478723
-0.15226652 0.10889221 0.26521277
-0.15196884 0.10906692 0.26563829
-0.15160878 0.10919796 0.26595744
-0.15112658 0.10924164 0.26606384
-0.032763071 0.080020264 0.19489361
-0.032330096 0.079932906 0.19468085
-0.031863086 0.07975819 0.19425532
-0.031415045 0.079627149 0.19393617
-0.031002341 0.079583474 0.19382979
-0.030606868 0.079583474 0.19382979
-0.030211395 0.079583474 0.19382979
-0.02984865 0.079670832 0.19404255
-0.02946889 0.079714514 0.19414894
-0.029120555 0.079845548 0.19446808
-0.02877092 0.079976588 0.19478723
-0.028388988 0.080020264 0.19489361
-0.027640224 0.10417486 0.25372341
-0.02712255 0.10417486 0.25372341
-0.026582561 0.10408749 0.25351062
-0.02606532 0.10408749 0.25351062
-0.025558801 0.10413117 0.25361702
-0.025062351 0.10421853 0.25382978
-0.024575319 0.10434957 0.25414893
-0.024066847 0.10439325 0.25425532
0.01551578 0.12688802 0.30904254
0.016151883 0.12693171 0.30914894
0.016782643 0.12693171 0.30914894
0.01740741 0.12688802 0.30904254
0.018037954 0.12688802 0.30904254
0.018655645 0.12680067 0.30882978
0.019206034 0.12627652 0.3075532
0.018508596 0.10762551 0.26212767
0.018927488 0.10697032 0.2605319
0.019419326 0.10675192 0.25999999
0.019900832 0.10648985 0.25936171
0.020396492 0.10631513 0.25893617
0.020899011 0.1061841 0.25861701
0.021435484 0.10622778 0.25872341
0.021990456 0.10635882 0.25904256
0.022546727 0.10648985 0.25936171
0.023085371 0.10653353 0.25946808
-0.17273195 0.11513983 0.27904254
-0.17183444 0.11492035 0.27851063
-0.17067742 0.11452529 0.2775532
-0.16952431 0.11413022 0.27659574
-0.16870004 0.11395464 0.27617022
-0.1682661 0.11404243 0.27638298
-0.16802494 0.11426191 0.27691489
-0.16778161 0.11448139 0.27744681
-0.15443099 0.10943332 0.26521277
-0.15358123 0.10921384 0.26468086
-0.15297967 0.10916995 0.26457447
-0.15256245 0.10925774 0.26478723
-0.15220544 0.10938942 0.26510638
-0.15190798 0.10956501 0.26553193
-0.1514875 0.1096528 0.26574469
-0.15100572 0.10969669 0.26585105
-0.032780956 0.0804618 0.19499999
-0.032347761 0.08037401 0.19478723
-0.031863086 0.080154531 0.19425532
-0.031415045 0.080022842 0.19393617
-0.030985327 0.079935052 0.19372341
-0.03059007 0.079935052 0.19372341
-0.03017823 0.079891153 0.19361702
-0.029815922 0.07997895 0.19382979
-0.029452741 0.080066733 0.19404255
-0.029104626 0.08019843 0.1943617
-0.028755208 0.080330119 0.19468085
-0.028373493 0.08037401 0.19478723
-0.027593866 0.10451694 0.25329787
-0.027077058 0.10451694 0.25329787
-0.026549099 0.10447305 0.2531915
-0.026032509 0.10447305 0.2531915
-0.025526639 0.10451694 0.25329787
-0.025030838 0.10460473 0.25351062
-0.024523886 0.10464863 0.25361702
-0.024006428 0.10464863 0.25361702
0.014849369 0.1272113 0.30829787
0.015483735 0.1272552 0.30840427
0.016118534 0.12729909 0.30851063
0.016747991 0.12729909 0.30851063
0.017383443 0.12734298 0.30861703
0.018013118 0.12734298 0.30861703
0.018636366 0.12729909 0.30851063
0.019146243 0.12650895 0.30659574
0.018553665 0.1084237 0.26276594
0.018912032 0.10741409 0.26031914
0.019395489 0.10715071 0.25968084
0.019876344 0.10688734 0.25904256
0.020362973 0.10666786 0.25851065
0.020873221 0.10658006 0.25829786
0.021417858 0.10666786 0.25851065
0.021990456 0.10688734 0.25904256
0.022555973 0.10706292 0.25946808
0.023104299 0.10715071 0.25968084
-0.17544474 0.11562094 0.27882978
-0.1747424 0.11553271 0.27861702
-0.17410743 0.1154886 0.27851063
-0.17373805 0.11562094 0.27882978
-0.17323522 0.11566506 0.27893618
-0.1726661 0.11566506 0.27893618
-0.17183444 0.1154886 0.27851063
-0.17074284 0.11513569 0.27765957
-0.16971992 0.1148269 0.27691489
-0.16895998 0.11469456 0.27659574
-0.16852516 0.11478278 0.2768085
-0.16828313 0.11500335 0.27734041
-0.16803895 0.11522393 0.27787235
-0.16779259 0.11544449 0.27840427
-0.16735235 0.11553271 0.27861702
-0.15640184 0.11098904 0.26765957
-0.15492655 0.11032735 0.26606384
-0.15388986 0.10997444 0.26521277
-0.15316421 0.1098421 0.26489362
-0.15262374 0.1098421 0.26489362
-0.15226652 0.10997444 0.26521277
-0.15184712 0.11006267 0.26542553
-0.15130557 0.11006267 0.26542553
-0.15064317 0.10997444 0.26521277
-0.032763071 0.080815554 0.19489361
-0.032330096 0.080727324 0.19468085
-0.031863086 0.080550872 0.19425532
-0.031397816 0.08037442 0.19382979
-0.030968308 0.08028619 0.19361702
-0.030556472 0.080242075 0.19351064
-0.030161651 0.080242075 0.19351064
-0.029783191 0.08028619 0.19361702
-0.029404301 0.080330305 0.19372341
-0.029056834 0.080462642 0.19404255
-0.028708067 0.080594987 0.1943617
-0.028327005 0.080639094 0.19446808
-0.02754751 0.1048573 0.25287235
-0.027031573 0.1048573 0.25287235
-0.026504477 0.10481318 0.25276595
-0.025999695 0.1048573 0.25287235
-0.025494475 0.1049014 0.25297871
-0.02499933 0.10498964 0.2531915
-0.02448274 0.10498964 0.2531915
-0.02396615 0.10498964 0.2531915
0.013567872 0.12761976 0.30776596
0.014195811 0.12761976 0.30776596
0.014828875 0.12766388 0.30787235
0.01545703 0.12766388 0.30787235
0.016085185 0.12766388 0.30787235
0.016713342 0.12766388 0.30787235
0.017347489 0.12770797 0.30797872
0.017982071 0.1277521 0.30808511
0.018610662 0.1277521 0.30808511
0.019126313 0.12700216 0.30627659
0.018561177 0.10900395 0.26287234
0.018904304 0.10790112 0.26021278
0.019379597 0.10759231 0.25946808
0.019851856 0.10728353 0.25872341
0.020337833 0.10706297 0.2581915
0.02084743 0.10697474 0.25797874
0.021400228 0.10710707 0.25829786
0.021981424 0.10737175 0.25893617
0.022546727 0.10754821 0.25936171
0.023094837 0.10763644 0.25957447
-0.17614795 0.1162785 0.27904254
-0.17537782 0.11614551 0.27872342
-0.17467567 0.11605684 0.27851063
-0.17404094 0.11601252 0.27840427
-0.17353918 0.11605684 0.27851063
-0.17303701 0.11610118 0.27861702
-0.17240268 0.11605684 0.27851063
-0.17163752 0.11592385 0.27819148
-0.17074284 0.1157022 0.27765957
-0.16991553 0.11552489 0.27723405
-0.1692849 0.11548055 0.27712765
-0.16891377 0.11561354 0.27744681
-0.16867045 0.1158352 0.27797872
-0.16842495 0.11605684 0.27851063
-0.16804905 0.11618984 0.27882978
-0.16741626 0.11614551 0.27872342
-0.1667202 0.11605684 0.27851063
-0.16583462 0.1158352 0.27797872
-0.16495122 0.11561354 0.27744681
-0.16400695 0.11534756 0.2768085
-0.16293967 0.11499292 0.27595744
-0.16150028 0.1143723 0.27446809
-0.15925601 0.11317538 0.27159575
-0.15714779 0.11206711 0.26893616
-0.15554601 0.1113135 0.26712766
-0.15432197 0.11082587 0.26595744
-0.15341026 0.11055988 0.26531914
-0.15286893 0.11055988 0.26531914
-0.15232758 0.11055988 0.26531914
-0.15184712 0.11060422 0.26542553
-0.15118429 0.11051556 0.26521277
-0.15046188 0.11038256 0.26489362
-0.03274519 0.081168868 0.19478723
-0.032294761 0.081035875 0.19446808
-0.031828187 0.080858551 0.19404255
-0.031363349 0.080681227 0.19361702
-0.030951295 0.080636904 0.19351064
-0.030539675 0.080592573 0.19340426
-0.03014507 0.080592573 0.19340426
-0.029750464 0.080592573 0.19340426
-0.029355859 0.080592573 0.19340426
-0.028993113 0.080681227 0.19361702
-0.028629502 0.080769897 0.19382979
-0.02826502 0.080858551 0.19404255
-0.02802803 0.10524025 0.25255319
-0.027512742 0.10524025 0.25255319
-0.026986081 0.10519591 0.2524468
-0.026459858 0.10515159 0.25234044
-0.025955942 0.10519591 0.2524468
-0.025473034 0.1053289 0.25276595
-0.024978319 0.10541756 0.25297871
-0.024462163 0.10541756 0.25297871
-0.02393594 0.10537324 0.25287235
0.013563182 0.12820336 0.30765957
0.014185998 0.12815903 0.3075532
0.014813502 0.12815903 0.3075532
0.015435665 0.1281147 0.30744681
0.016057394 0.12807037 0.30734041
0.016684465 0.12807037 0.30734041
0.017317528 0.1281147 0.30744681
0.017957233 0.12820336 0.30765957
0.018584955 0.12820336 0.30765957
0.019139599 0.12771572 0.30648935
0.019490518 0.12594251 0.30223405
0.018508596 0.10922998 0.26212767
0.018888846 0.10834336 0.25999999
0.019363707 0.10803305 0.25925532
0.01983553 0.10772274 0.25851065
0.020329453 0.10754542 0.2580851
0.02084743 0.1075011 0.25797874
0.021400228 0.10763407 0.25829786
0.021963362 0.10781141 0.25872341
0.022518983 0.1079444 0.25904256
0.023056975 0.10798872 0.25914893
-0.17651518 0.1167142 0.27872342
-0.17587934 0.11666965 0.27861702
-0.17517701 0.11658055 0.27840427
-0.17454223 0.116536 0.27829787
-0.17390792 0.11649145 0.27819148
-0.17327404 0.11644691 0.27808511
-0.17270666 0.11644691 0.27808511
-0.17200758 0.11635782 0.27787235
-0.17130935 0.11626872 0.27765957
-0.17061201 0.11617962 0.27744681
-0.16991553 0.11609053 0.27723405
-0.16934988 0.11609053 0.27723405
-0.1690433 0.11626872 0.27765957
-0.168735 0.11644691 0.27808511
-0.16836062 0.11658055 0.27840427
-0.16785669 0.11662509 0.27851063
-0.16716065 0.116536 0.27829787
-0.16646548 0.11644691 0.27808511
-0.16570769 0.11631326 0.27776596
-0.16495122 0.11617962 0.27744681
-0.16400695 0.11591233 0.2768085
-0.16293967 0.11555596 0.27595744
-0.16150028 0.1149323 0.27446809
-0.15969266 0.11404134 0.27234042
-0.15770726 0.11301675 0.26989362
-0.15597962 0.11217035 0.26787233
-0.1546306 0.11159124 0.26648936
-0.1536563 0.11127941 0.26574469
-0.15299152 0.11119032 0.26553193
-0.15238866 0.11114576 0.26542553
-0.15184712 0.11114576 0.26542553
-0.15118429 0.11105668 0.26521277
-0.15052231 0.11096757 0.26499999
-0.15004183 0.11101212 0.26510638
-0.032691538 0.081432648 0.19446808
-0.032241762 0.081299014 0.19414894
-0.03177584 0.081120819 0.19372341
-0.031328883 0.080987178 0.19340426
-0.030917265 0.080942631 0.19329788
-0.030506076 0.080898076 0.19319148
-0.030111905 0.080898076 0.19319148
-0.029717734 0.080898076 0.19319148
-0.029323563 0.080898076 0.19319148
-0.028961254 0.080987178 0.19340426
-0.028598074 0.081076272 0.19361702
-0.028234029 0.081165366 0.19382979
-0.028471176 0.10548825 0.25191489
-0.027980803 0.10557733 0.25212765
-0.027477974 0.10562189 0.25223404
-0.026940593 0.1055328 0.25202128
-0.026426392 0.1055328 0.25202128
-0.025923125 0.10557733 0.25212765
-0.025451593 0.10575553 0.25255319
-0.024967818 0.10588918 0.25287235
-0.024451878 0.10588918 0.25287235
-0.02393594 0.10588918 0.25287235
-0.023410147 0.10584462 0.25276595
0.013553802 0.12874199 0.30744681
0.01418109 0.12874199 0.30744681
0.01479813 0.1286529 0.30723405
0.015419642 0.12860835 0.30712765
0.016035162 0.12851925 0.3069149
0.016661365 0.12851925 0.3069149
0.017293559 0.12856381 0.30702129
0.017932396 0.1286529 0.30723405
0.018559251 0.1286529 0.30723405
0.019159529 0.1284747 0.3068085
0.019648306 0.12758376 0.30468085
0.018425969 0.10927477 0.26095745
0.018865658 0.1087402 0.25968084
0.019347817 0.10847293 0.25904256
0.019827366 0.10820564 0.25840425
0.020329453 0.108072 0.2580851
0.02084743 0.10802746 0.25797874
0.021400228 0.10816108 0.25829786
0.021963362 0.10833928 0.25872341
0.022500485 0.10838382 0.25882977
0.023028579 0.10838382 0.25882977
-0.17617831 0.11705904 0.27819148
-0.17561071 0.11705904 0.27819148
-0.17497618 0.11701429 0.27808511
-0.17434208 0.11696952 0.27797872
-0.17370842 0.11692476 0.27787235
-0.17300889 0.11683523 0.27765957
-0.17237632 0.11679047 0.2775532
-0.1716783 0.11670093 0.27734041
-0.17104681 0.11665618 0.27723405
-0.17035034 0.11656665 0.27702129
-0.16971992 0.11652188 0.27691489
-0.16921991 0.11656665 0.27702129
-0.16884899 0.11670093 0.27734041
-0.16847679 0.11683523 0.27765957
-0.16803895 0.11692476 0.27787235
-0.16740789 0.11687999 0.27776596
-0.16671336 0.11679047 0.2775532
-0.16608338 0.1167457 0.27744681
-0.16545382 0.11670093 0.27734041
-0.16482472 0.11665618 0.27723405
-0.16394393 0.11643235 0.27670214
-0.16287686 0.11607423 0.27585107
-0.16143768 0.11544753 0.2743617
-0.15969266 0.11459701 0.27234042
-0.15783158 0.11365695 0.27010638
-0.15610351 0.11280642 0.26808509
-0.15469234 0.11217973 0.26659575
-0.15371782 0.11186637 0.26585105
-0.15299152 0.11173209 0.26553193
-0.15238866 0.11168732 0.26542553
-0.15184712 0.11168732 0.26542553
-0.15130557 0.11168732 0.26542553
-0.15082444 0.11173209 0.26553193
-0.15064393 0.11200067 0.2661702
-0.15070079 0.11244832 0.26723406
-0.032620002 0.081650369 0.19404255
-0.032188762 0.081560843 0.19382979
-0.031723488 0.081381783 0.19340426
-0.031294417 0.081292249 0.19319148
-0.030866217 0.081202723 0.19297872
-0.03047248 0.081202723 0.19297872
-0.030078743 0.081202723 0.19297872
-0.029685006 0.081202723 0.19297872
-0.029323563 0.081292249 0.19319148
-0.028961254 0.081381783 0.19340426
-0.028613789 0.08151608 0.19372341
-0.028249525 0.081605606 0.19393617
-0.030501334 0.10591271 0.25170213
-0.029987784 0.10591271 0.25170213
-0.029449319 0.10582318 0.25148937
-0.028911719 0.10573364 0.25127658
-0.028411061 0.10577841 0.25138298
-0.027909968 0.10582318 0.25148937
-0.027408438 0.10586794 0.25159574
-0.026883734 0.10582318 0.25148937
-0.026370617 0.10582318 0.25148937
-0.025879376 0.10591271 0.25170213
-0.025408708 0.10609175 0.25212765
-0.024936305 0.10627082 0.25255319
-0.024441591 0.10636035 0.25276595
-0.023925869 0.10636035 0.25276595
-0.023410147 0.10636035 0.25276595
-0.022913696 0.10644987 0.25297871
0.01479813 0.12927975 0.30723405
0.015414301 0.12919022 0.30702129
0.016029604 0.12910068 0.3068085
0.016649814 0.12905593 0.30670214
0.017281573 0.12910068 0.3068085
0.017919978 0.12919022 0.30702129
0.018546399 0.12919022 0.30702129
0.019159529 0.12910068 0.3068085
0.019778656 0.12905593 0.30670214
0.018365877 0.1094491 0.26010638
0.018857932 0.10922527 0.25957447
0.019339869 0.10895669 0.25893617
0.019827366 0.10873286 0.25840425
0.020329453 0.10859857 0.2580851
0.020856027 0.10859857 0.2580851
0.021400228 0.10868809 0.25829786
0.02195433 0.10882239 0.25861701
0.022500485 0.10891192 0.25882977
0.023028579 0.10891192 0.25882977
-0.17590882 0.11744673 0.27776596
-0.1753421 0.11744673 0.27776596
-0.17477536 0.11744673 0.27776596
-0.17414191 0.11740174 0.27765957
-0.1735089 0.11735676 0.2775532
-0.17281002 0.11726679 0.27734041
-0.1721781 0.11722182 0.27723405
-0.17154659 0.11717683 0.27712765
-0.17091554 0.11713186 0.27702129
-0.17028491 0.11708687 0.27691489
-0.16958952 0.11699691 0.27670214
-0.16902496 0.11699691 0.27670214
-0.16852516 0.11704189 0.2768085
-0.16808949 0.11713186 0.27702129
-0.16752429 0.11713186 0.27702129
-0.16683082 0.11704189 0.2768085
-0.16620217 0.11699691 0.27670214
-0.16570129 0.11704189 0.2768085
-0.16519998 0.11708687 0.27691489
-0.16457173 0.11704189 0.2768085
-0.16375484 0.11686197 0.27638298
-0.16256279 0.11641216 0.27531916
-0.16112469 0.11578241 0.27382979
-0.15944315 0.11497274 0.2719149
-0.15764509 0.11407311 0.26978722
-0.15597962 0.11326344 0.26787233
-0.1546306 0.11267868 0.26648936
-0.15359479 0.11231883 0.26563829
-0.15280764 0.11213891 0.26521277
-0.15226652 0.11213891 0.26521277
-0.15178625 0.11218388 0.26531914
-0.1514875 0.11236382 0.26574469
-0.15130787 0.11263371 0.26638299
-0.15130623 0.11303853 0.26734042
-0.15148069 0.11357832 0.26861703
-0.15164992 0.11411809 0.26989362
-0.032530583 0.081821367 0.19351064
-0.032118093 0.081776388 0.19340426
-0.03167114 0.081641443 0.1930851
-0.031242723 0.081551477 0.19287235
-0.030849202 0.081551477 0.19287235
-0.030455682 0.081551477 0.19287235
-0.030062163 0.081551477 0.19287235
-0.029701371 0.081641443 0.1930851
-0.029355859 0.081776388 0.19340426
-0.029024975 0.081956312 0.19382979
-0.028692355 0.082136236 0.19425532
-0.02831151 0.082181223 0.1943617
-0.030475553 0.1063363 0.25148937
-0.02994976 0.10629131 0.25138298
-0.029411945 0.10620135 0.25117022
-0.028850516 0.10602142 0.25074467
-0.028326899 0.10597644 0.25063831
-0.027815517 0.10597644 0.25063831
-0.027315725 0.10602142 0.25074467
-0.0268155 0.10606641 0.25085106
-0.026314842 0.10611139 0.25095746
-0.025824687 0.10620135 0.25117022
-0.025355102 0.10638127 0.25159574
-0.024873281 0.10651621 0.25191489
-0.024390157 0.10665116 0.25223404
-0.023895659 0.10674112 0.2524468
-0.023390442 0.10678611 0.25255319
-0.022894425 0.10687607 0.25276595
-0.022378704 0.10687607 0.25276595
-0.021853782 0.1068311 0.25265959
0.015424984 0.12990661 0.30723405
0.01604072 0.12981665 0.30702129
0.016649814 0.12968171 0.30670214
0.017275583 0.12968171 0.30670214
0.01790756 0.12972668 0.3068085
0.018539971 0.12977166 0.3069149
0.019152887 0.12968171 0.30670214
0.018365877 0.10997979 0.26010638
0.018850202 0.1097099 0.25946808
0.019323979 0.10939503 0.25872341
0.019819204 0.1092151 0.25829786
0.020329453 0.10912514 0.2580851
0.02084743 0.10908017 0.25797874
0.021391416 0.10917013 0.2581915
0.0219453 0.10930508 0.25851065
0.022509733 0.10948499 0.25893617
0.023047511 0.10952998 0.25904256
-0.17577408 0.11792306 0.2775532
-0.17520779 0.11792306 0.2775532
-0.17457455 0.11787786 0.27744681
-0.17394175 0.11783265 0.27734041
-0.17330939 0.11778747 0.27723405
-0.17267746 0.11774226 0.27712765
-0.1721781 0.11778747 0.27723405
-0.17161246 0.11778747 0.27723405
-0.17104681 0.11778747 0.27723405
-0.17035034 0.11769707 0.27702129
-0.16965471 0.11760666 0.2768085
-0.16895998 0.11751627 0.27659574
-0.16833085 0.11747106 0.27648935
-0.16770218 0.11742587 0.27638298
-0.16713828 0.11742587 0.27638298
-0.16651025 0.11738067 0.27627659
-0.16594656 0.11738067 0.27627659
-0.16544656 0.11742587 0.27638298
-0.16494611 0.11747106 0.27648935
-0.16425548 0.11738067 0.27627659
-0.16337664 0.11715468 0.27574468
-0.16218591 0.1167027 0.27468085
-0.16074911 0.11606991 0.27319148
-0.15913126 0.11530154 0.27138299
-0.15745862 0.11448797 0.2694681
-0.15585573 0.11371959 0.26765957
-0.15444542 0.1130868 0.2661702
-0.15334876 0.11268003 0.26521277
-0.15256245 0.11249922 0.26478723
-0.15208328 0.11254443 0.26489362
-0.15178625 0.11272522 0.26531914
-0.15166943 0.11304162 0.26606384
-0.15179127 0.1135388 0.26723406
-0.15196854 0.11408118 0.26851064
-0.15220059 0.11466876 0.26989362
-0.15230745 0.11516595 0.27106383
-0.15240954 0.11566313 0.27223405
-0.15232883 0.11602473 0.27308512
-0.15188989 0.11611512 0.27329788
-0.15121448 0.11602473 0.27308512
-0.15048122 0.11588912 0.27276596
-0.14974928 0.11575352 0.27244681
-0.14913513 0.11570832 0.27234042
-0.14869556 0.11579873 0.27255321
-0.14831293 0.11593431 0.27287233
-0.1478714 0.11602473 0.27308512
-0.14737161 0.11606991 0.27319148
-0.14687137 0.11611512 0.27329788
-0.14637071 0.1161603 0.27340424
-0.14274548 0.11593431 0.27287233
-0.14213331 0.11588912 0.27276596
-0.14179763 0.11606991 0.27319148
-0.14157026 0.11634111 0.27382979
-0.14134026 0.1166123 0.27446809
-0.14083481 0.1166575 0.27457446
-0.14000285 0.1164315 0.27404255
-0.032459047 0.082035393 0.1930851
-0.032029763 0.081945002 0.19287235
-0.031618789 0.081899799 0.19276595
-0.031208256 0.081854597 0.19265957
-0.030815169 0.081854597 0.19265957
-0.030438881 0.081899799 0.19276595
-0.030062163 0.081945002 0.19287235
-0.029717734 0.082080595 0.19319148
-0.029388152 0.082261384 0.19361702
-0.029072767 0.082487382 0.19414894
-0.028739495 0.082668178 0.19457448
-0.028373493 0.082758576 0.19478723
-0.029349659 0.10648783 0.25063831
-0.028777078 0.10626183 0.25010639
-0.028230712 0.10612623 0.24978724
-0.027721068 0.10612623 0.24978724
-0.027234601 0.10621663 0.25
-0.026758639 0.10635222 0.25031915
-0.026259065 0.10639741 0.25042552
-0.025769996 0.10648783 0.25063831
-0.025280057 0.10657822 0.25085106
-0.024799755 0.10671382 0.25117022
-0.024307862 0.10680421 0.25138298
-0.023825172 0.10693981 0.25170213
-0.023331326 0.1070302 0.25191489
-0.022826977 0.1070754 0.25202128
-0.022322193 0.1071206 0.25212765
-0.021807773 0.1071206 0.25212765
-0.021311324 0.107211 0.25234044
-0.020814005 0.10730139 0.25255319
0.015441007 0.13066906 0.3075532
0.016057394 0.13057865 0.30734041
0.016661365 0.13039786 0.3069149
0.017281573 0.13035266 0.3068085
0.01790756 0.13035266 0.3068085
