# .PCD v0.7 - Point Cloud Data file format
VERSION 0.7
FIELDS x y z
SIZE 4 4 4
TYPE F F F
COUNT 1 1 1
WIDTH 1371
HEIGHT 1
VIEWPOINT 0 0 0 1 0 0 0
POINTS 1371
DATA ascii
-0.14720738 0.054857891 0.28699932
-0.1459415 0.053356949 0.28569168
-0.14568143 0.053206984 0.28526875
-0.14558649 0.052978713 0.28512037
-0.14550817 0.052952051 0.28496644
-0.14541753 0.052803732 0.28489137
-0.14536849 0.052734323 0.28488883
-0.14534003 0.052665584 0.28490657
-0.14529757 0.052696284 0.28503925
-0.14520068 0.052777678 0.28531834
-0.14502248 0.05310588 0.28582644
-0.14461459 0.053518411 0.28639075
-0.14436293 0.053821027 0.28679255
-0.025768375 0.038125981 0.20619893
-0.025762314 0.038127083 0.20620288
-0.0257487 0.038068913 0.20621181
-0.025744252 0.038069647 0.20621537
-0.025739871 0.038050383 0.20622073
-0.025729131 0.038032036 0.20622957
-0.025717996 0.03797432 0.20624535
-0.025711091 0.037935477 0.20624918
-0.025706569 0.037896663 0.20625827
-0.025703657 0.037857369 0.20626679
-0.02569891 0.037796821 0.20627473
-0.025688143 0.03773905 0.2062851
-0.025672454 0.037645008 0.20630622
-0.02566064 0.037528396 0.20632711
-0.025642321 0.037421335 0.2063536
-0.025628826 0.037372015 0.20636743
-0.025574505 0.037293788 0.20639251
-0.019474482 0.051139817 0.27008206
-0.019450884 0.051098756 0.27010754
-0.019430023 0.051191084 0.27013183
-0.019406941 0.051142868 0.27017513
-0.019381324 0.05104252 0.27020028
-0.019359615 0.051015142 0.27022436
-0.019347627 0.05089974 0.27022225
0.026813131 0.056337234 0.27499706
0.026992118 0.056448232 0.27494088
0.027115462 0.056464251 0.27495196
0.027327701 0.056521308 0.2749632
0.027539155 0.056542054 0.27500141
-0.18311317 0.055690587 0.2989018
-0.18284941 0.055691548 0.29887336
-0.18265404 0.055683795 0.29884195
-0.18234092 0.055688474 0.29879704
-0.18230236 0.055674929 0.29878965
-0.18198094 0.055676788 0.29873413
-0.18173572 0.055655666 0.29869157
-0.18144967 0.055650569 0.29863909
-0.1812811 0.055640273 0.29860905
-0.18115678 0.05563749 0.2985813
-0.1809449 0.055636812 0.29853415
-0.1805599 0.055612385 0.29845193
-0.18026085 0.055617444 0.29837841
-0.1795918 0.055652559 0.29821339
-0.17907201 0.055682279 0.29810897
-0.17852098 0.055699181 0.29800203
-0.17808178 0.055733994 0.29793906
-0.17744616 0.055784564 0.29786763
-0.17700078 0.055807102 0.29780972
-0.17631426 0.055823997 0.29774034
-0.17545412 0.055885933 0.2976298
-0.17467295 0.055999491 0.29751939
-0.17388378 0.05608771 0.29740632
-0.17291601 0.056206256 0.29722151
-0.17220116 0.056239054 0.297079
-0.17152293 0.056328867 0.29692125
-0.1710557 0.056355663 0.29682782
-0.17050889 0.056402966 0.29672095
-0.1699699 0.056426205 0.29663736
-0.16927145 0.056455664 0.29653528
-0.16836335 0.056478091 0.29639307
-0.16750962 0.056539521 0.29627991
-0.16660531 0.056637604 0.29618442
-0.16649024 0.056649312 0.29617438
-0.16676354 0.056645822 0.29620141
-0.16761899 0.056544535 0.29627332
-0.16515225 0.05680754 0.29596692
-0.16409929 0.056898307 0.29578015
-0.16276515 0.057009265 0.29556122
-0.16239066 0.057041366 0.29549879
-0.16190718 0.057059299 0.29536116
-0.16166033 0.0570741 0.29532301
-0.16153409 0.05710198 0.29530293
-0.16119014 0.057121135 0.29521739
-0.16088147 0.057116225 0.2951023
-0.16016969 0.057103653 0.29485896
-0.15844856 0.056948997 0.29420584
-0.1537475 0.056772832 0.29243797
-0.14860709 0.05551577 0.28851441
-0.14609382 0.054018237 0.28597888
-0.14569665 0.05365568 0.28544736
-0.14561352 0.053354613 0.2850326
-0.14552554 0.053286884 0.28479162
-0.14547101 0.053178836 0.28474316
-0.14541902 0.0531637 0.28486413
-0.1453487 0.053142734 0.28497475
-0.14524105 0.053359315 0.28536218
-0.14512376 0.05347494 0.28563601
-0.14475553 0.053790718 0.28629249
-0.14447613 0.054096654 0.28669569
-0.14432088 0.054229174 0.28697038
-0.14418516 0.05442534 0.28728124
-0.025804194 0.03849775 0.20611303
-0.025797619 0.038479947 0.20612277
-0.025789605 0.03844247 0.20613475
-0.025781229 0.03840353 0.20614368
-0.025771508 0.038364686 0.20614913
-0.025756134 0.038327355 0.20615722
-0.025753329 0.03830795 0.20616308
-0.025748398 0.038289323 0.20617267
-0.025744122 0.038250405 0.20618211
-0.025743917 0.038168687 0.20619258
-0.025729906 0.038110454 0.2062
-0.025724001 0.038071476 0.20620863
-0.025710719 0.037994854 0.20622054
-0.02569777 0.037897766 0.20623434
-0.025681606 0.037763305 0.20625597
-0.019563185 0.051799756 0.26988095
-0.019528881 0.051751353 0.26995564
-0.019502545 0.051709369 0.27000403
-0.019466732 0.051762093 0.2700493
-0.019444594 0.051643793 0.27010286
-0.019419741 0.051545821 0.27012667
-0.019406598 0.051526051 0.27012688
0.026908692 0.056662142 0.27481708
0.027083164 0.056743249 0.27479357
0.027252087 0.056767192 0.27479514
0.027438628 0.056793422 0.27482343
0.027678002 0.056840491 0.27487174
-0.18288615 0.0557063 0.29888049
-0.18265404 0.055683795 0.29884201
-0.18234091 0.055688474 0.29879704
-0.18230236 0.055674922 0.29878968
-0.18201934 0.055689678 0.29874077
-0.18198095 0.055676788 0.29873416
-0.18169475 0.055664208 0.29868177
-0.18144965 0.055650569 0.29863906
-0.18132287 0.055648569 0.29861552
-0.18119754 0.055649076 0.29858813
-0.1809449 0.055636812 0.29853413
-0.18056101 0.055632222 0.29844338
-0.1800065 0.055623744 0.29831588
-0.17935231 0.055675466 0.29815587
-0.17887393 0.055707682 0.29807585
-0.1784426 0.055707097 0.29798833
-0.17808178 0.055733997 0.29793903
-0.17748456 0.055781718 0.29787275
-0.17692727 0.055815522 0.29780042
-0.17615436 0.055870179 0.29772234
-0.17513977 0.055947334 0.29758364
-0.17436442 0.056045193 0.29746166
-0.17348906 0.056166254 0.29733765
-0.17245378 0.056252107 0.29712096
-0.17190744 0.056291934 0.29701313
-0.17143945 0.056345444 0.29690325
-0.17097197 0.056373253 0.29680765
-0.17046857 0.05641235 0.29671499
-0.17001203 0.056425154 0.29664534
-0.16948007 0.056473061 0.29656321
-0.16873907 0.056469023 0.29645932
-0.16780746 0.056527566 0.29632947
-0.16700947 0.056610338 0.29623672
-0.1663671 0.056679498 0.29615468
-0.16596514 0.056730103 0.29609254
-0.16555682 0.056746166 0.29602635
-0.16507012 0.056798209 0.29594612
-0.16466363 0.056852963 0.29586798
-0.16416967 0.056889657 0.29576579
-0.1636764 0.056929611 0.2956568
-0.16320509 0.056987457 0.29560748
-0.16272573 0.057027727 0.29555818
-0.16239066 0.057041369 0.29549882
-0.16190718 0.057059299 0.29536116
-0.16165899 0.057089064 0.29531488
-0.16145074 0.057122551 0.29528484
-0.16118839 0.057140209 0.29520822
-0.16071035 0.05712121 0.29499596
-0.16021016 0.057108033 0.2948558
-0.1578891 0.057023849 0.29404718
-0.15362398 0.056831323 0.29234904
-0.14883606 0.055683777 0.2887252
-0.14611304 0.054491617 0.28599715
-0.14571647 0.054033563 0.28544846
-0.14564823 0.053745575 0.2848675
-0.14556302 0.053625152 0.28462565
-0.14551993 0.053568833 0.2846671
-0.14543076 0.053651843 0.28495044
-0.14531201 0.053840257 0.28537595
-0.14517242 0.053925369 0.2856963
-0.14489399 0.054128282 0.2861875
-0.14462873 0.05436625 0.28655338
-0.14448336 0.054441739 0.28684106
-0.14434177 0.054689962 0.28719214
-0.14413448 0.055299725 0.28779158
-0.14396666 0.05567693 0.28833744
-0.14373253 0.055772759 0.28852746
-0.14337818 0.05566676 0.28838229
-0.14309859 0.055573426 0.28831065
-0.14276393 0.055600472 0.28838158
-0.14236757 0.05583261 0.28870192
-0.14185157 0.056175411 0.28918234
-0.14112701 0.056820471 0.29010445
-0.14080849 0.057173148 0.29059622
-0.14051923 0.057394788 0.29087198
-0.14019628 0.057538975 0.29104176
-0.13988958 0.057652611 0.29119349
-0.025828099 0.038809747 0.20603357
-0.025821401 0.038792688 0.20604378
-0.025818711 0.038773846 0.20605034
-0.025818713 0.03877385 0.20605037
-0.025810678 0.038735557 0.20606162
-0.025797464 0.038678866 0.20608005
-0.02579383 0.038679998 0.20608483
-0.025781719 0.038621597 0.20609197
-0.025776502 0.038562499 0.20610662
-0.025768267 0.03850048 0.20610709
-0.02576247 0.038462225 0.20611796
-0.025755648 0.038402911 0.20613115
-0.025742618 0.03832506 0.20614067
-0.01958642 0.05238048 0.26980567
-0.019577106 0.052349154 0.2698279
-0.019559775 0.052368086 0.26985905
-0.019525668 0.052250277 0.26993743
-0.019493943 0.052142557 0.27000198
-0.019471843 0.052046511 0.27002653
-0.019457739 0.052027166 0.2700291
0.026913166 0.057017982 0.27460223
0.027092226 0.05706422 0.27460152
0.027321747 0.057108741 0.27463821
0.027499394 0.057116598 0.27466568
0.027673824 0.05710566 0.27473733
-0.18237956 0.055698115 0.29880378
-0.18221931 0.055698749 0.29877591
-0.18201934 0.055689681 0.29874077
-0.18201941 0.055689681 0.29874077
-0.1820194 0.055689681 0.29874077
-0.18185671 0.055671711 0.29871345
-0.18157129 0.055669367 0.29865906
-0.18140778 0.055655152 0.29862872
-0.18119751 0.055649083 0.29858813
-0.18094489 0.055636816 0.29853418
-0.180434 0.055630933 0.29841039
-0.17979984 0.055646889 0.29825607
-0.17915283 0.055688791 0.29812112
-0.17887393 0.055707682 0.29807585
-0.17859325 0.055734545 0.29803053
-0.17824346 0.055734269 0.2979553
-0.1776908 0.055778235 0.29788414
-0.17704663 0.055815067 0.29781571
-0.17603947 0.055893578 0.2976898
-0.17491148 0.056007069 0.29754815
-0.17393117 0.056115326 0.29740474
-0.17287424 0.056219175 0.29721418
-0.17216267 0.056300562 0.29706234
-0.17152451 0.056338117 0.29692069
-0.17101538 0.056380037 0.29681331
-0.17067695 0.05641612 0.29675078
-0.17021963 0.056445867 0.29667321
-0.16980858 0.056467064 0.29660797
-0.16931783 0.056494087 0.29654098
-0.16857824 0.056489967 0.29643959
-0.16780746 0.056527566 0.2963295
-0.16709282 0.056617007 0.29625696
-0.16653055 0.05666402 0.29617965
-0.16608539 0.056719907 0.29611304
-0.16567996 0.056770697 0.2960465
-0.16511078 0.056789637 0.29595348
-0.1647035 0.056853555 0.29587018
-0.16416968 0.056889657 0.29576582
-0.16363794 0.056934699 0.29565257
-0.16315621 0.056990046 0.29558092
-0.162726 0.057047948 0.29555339
-0.16239284 0.057059329 0.29549715
-0.1619072 0.057059303 0.29536119
-0.16165933 0.057108972 0.29531544
-0.16135474 0.057117 0.29523823
-0.16105933 0.057150304 0.29514179
-0.16066885 0.057136536 0.29498833
-0.16008312 0.057125367 0.29482374
-0.15749316 0.057100426 0.29394281
-0.15331458 0.056833897 0.2921975
-0.14845492 0.055755053 0.288468
-0.14611392 0.054794997 0.28599712
-0.14575094 0.054420624 0.28530079
-0.14570847 0.054179054 0.28472626
-0.14562561 0.054006398 0.28447494
-0.14557269 0.053994048 0.28456181
-0.14543059 0.054244101 0.28513283
-0.1453146 0.054328069 0.28555214
-0.1450128 0.054518234 0.28612018
-0.14476511 0.054695979 0.28649783
-0.14462417 0.054731563 0.28669214
-0.1444346 0.054890279 0.28700203
-0.1442945 0.055405118 0.28748256
-0.14411613 0.055874493 0.2882008
-0.14395612 0.056076728 0.28866634
-0.1436929 0.056107372 0.28872934
-0.14331637 0.056066368 0.28864664
-0.1429884 0.055967342 0.28852114
-0.14264993 0.055997048 0.2885884
-0.14224806 0.056165438 0.28891203
-0.14161754 0.056542069 0.28952366
-0.14098907 0.057046179 0.29030678
-0.14066955 0.057331342 0.29069522
-0.1404098 0.057532795 0.29098868
-0.14010525 0.057639886 0.29108346
-0.1398107 0.057684921 0.29112405
-0.13921708 0.057795517 0.291291
-0.13853897 0.057771873 0.29126614
-0.025856651 0.039139751 0.20594697
-0.025849767 0.039123241 0.20595719
-0.025847042 0.039104715 0.20596391
-0.025840696 0.039105486 0.20596713
-0.025833905 0.039047237 0.20598058
-0.025824958 0.039029889 0.20599157
-0.025822347 0.039010432 0.20599726
-0.025816003 0.038971707 0.20600697
-0.025811438 0.038932879 0.20601767
-0.025805019 0.038832463 0.20603476
-0.025793312 0.038793277 0.20603897
-0.025783667 0.038753659 0.20604034
-0.019661585 0.052929722 0.26968917
-0.019633828 0.052884057 0.26972592
-0.0196201 0.052855067 0.2697238
-0.019608108 0.052872412 0.26974607
-0.019575272 0.052771099 0.2698079
-0.019550471 0.052700881 0.26985666
-0.019515935 0.052670661 0.2698971
-0.019503491 0.052614585 0.26991153
0.026920652 0.057333946 0.27444425
0.027145144 0.05741531 0.27449715
0.02732903 0.057433117 0.27449262
0.027510928 0.057430383 0.27450767
0.027664434 0.057377312 0.27452928
-0.18205787 0.055698846 0.29874679
-0.18201938 0.055689681 0.29874077
-0.18225691 0.055712283 0.29878309
-0.18237962 0.055698115 0.29880378
-0.18229884 0.055702481 0.29879037
-0.18197727 0.055687957 0.29873422
-0.18157129 0.055669367 0.29865912
-0.18119751 0.055649083 0.29858807
-0.18081605 0.055648286 0.29849926
-0.18021911 0.055639431 0.29835626
-0.17943111 0.055703156 0.29816598
-0.17899257 0.055713583 0.29809248
-0.17879276 0.055719975 0.29805973
-0.17871375 0.055720612 0.29804659
-0.1784748 0.055749513 0.29801166
-0.17792758 0.055759899 0.29791859
-0.17729513 0.055801921 0.29785368
-0.17611903 0.055904817 0.29770976
-0.17471962 0.056043569 0.29751906
-0.17344877 0.056190848 0.29733175
-0.17241324 0.056273073 0.29710713
-0.1716512 0.056325067 0.29694757
-0.17127217 0.056377072 0.2968618
-0.1708041 0.0564036 0.29677108
-0.17038628 0.056430005 0.29669851
-0.16985177 0.056472879 0.29661247
-0.1693601 0.056497257 0.29654607
-0.16870132 0.056503147 0.29645318
-0.16804712 0.05653964 0.29635915
-0.16744441 0.05659816 0.29628739
-0.16689348 0.056655414 0.29623207
-0.16644853 0.056681678 0.29616612
-0.16596512 0.056742657 0.2960926
-0.16559914 0.056789953 0.29603228
-0.16502944 0.056804299 0.29593915
-0.16462067 0.056867823 0.29584882
-0.1640491 0.056914363 0.29573962
-0.16352524 0.056964915 0.29564291
-0.16315621 0.056990046 0.29558098
-0.1628065 0.057046607 0.29555792
-0.16247547 0.057076126 0.29550123
-0.1620957 0.057094276 0.29542813
-0.16165933 0.05710898 0.29531544
-0.16122042 0.057148717 0.29518187
-0.16092159 0.057154905 0.29508075
-0.16053614 0.057120539 0.29491243
-0.15981594 0.057159603 0.2947464
-0.15680036 0.057123579 0.29371646
-0.15241833 0.056792185 0.29172301
-0.1476783 0.055836935 0.28780907
-0.14608848 0.055108946 0.28586766
-0.14578152 0.054804232 0.28521231
-0.14571434 0.054673221 0.28473869
-0.1456522 0.054380018 0.28445128
-0.14559782 0.054462302 0.28466281
-0.14545093 0.054658744 0.28519061
-0.14525245 0.054838706 0.28575471
-0.14493337 0.05500003 0.28631631
-0.14475726 0.05502405 0.28658083
-0.1446057 0.055165026 0.2868875
-0.14444011 0.055510174 0.28729063
-0.14428397 0.055961221 0.28781962
-0.14421375 0.05616954 0.28848749
-0.14393049 0.056312807 0.28884226
-0.14365387 0.056340575 0.28891805
-0.14331102 0.056346212 0.28891516
-0.14295262 0.056342911 0.28888586
-0.14257921 0.05637522 0.28895026
-0.14208245 0.056531612 0.28922844
-0.14116044 0.057021573 0.29011843
-0.14085156 0.057277575 0.29054797
-0.1406032 0.057487182 0.29084867
-0.14028516 0.057691585 0.2911194
-0.14000435 0.057752505 0.29117152
-0.13963072 0.057764947 0.2911357
-0.13907532 0.057805963 0.29116425
-0.13834073 0.057839263 0.29125828
-0.13756824 0.058017015 0.29140902
-0.1369227 0.058094639 0.29145843
-0.13617259 0.058201231 0.29149085
-0.13559984 0.058336511 0.2915082
-0.13507195 0.05835611 0.29147393
-0.0258864 0.039450668 0.20586957
-0.025883753 0.039471462 0.20586713
-0.025873519 0.039453428 0.20587459
-0.025868313 0.039433785 0.20587853
-0.025860436 0.039396126 0.20589009
-0.025852624 0.039358616 0.20590232
-0.025844861 0.039320096 0.20591225
-0.025838785 0.03928135 0.20592266
-0.025834408 0.039242402 0.2059336
-0.025831636 0.039203033 0.2059442
-0.025823597 0.039104186 0.20596628
-0.019707134 0.053492595 0.26960236
-0.019682504 0.053394068 0.26960632
-0.01967627 0.053421557 0.26961306
-0.019656889 0.053340428 0.26965803
-0.019628838 0.053338125 0.26969147
-0.019608432 0.053301759 0.26971039
-0.019556837 0.053213309 0.26977697
-0.019545048 0.053158611 0.26979217
0.026870944 0.057603113 0.27435943
0.027022947 0.057642467 0.27437174
0.02718382 0.057667971 0.27437156
0.027354242 0.05773161 0.27434719
0.027500737 0.057716522 0.27434602
0.027690768 0.057715841 0.27439925
-0.18328564 0.055730272 0.29892659
-0.1817309 0.055697199 0.2986834
-0.18119569 0.055667378 0.29857928
-0.18081605 0.055648286 0.29849926
-0.1801338 0.055653438 0.29832736
-0.17938985 0.055708848 0.29815805
-0.17891091 0.055721924 0.29808158
-0.17887023 0.05572949 0.29807258
-0.17875074 0.055737879 0.29805619
-0.17851056 0.055757314 0.29802021
-0.17816299 0.055776954 0.2979686
-0.17730325 0.055821244 0.29785824
-0.1762009 0.055913888 0.29773635
-0.17452525 0.056083493 0.29750195
-0.17279628 0.056273378 0.29719272
-0.17186649 0.0563442 0.29698026
-0.17123111 0.05638545 0.29685053
-0.17076235 0.056409553 0.29676101
-0.17046966 0.056453303 0.29671055
-0.1700583 0.056486718 0.29664379
-0.16951902 0.056497104 0.2965647
-0.16898789 0.056513678 0.29649204
-0.16804597 0.056548428 0.29635757
-0.16732472 0.056603517 0.29626843
-0.16677088 0.056668099 0.29621401
-0.16652696 0.056692984 0.29617098
-0.16608477 0.056728154 0.29611263
-0.16584668 0.056773141 0.29607239
-0.16543727 0.056795128 0.29600465
-0.16482636 0.05683751 0.2958951
-0.16442658 0.056908466 0.29582271
-0.16388734 0.056938138 0.29570386
-0.16348732 0.056975599 0.29563701
-0.16312054 0.057007518 0.29557818
-0.16280653 0.057046611 0.29555795
-0.1624373 0.057092495 0.29549888
-0.1621484 0.057107888 0.29545814
-0.16161892 0.057122834 0.29530898
-0.16108762 0.057147797 0.29511157
-0.16079871 0.057182346 0.2950545
-0.16037236 0.057136882 0.29486656
-0.15942569 0.057219014 0.2945962
-0.15578143 0.057158384 0.29342154
-0.15189466 0.056731082 0.29126778
-0.14719041 0.056072801 0.28716853
-0.14609811 0.055586621 0.28565365
-0.14584008 0.055251427 0.28510565
-0.14574252 0.055081908 0.28474924
-0.14569966 0.054912128 0.28458568
-0.14561662 0.054929733 0.28476524
-0.14550398 0.05507347 0.28515401
-0.14526619 0.055224523 0.28570375
-0.144931 0.055365156 0.28623781
-0.14477144 0.055485372 0.28671044
-0.14458004 0.05571983 0.28711703
-0.14447701 0.056073543 0.28764513
-0.14439495 0.056272246 0.28805217
-0.14422065 0.056347419 0.28863585
-0.1439435 0.056542382 0.28911895
-0.1436141 0.056582998 0.28920957
-0.14319982 0.0565795 0.28918561
-0.14288594 0.056613091 0.2892153
-0.14242865 0.056659069 0.28927475
-0.14165606 0.056971185 0.28983289
-0.14107797 0.057256106 0.29040763
-0.14069894 0.057481717 0.29074341
-0.14054911 0.057634786 0.2909323
-0.1402137 0.057745568 0.29111788
-0.13985926 0.057810813 0.29116201
-0.13943584 0.05783242 0.29115966
-0.13889822 0.057890542 0.29116955
-0.13804746 0.057919741 0.29126593
-0.13740945 0.058030039 0.29139921
-0.13677974 0.058134485 0.29145902
-0.13623105 0.058239337 0.2915127
-0.135535 0.058358669 0.29149905
-0.13497269 0.058393866 0.29145208
-0.13446644 0.058400705 0.29140744
-0.13383576 0.058419839 0.29135269
-0.13305601 0.058438919 0.29126301
-0.13223295 0.058482051 0.29115734
-0.1312827 0.058603626 0.29101223
-0.1306555 0.058676239 0.29088885
-0.12996185 0.058723014 0.29076621
-0.12940732 0.058751591 0.29067868
-0.12885052 0.058765523 0.29059839
-0.12843274 0.058788341 0.29053834
-0.12789997 0.058805898 0.29046035
-0.12772641 0.05881501 0.29043821
-0.12736477 0.058813222 0.29038438
-0.12664436 0.058852263 0.29027638
-0.12579496 0.05884815 0.29014355
-0.12453427 0.058882065 0.28992069
-0.12369264 0.058917835 0.28977969
-0.12299433 0.058935925 0.28967959
-0.025915643 0.039719749 0.20580219
-0.025912631 0.039741948 0.20579699
-0.025904238 0.039761294 0.2057918
-0.025895419 0.039723724 0.20580183
-0.025891243 0.039704155 0.20580648
-0.025881914 0.039665457 0.20581503
-0.025874268 0.039626598 0.20582429
-0.025868364 0.039587639 0.20583454
-0.025864186 0.039548516 0.20584546
-0.025856415 0.039490212 0.20586088
-0.019753817 0.0539538 0.26950037
-0.019727416 0.053916257 0.26952562
-0.019703871 0.053837899 0.26957089
-0.019686591 0.053839557 0.26956978
-0.019664908 0.053813431 0.26957533
-0.019647455 0.053831767 0.26959953
-0.019607488 0.053768788 0.26966542
-0.019575974 0.053810466 0.26969373
0.026993718 0.057735052 0.27434143
0.027155463 0.05784145 0.27433357
0.027260914 0.057897575 0.2742798
0.027415533 0.057932585 0.27426997
0.027515184 0.057976767 0.27427122
0.027652092 0.057976935 0.27433541
-0.18209352 0.055712037 0.29875365
-0.18119566 0.055667363 0.29857925
-0.18077274 0.055657212 0.29848206
-0.17102021 0.056406263 0.29680616
-0.17063726 0.056422994 0.29673412
-0.17034577 0.056464337 0.29668397
-0.16997552 0.056494351 0.29662636
-0.16944019 0.056520466 0.29655242
-0.16857331 0.056527674 0.296426
-0.16743566 0.056624278 0.29627082
-0.16652694 0.056692984 0.29617089
-0.16608234 0.056755111 0.29610527
-0.16576372 0.056770783 0.29605949
-0.16559915 0.056789953 0.29603225
-0.16552007 0.056809712 0.29601875
-0.16527613 0.056814749 0.29597634
-0.16474402 0.056851856 0.29587427
-0.16442659 0.056908458 0.29582271
-0.16389565 0.056949828 0.2957176
-0.1634955 0.056999337 0.29565144
-0.16309771 0.057043705 0.29558507
-0.1628065 0.057046596 0.29555798
-0.162488 0.057087719 0.29552996
-0.16207038 0.057138983 0.29545105
-0.16153577 0.057127174 0.29529411
-0.16110016 0.057154752 0.29514098
-0.16079873 0.057182346 0.2950545
-0.1605407 0.057200115 0.29495716
-0.15915006 0.0572755 0.29455957
-0.15555185 0.057183471 0.29333875
-0.15118983 0.056679446 0.29089743
-0.14686304 0.056212973 0.28673089
-0.14613454 0.055996679 0.28541458
-0.14587799 0.05565023 0.28489715
-0.14579646 0.055419117 0.28463778
-0.14573069 0.055308551 0.28458738
-0.14565106 0.055308931 0.28473124
-0.14554155 0.055445042 0.28510502
-0.14525442 0.055605114 0.28565297
-0.14493795 0.05572946 0.28618363
-0.14475992 0.05582111 0.28676501
-0.14465237 0.056185689 0.28738734
-0.1445656 0.056348238 0.28782851
-0.14439107 0.056462899 0.28834814
-0.14418781 0.056580521 0.28897583
-0.14386883 0.056772746 0.28938329
-0.14341512 0.056926057 0.2896516
-0.14302389 0.056894861 0.2895284
-0.14267813 0.056970507 0.28964445
-0.14203379 0.057084672 0.28986168
-0.14133345 0.057269368 0.29028809
-0.14094734 0.057393111 0.29052338
-0.14067897 0.057590771 0.2908093
-0.14036715 0.057703231 0.29095033
-0.14014363 0.057751726 0.29109147
-0.13970388 0.057820216 0.29115677
-0.13925388 0.057885043 0.29114479
-0.13876699 0.057924192 0.29114085
-0.13800953 0.057989631 0.29128549
-0.13732047 0.05808698 0.29142424
-0.13670276 0.058171101 0.29148105
-0.13612229 0.058297135 0.29152703
-0.13547111 0.05837195 0.29148608
-0.13503057 0.058406614 0.2914463
-0.13433796 0.05842926 0.29139203
-0.13369843 0.05844878 0.29132983
-0.13285296 0.058464173 0.29123238
-0.13206215 0.058532856 0.29113847
-0.13114156 0.058632247 0.29098362
-0.13047922 0.058678724 0.29085743
-0.12985891 0.05874316 0.29074571
-0.12937042 0.058768161 0.29066676
-0.12887903 0.05877934 0.29059595
-0.12838937 0.058787063 0.2905288
-0.12796623 0.058816526 0.29046881
-0.12750082 0.058814716 0.29040429
-0.12707385 0.058847677 0.29034173
-0.12641306 0.058852315 0.29024112
-0.12546627 0.058902107 0.29007572
-0.12431522 0.058917895 0.28988212
-0.12350655 0.058950897 0.28975207
-0.12295289 0.058957051 0.28967369
-0.12238977 0.058965068 0.28959242
-0.12186126 0.058979917 0.28951302
-0.12117446 0.05901517 0.28941473
-0.025950391 0.040066563 0.20572089
-0.025938783 0.040049907 0.20572363
-0.025931198 0.0400314 0.20572338
-0.025925571 0.039993163 0.20573094
-0.025921531 0.039973587 0.20573555
-0.025912084 0.039990935 0.20573418
-0.025904613 0.039951958 0.20574312
-0.025892837 0.0398941 0.20575638
-0.025888797 0.039854743 0.20576717
-0.019812874 0.054527503 0.26945472
-0.019772923 0.054503772 0.26948392
-0.019748282 0.054451365 0.26947647
-0.019735703 0.054425441 0.26947111
-0.019713387 0.054334078 0.26948634
-0.019684307 0.054382589 0.26952013
-0.019632304 0.054378241 0.26956421
0.027054921 0.05793155 0.27430016
0.027235642 0.058049805 0.27433357
0.02732229 0.058060009 0.27426004
0.02745245 0.058146585 0.27427822
0.027563449 0.058209874 0.27428439
0.02773281 0.058219545 0.27429587
-0.16599627 0.056768473 0.29608181
-0.16540058 0.056833498 0.29599866
-0.16524456 0.056867745 0.29597452
-0.16548119 0.056820977 0.29601166
-0.16552009 0.056809708 0.29601875
-0.16548121 0.056820966 0.29601163
-0.16515985 0.056862574 0.29596135
-0.16439132 0.056923956 0.29581779
-0.16390568 0.056977868 0.29572916
-0.16342203 0.057019904 0.29564655
-0.16297765 0.057049077 0.29558119
-0.16265394 0.057087235 0.29553968
-0.1623677 0.057106327 0.295506
-0.16198997 0.057155248 0.29543111
-0.16156311 0.057181846 0.29534194
-0.16123925 0.057165179 0.29518941
-0.16093925 0.05719275 0.29510364
-0.16063885 0.057203397 0.29501131
-0.15929157 0.057271153 0.29463252
-0.15543994 0.057193074 0.2933172
-0.15053287 0.056669116 0.2903333
-0.1466804 0.05643516 0.28633574
-0.14615804 0.056357898 0.28521991
-0.14592268 0.056042366 0.28470504
-0.14588043 0.055735674 0.28434673
-0.14583266 0.055631056 0.2842795
-0.14570846 0.05567703 0.28462335
-0.14560167 0.05579054 0.28500468
-0.14531346 0.055971008 0.28555009
-0.14494547 0.056133926 0.28614095
-0.14476578 0.056298219 0.28679809
-0.1446704 0.056464218 0.28763691
-0.14454576 0.056627341 0.28817534
-0.14440282 0.0568018 0.28898969
-0.14412819 0.056999281 0.28955138
-0.1437829 0.0570862 0.28976798
-0.1433107 0.057106808 0.2897428
-0.14286876 0.057119403 0.28980172
-0.14245068 0.057228494 0.28991655
-0.14181127 0.057330362 0.29017156
-0.14117359 0.057450626 0.29046744
-0.14087237 0.057561453 0.29064506
-0.14062847 0.057655077 0.2908631
-0.14034969 0.057709828 0.29092747
-0.1399992 0.057843342 0.29101041
-0.13955405 0.0578871 0.29115832
-0.13918337 0.05791698 0.29115671
-0.13853063 0.058022592 0.29119501
-0.13778059 0.058071405 0.29131958
-0.13718122 0.058126885 0.29143965
-0.13654783 0.058236592 0.29152581
-0.1359387 0.05833865 0.29152536
-0.13550067 0.05837765 0.29148468
-0.13496324 0.058430284 0.29142877
-0.1342722 0.058460407 0.29138178
-0.13360038 0.058483411 0.29132545
-0.13272665 0.058493745 0.29123068
-0.13192865 0.058560967 0.29112586
-0.1309678 0.058669928 0.29094365
-0.13027476 0.058722988 0.29081672
-0.12975428 0.058758669 0.29072458
-0.12940253 0.058773473 0.29066756
-0.12884131 0.058793057 0.29058677
-0.12828043 0.058820188 0.29050893
-0.12781835 0.058829509 0.2904464
-0.12735562 0.05884048 0.29037896
-0.12677564 0.058852706 0.29029408
-0.12600289 0.058875952 0.29017431
-0.12505177 0.058903337 0.29000917
-0.12409408 0.05895815 0.28984299
-0.12324047 0.058968391 0.28971845
-0.12260716 0.05898311 0.28962439
-0.12223555 0.058983196 0.28956586
-0.1217776 0.059011135 0.28949621
-0.12124605 0.059011519 0.28942496
-0.12059303 0.059041388 0.28934273
-0.12001299 0.059068449 0.28927153
-0.11946473 0.059088651 0.28919831
-0.11871151 0.059137564 0.28907624
-0.11805926 0.059178039 0.28895935
-0.11739499 0.059217807 0.28883502
-0.11685366 0.059237938 0.28874519
-0.11622301 0.059250195 0.28864831
-0.11546727 0.05930588 0.28852412
-0.11491158 0.059334729 0.28845376
-0.025981301 0.040393077 0.20564777
-0.025970401 0.040394664 0.20564626
-0.025963405 0.040357172 0.20564879
-0.025957711 0.040319193 0.20565531
-0.025945654 0.040262416 0.20566659
-0.025936829 0.040223636 0.2056751
-0.025928954 0.040203143 0.20568265
-0.025921728 0.040183097 0.20568964
-0.019873748 0.055139378 0.26940718
-0.019826341 0.055116087 0.26943019
-0.019791 0.055039518 0.26942
-0.019760447 0.054955419 0.26941353
-0.01973059 0.054879185 0.26941583
-0.019692367 0.054947037 0.26945552
-0.01966258 0.054935556 0.26949
0.027164701 0.058086518 0.27438575
0.027309522 0.058210276 0.27435908
0.027486701 0.058299541 0.2742976
0.027575063 0.058336712 0.27425826
0.027655145 0.058432367 0.2742652
0.027886806 0.058550805 0.27433211
-0.16496706 0.056911562 0.29593521
-0.1653242 0.056854326 0.29598609
-0.1660464 0.056796048 0.29609126
-0.16619954 0.056790732 0.29610348
-0.16536413 0.056847937 0.29599279
-0.16468576 0.05691608 0.29588643
-0.1639217 0.057010468 0.29575479
-0.16331202 0.05705199 0.29563385
-0.16302373 0.057065833 0.29560179
-0.16265985 0.057110853 0.29555336
-0.16229324 0.057136919 0.29549956
-0.16190781 0.057167429 0.29542235
-0.16153191 0.057201743 0.29535577
-0.16145314 0.057204604 0.29532629
-0.1612094 0.057244215 0.29528078
-0.16091919 0.057217158 0.29516023
-0.15955763 0.057293076 0.29474327
-0.15510876 0.05723311 0.2931287
-0.14951344 0.056651216 0.28952116
-0.14657842 0.056944706 0.2857253
-0.14614445 0.056686975 0.28496069
-0.14601071 0.056330379 0.28438264
-0.14598012 0.056068614 0.2840215
-0.14590861 0.055975679 0.28392348
-0.14578368 0.056025784 0.28431109
-0.1456715 0.056134097 0.28482687
-0.1453408 0.056331862 0.2854808
-0.14500079 0.056569498 0.28610176
-0.14481586 0.056676038 0.28693295
-0.14475833 0.056689896 0.2879101
-0.14461027 0.056944195 0.2891272
-0.14440349 0.057183579 0.28999341
-0.14404 0.057240687 0.29010853
-0.14372222 0.057240598 0.29001394
-0.14317323 0.057251513 0.28987616
-0.14280887 0.057301532 0.28977147
-0.14232004 0.05737542 0.28997934
-0.14163162 0.057527952 0.29038486
-0.14112309 0.057661589 0.29067373
-0.14077052 0.057738278 0.2908546
-0.14049503 0.057820022 0.29101405
-0.14031334 0.057829138 0.29101047
-0.1399471 0.057874475 0.29099756
-0.13949496 0.057934593 0.29103535
-0.13887575 0.058039989 0.29122087
-0.13844469 0.058072019 0.2912201
-0.1377697 0.058096856 0.29134652
-0.13709968 0.058186308 0.29149222
-0.13639382 0.058273025 0.29151762
-0.13578652 0.058377482 0.2915104
-0.13534355 0.058410093 0.29146335
-0.13489684 0.058437761 0.29141879
-0.13426729 0.05846449 0.29137477
-0.13356557 0.058489874 0.29131994
-0.13262478 0.058514979 0.29121697
-0.13148728 0.058627658 0.29104638
-0.13069463 0.05870546 0.29089534
-0.13013998 0.058754455 0.29078704
-0.12964931 0.058776561 0.29070592
-0.12926558 0.058795646 0.29064173
-0.12880489 0.058812469 0.29057628
-0.12824057 0.058822833 0.2905007
-0.1276722 0.058842041 0.29042318
-0.12698783 0.058850769 0.29032287
-0.12640703 0.058865868 0.29023746
-0.12571049 0.058900598 0.29011995
-0.12475716 0.058959443 0.28994897
-0.12382887 0.058971271 0.28981149
-0.12308976 0.058973689 0.28969944
-0.12249147 0.05899005 0.28960848
-0.12203868 0.058995713 0.28953424
-0.12173595 0.059008267 0.28948981
-0.12116278 0.059035566 0.28940931
-0.12062699 0.059051655 0.28934407
-0.12001299 0.059068453 0.28927153
-0.11942296 0.059094649 0.28919113
-0.11882633 0.059124451 0.28909856
-0.11809857 0.059174143 0.28896707
-0.117395 0.059217811 0.28883502
-0.11681148 0.059248161 0.28873622
-0.11621721 0.059273615 0.28864354
-0.11541918 0.059317008 0.28852159
-0.11499124 0.059346892 0.2884669
-0.11443933 0.059383005 0.28839028
-0.11392716 0.059430711 0.28832245
-0.11310794 0.059481326 0.28822604
-0.1123685 0.059535667 0.28814024
-0.026015894 0.040732976 0.20557404
-0.026013069 0.040734977 0.20557304
-0.026000597 0.040736921 0.20557204
-0.025994305 0.040662721 0.20558077
-0.025987936 0.040625297 0.20558774
-0.025977815 0.040586893 0.20559601
-0.025969267 0.040548239 0.20560454
-0.025955122 0.040511061 0.20561501
-0.019958362 0.055834081 0.26940572
-0.0198691 0.055723213 0.2693896
-0.019828865 0.055655457 0.26936641
-0.019790327 0.055548653 0.26936471
-0.019749932 0.055447068 0.2693696
-0.019700235 0.055514533 0.26940975
-0.019680908 0.055503815 0.26940507
0.027273707 0.058231436 0.27442998
0.02736959 0.058359016 0.27434924
0.027542083 0.058515567 0.27424356
0.02768665 0.05859397 0.27423638
0.027920036 0.058772594 0.2743994
0.028079838 0.058861129 0.27441716
0.028158411 0.058859751 0.274479
-0.16586868 0.056855287 0.29603803
-0.16485339 0.056939699 0.29592013
-0.16137831 0.057232119 0.29531315
-0.16120937 0.057244208 0.29528078
-0.16100745 0.057261921 0.29525697
-0.15883261 0.057321154 0.29446167
-0.15352295 0.057161365 0.29233488
-0.14773054 0.056881845 0.28739226
-0.14643256 0.057370849 0.28522292
-0.14620209 0.057142168 0.28459719
-0.14616212 0.056767076 0.28395352
-0.14608546 0.056517512 0.28358808
-0.14601891 0.05642359 0.28354147
-0.14589287 0.056409035 0.28395984
-0.14573535 0.056549005 0.28468412
-0.14540659 0.056795128 0.28543463
-0.14505228 0.057021607 0.28618142
-0.14483744 0.05682835 0.28729269
-0.14493248 0.057043463 0.28838676
-0.14484827 0.057256736 0.29036835
-0.14447679 0.057353299 0.29053193
-0.14395367 0.057314001 0.29034138
-0.14347927 0.057375506 0.28978029
-0.14318052 0.057348806 0.28950703
-0.1427184 0.05744442 0.28961709
-0.14210339 0.057537787 0.29002875
-0.14147201 0.057663813 0.29047236
-0.14100155 0.057777047 0.29091543
-0.14066362 0.0578456 0.29104388
-0.14045273 0.057868969 0.29104573
-0.1401612 0.057913959 0.29105932
-0.13979703 0.057931229 0.29102355
-0.13937671 0.05796485 0.29102463
-0.13875446 0.05807526 0.29120585
-0.13834569 0.058131751 0.29127342
-0.13770239 0.058170144 0.29141948
-0.13702843 0.058225457 0.29152164
-0.13628845 0.058322839 0.29154322
-0.13562991 0.058390707 0.29149187
-0.13508952 0.058441125 0.29143533
-0.13452215 0.058497049 0.29138458
-0.13388507 0.058511451 0.29133657
-0.13318165 0.058527619 0.29128164
-0.13242619 0.058549527 0.29119608
-0.13128451 0.058658544 0.29100728
-0.13055809 0.058723103 0.29086688
-0.13000129 0.058772363 0.29075873
-0.12958127 0.058788333 0.29069224
-0.12922819 0.058815308 0.2906318
-0.12876876 0.058817696 0.29057038
-0.12817053 0.058837462 0.29048792
-0.12752911 0.058848228 0.29039976
-0.12684491 0.058871299 0.29030105
-0.12607653 0.058911297 0.2901783
-0.12538025 0.05893397 0.2900593
-0.12449183 0.058972102 0.28991419
-0.12375625 0.058986925 0.28979972
-0.12301412 0.058990002 0.28969112
-0.12248772 0.059003413 0.2896086
-0.12203316 0.059008714 0.28953329
-0.12161452 0.059031717 0.28946915
-0.12111697 0.05905633 0.28940037
-0.12062474 0.059070032 0.28933746
-0.11993565 0.059087414 0.28925857
-0.11934418 0.059113573 0.2891767
-0.11882634 0.059124459 0.28909856
-0.11813796 0.059167918 0.2889756
-0.11755926 0.059223991 0.28885937
-0.11705744 0.059261065 0.28876641
-0.11637915 0.059298061 0.28866002
-0.1155416 0.059334666 0.2885412
-0.11494853 0.059357248 0.28846249
-0.11443643 0.059392307 0.28838995
-0.1138358 0.059434913 0.28831232
-0.11309793 0.059497569 0.28822398
-0.11227593 0.059562672 0.28813007
-0.11165988 0.05961746 0.28805566
-0.11116751 0.059637975 0.28798327
-0.11081206 0.059678115 0.28793719
-0.11026949 0.059726328 0.28785223
-0.1095941 0.0597778 0.28775084
-0.10878641 0.059819628 0.28763351
-0.10804314 0.059891343 0.28754711
-0.10722035 0.059953593 0.28745207
-0.10635825 0.059999559 0.28734991
-0.10563374 0.060038738 0.2872678
-0.09628471 0.060384389 0.28536364
-0.095711455 0.060432673 0.28527141
-0.095369808 0.060441807 0.28520823
-0.09509901 0.060466349 0.28517088
-0.094420157 0.060504504 0.28505111
-0.093452543 0.060501534 0.28489825
-0.092231877 0.060530655 0.28467879
-0.026046477 0.041071218 0.20549658
-0.026042741 0.041073423 0.20549572
-0.026037455 0.041075647 0.20549504
-0.026025148 0.040983491 0.20550893
-0.026018925 0.040946577 0.20551641
-0.026015244 0.040927134 0.20552087
-0.026008729 0.040926244 0.20552433
-0.020021627 0.056444731 0.26934752
-0.019927399 0.056359198 0.26934332
-0.019870395 0.056318171 0.26932254
-0.019803856 0.056187 0.26933232
-0.019780586 0.056249194 0.26929441
-0.019706482 0.056228381 0.26934999
-0.019633835 0.056260902 0.26936835
0.027202148 0.058284916 0.27447265
0.027405681 0.058484163 0.27445903
0.027549949 0.058687557 0.27436042
0.027723435 0.058863446 0.27432409
0.027870841 0.058965594 0.2742871
0.028031662 0.058974937 0.27440065
0.028140794 0.059014797 0.27441341
0.028210005 0.05902943 0.27448484
-0.14686388 0.057559602 0.28549469
-0.14641359 0.057664245 0.2847122
-0.14634275 0.057465203 0.28397328
-0.14634332 0.057196006 0.28345349
-0.14623767 0.057032116 0.28320295
-0.14613669 0.056985166 0.2833316
-0.14601901 0.056910872 0.28364447
-0.14578052 0.057003338 0.28463739
-0.14548486 0.057257995 0.28542298
-0.14510749 0.0573911 0.28614369
-0.14488623 0.057081241 0.28738049
-0.14496024 0.057202373 0.28942558
-0.1450381 0.057388213 0.29070443
-0.14448181 0.057458282 0.29073077
-0.14389095 0.057372663 0.29024982
-0.14352868 0.057414662 0.28939101
-0.14315051 0.057429418 0.28919518
-0.14276703 0.057493079 0.28939185
-0.14206423 0.057667192 0.29004008
-0.14130314 0.057807513 0.29055157
-0.14091229 0.057829086 0.29101148
-0.1406552 0.05788517 0.29105353
-0.14045869 0.057929594 0.29112145
-0.14007306 0.057984237 0.29112822
-0.13968435 0.058028866 0.29112267
-0.13917929 0.058075197 0.29113251
-0.13875575 0.058109861 0.29123524
-0.13824804 0.058191065 0.29134324
-0.1377175 0.058201734 0.29144049
-0.13695288 0.058256675 0.29154751
-0.13614157 0.058360048 0.29154336
-0.1355689 0.058408726 0.29148525
-0.13496763 0.058455609 0.29142946
-0.13449147 0.058496863 0.2913821
-0.13379376 0.058514796 0.29133752
-0.13315189 0.058538597 0.29128385
-0.13230687 0.058604747 0.29119179
-0.1312172 0.058675099 0.29099101
-0.13052994 0.058758605 0.29085058
-0.12989616 0.05878124 0.29074076
-0.12947892 0.058807608 0.29067078
-0.12909278 0.058821872 0.29061282
-0.12863328 0.058845107 0.29054722
-0.12817267 0.058846682 0.29048994
-0.12738967 0.058861218 0.29038352
-0.12666039 0.058891449 0.29027137
-0.12593146 0.058928154 0.29015142
-0.12526919 0.05896249 0.29003769
-0.12441942 0.05898748 0.28990173
-0.12375452 0.059005655 0.2898044
-0.1230877 0.05900763 0.28970075
-0.12248715 0.059022777 0.28960547
-0.1220692 0.059012767 0.28953797
-0.12161452 0.059031721 0.28946918
-0.12108106 0.059063915 0.28939426
-0.12054738 0.05907945 0.28932604
-0.12004837 0.059113175 0.28926408
-0.11938235 0.059135146 0.28917488
-0.11878373 0.059146382 0.28908497
-0.11821657 0.059181411 0.28898296
-0.1175612 0.059235349 0.28885204
-0.11697363 0.059272707 0.28874841
-0.11633611 0.05930822 0.28865391
-0.11558231 0.05933946 0.28854659
-0.11494971 0.059372101 0.28845924
-0.11439271 0.059402112 0.28838393
-0.11379142 0.059444401 0.28830564
-0.11309793 0.059497576 0.28822398
-0.11231846 0.059563305 0.28813419
-0.11161645 0.05962519 0.28805113
-0.11108038 0.059673838 0.28797403
-0.11076301 0.059704114 0.2879329
-0.11013364 0.059761357 0.28784367
-0.10932258 0.05980112 0.28771606
-0.10856863 0.059857666 0.28760889
-0.10778151 0.059902657 0.28751644
-0.10704858 0.059969317 0.28742823
-0.10619135 0.060040768 0.28732467
-0.10546663 0.060076609 0.28723985
-0.10475573 0.060081895 0.28716692
-0.10415952 0.060111128 0.28707942
-0.10336061 0.060154736 0.28695247
-0.10273447 0.06018566 0.28684038
-0.10229062 0.060218774 0.28674683
-0.10171927 0.06025232 0.28662837
-0.10090348 0.060296074 0.28647411
-0.10021649 0.060324885 0.28631482
-0.099343948 0.060329188 0.28608078
-0.098915659 0.060335021 0.28596404
-0.098679624 0.060332883 0.28590783
-0.098296657 0.060350388 0.28580272
-0.097763956 0.060359083 0.28567088
-0.097056463 0.060365725 0.28550962
-0.096260794 0.060408257 0.28536439
-0.095715493 0.060433298 0.28527626
-0.095214657 0.060473893 0.28519654
-0.09492749 0.06048473 0.2851429
-0.094290145 0.06051828 0.28503498
-0.093326725 0.060523331 0.28488222
-0.09213762 0.060538542 0.28466657
-0.091189839 0.060551479 0.28446576
-0.090548888 0.060597062 0.28433827
-0.09012758 0.0606171 0.28426763
-0.089671344 0.060640421 0.28419641
-0.089181483 0.060671419 0.28411752
-0.026076153 0.041386772 0.20542048
-0.026072536 0.041371394 0.20542033
-0.026066696 0.041356303 0.20542096
-0.026059806 0.041319918 0.20542859
-0.026054734 0.041300733 0.20543322
-0.026048673 0.041264348 0.2054415
-0.026039174 0.041226294 0.20545045
-0.020059807 0.056898672 0.26926169
-0.01997599 0.056912459 0.26926652
-0.019897508 0.05688332 0.26923585
-0.019832332 0.056749932 0.26922253
-0.019785209 0.056748606 0.26923138
-0.019723529 0.056739245 0.26927099
-0.019625073 0.056773387 0.26931742
-0.019580778 0.056632757 0.26932758
0.027277656 0.058603931 0.27434352
0.027470503 0.058779098 0.27435422
0.027732803 0.058960624 0.27430704
0.027862974 0.059112746 0.27419016
0.028042099 0.059183687 0.27418974
0.028104205 0.059192792 0.27425352
0.028199449 0.059210949 0.27436024
0.028239571 0.059206426 0.27444634
0.028323384 0.059234198 0.27443159
-0.14664862 0.058153413 0.28429443
-0.14654446 0.058099467 0.28352299
-0.14648823 0.057866018 0.28330997
-0.14642449 0.057764392 0.28308836
-0.14633152 0.057655547 0.28303632
-0.14626901 0.057607695 0.28309613
-0.14616853 0.057536576 0.28340527
-0.14586248 0.05750313 0.28446949
-0.14552903 0.057686221 0.2853483
-0.14519069 0.057734821 0.28600916
-0.14498615 0.057628594 0.28684118
-0.14480442 0.057324976 0.28894824
-0.14490777 0.057460211 0.29095426
-0.14446856 0.057535302 0.29095924
-0.14371414 0.057525255 0.289848
-0.14345588 0.057527512 0.28887716
-0.14309259 0.057562035 0.28881034
-0.14266488 0.057615805 0.28920099
-0.14202884 0.057757236 0.28992903
-0.14126706 0.057844743 0.29050687
-0.14096566 0.057900663 0.29083335
-0.14061132 0.057911124 0.29107404
-0.14048572 0.057953771 0.29116133
-0.14009923 0.05800496 0.29116952
-0.1396661 0.058035478 0.29114255
-0.13917227 0.058090713 0.29116926
-0.13869929 0.058174752 0.29130936
-0.13825963 0.058223475 0.29140171
-0.13772772 0.058255851 0.29150385
-0.13692066 0.05830837 0.29158345
-0.13611609 0.058378782 0.29154214
-0.13551413 0.058433231 0.29148093
-0.13500802 0.058489282 0.29142883
-0.13446513 0.058509421 0.29138499
-0.13382985 0.058539938 0.29133764
-0.13326572 0.058581963 0.29131332
-0.13238615 0.058648832 0.29120424
-0.13140136 0.058724217 0.29101956
-0.13052993 0.058758613 0.29085058
-0.12997194 0.058786344 0.29075009
-0.12944223 0.058810856 0.29066485
-0.12895669 0.058829099 0.29059565
-0.12856792 0.058860246 0.29053566
-0.12789515 0.05886798 0.2904515
-0.12724687 0.058885228 0.29036021
-0.12648301 0.058925174 0.2902385
-0.1258616 0.05894471 0.29013771
-0.12516232 0.058985453 0.29001316
-0.12453111 0.059000678 0.28991714
-0.12379191 0.059010044 0.2898089
-0.12315972 0.059021275 0.28971425
-0.12263659 0.059032377 0.28962961
-0.12218338 0.059032034 0.28955725
-0.12173203 0.059044108 0.28948754
-0.12108091 0.059070762 0.28939378
-0.12046864 0.059084564 0.28931674
-0.11996881 0.059129201 0.28924957
-0.11934499 0.059140962 0.28916749
-0.11874207 0.059165914 0.28907284
-0.11801658 0.059219215 0.28893137
-0.1173078 0.059263825 0.28880072
-0.11671777 0.059292112 0.28870428
-0.11600009 0.059325289 0.28860119
-0.11549689 0.059342384 0.28853601
-0.11494971 0.059372097 0.28845927
-0.11444054 0.05942288 0.28838715
-0.11375035 0.059453465 0.28830099
-0.11301256 0.059519015 0.28821355
-0.11226749 0.059587743 0.28812927
-0.11170718 0.059630293 0.28806281
-0.11108058 0.059684768 0.28797454
-0.11049625 0.059724938 0.28789094
-0.10972807 0.059784681 0.28776768
-0.10892383 0.059829608 0.28765434
-0.10804316 0.059891347 0.28754714
-0.10739564 0.059962418 0.28746969
-0.10679273 0.060013629 0.28739315
-0.10606465 0.060051885 0.28730658
-0.10534873 0.060097925 0.28721905
-0.10454909 0.060117684 0.2871365
-0.1038124 0.060157906 0.28702146
-0.10314632 0.060188256 0.2869108
-0.10255931 0.060207389 0.28680721
-0.10217092 0.060233872 0.2867204
-0.10140739 0.060261138 0.28655699
-0.10055111 0.060303923 0.28637916
-0.099788211 0.060327299 0.28618938
-0.099312775 0.060343221 0.28606075
-0.098880202 0.060341533 0.28595179
-0.098612465 0.060350072 0.28587535
-0.098261513 0.060356673 0.2857908
-0.097694553 0.060374036 0.28564954
-0.096954651 0.060383186 0.285487
-0.096134119 0.060430966 0.28534845
-0.095555007 0.060466364 0.28525618
-0.095050037 0.060491692 0.28517255
-0.094654374 0.060516208 0.28510475
-0.094059937 0.060534503 0.28499874
-0.093019158 0.060555864 0.28481579
-0.092008136 0.060570177 0.28464073
-0.091103122 0.060586281 0.28444529
-0.090522319 0.060627528 0.2843309
-0.090037525 0.0606374 0.2842488
-0.089549951 0.060664345 0.28417197
-0.088987947 0.060707092 0.28407598
-0.088401414 0.060711633 0.28396502
-0.087941386 0.06072532 0.28386778
-0.087745957 0.060724765 0.28383273
-0.087385491 0.060747486 0.28375119
-0.086965404 0.060771935 0.28368473
-0.086319141 0.060830858 0.28354606
-0.085456304 0.060929481 0.2833513
-0.08488261 0.06098754 0.28323522
-0.084592745 0.061014254 0.2831921
-0.084338568 0.061036117 0.28316161
-0.083918639 0.06106564 0.28308931
-0.083465844 0.061077856 0.28302357
-0.082507007 0.061070547 0.28286794
-0.026103457 0.041700557 0.20533669
-0.026100967 0.041684546 0.2053417
-0.026095044 0.041670181 0.20534292
-0.026088269 0.041634224 0.20535088
-0.026083298 0.041615024 0.20535533
-0.026077369 0.041579116 0.20536409
-0.026067019 0.041558258 0.20537178
-0.020174418 0.057317924 0.26914787
-0.020071108 0.057329748 0.26918826
-0.019990854 0.057327323 0.26918235
-0.019917058 0.057229646 0.26915497
-0.019857945 0.057174101 0.26913854
-0.019827913 0.057112511 0.26913649
-0.019740166 0.057179328 0.26919562
-0.019653192 0.057117719 0.26922292
-0.019453542 0.057334118 0.26931807
0.027274007 0.058889654 0.27408025
0.027567819 0.059062298 0.27409229
0.027743423 0.059204839 0.27400553
0.027929226 0.059366018 0.27391034
0.028078556 0.059435274 0.27398005
0.028171217 0.059445392 0.27404961
0.028231082 0.059416372 0.27420598
0.028323257 0.0594039 0.27432254
0.028351231 0.059420168 0.27430677
0.028369905 0.059481464 0.27427664
-0.14666897 0.058551788 0.28282839
-0.14659645 0.058466941 0.28287658
-0.14654519 0.058411505 0.28290892
-0.14647493 0.058339056 0.2828044
-0.146411 0.058278695 0.28282908
-0.14636652 0.058257535 0.28292394
-0.14624277 0.058156561 0.28321993
-0.14597026 0.057994179 0.28417465
-0.14560331 0.058099948 0.28505477
-0.14527476 0.057992388 0.28573734
-0.14502004 0.058037926 0.28628722
-0.14302732 0.057674509 0.28876573
-0.14259733 0.057760403 0.2891984
-0.14186805 0.057847444 0.2899943
-0.14120032 0.057911482 0.29058027
-0.14088476 0.057935305 0.29092613
-0.13916518 0.058152441 0.2912696
-0.13866988 0.058202252 0.29135236
-0.13830151 0.058252431 0.29145908
-0.13770427 0.058301572 0.29155537
-0.1367524 0.058362722 0.29159418
-0.13612303 0.058404941 0.29153678
-0.1355558 0.058451965 0.29148364
-0.13501148 0.058494251 0.29143119
-0.13451412 0.058535703 0.29140365
-0.13398734 0.058583777 0.29137912
-0.13331024 0.058609076 0.29132193
-0.13259524 0.058681939 0.29124144
-0.13161145 0.058736391 0.29106182
-0.13067007 0.058775716 0.29087535
-0.12993905 0.058812749 0.29074189
-0.12923862 0.058850713 0.29062733
-0.12874404 0.058863096 0.29056016
-0.12832269 0.058860272 0.29051092
-0.12775083 0.058877315 0.29043269
-0.12699683 0.058888096 0.29032493
-0.1262359 0.058928546 0.2902
-0.12564841 0.05896635 0.29009435
-0.12516198 0.05899201 0.29001236
-0.12472331 0.059008453 0.28993732
-0.12394059 0.059028156 0.28983149
-0.12338556 0.059030429 0.28974548
-0.12290843 0.059027009 0.28967094
-0.12234186 0.05903367 0.28958341
-0.12177373 0.059058994 0.28949466
-0.12116318 0.059067409 0.28940454
-0.12035996 0.059099454 0.28930125
-0.11985993 0.059139997 0.28923309
-0.11927178 0.059155192 0.28915262
-0.11855473 0.059193786 0.28903091
-0.11789354 0.059228055 0.28891027
-0.11702076 0.059274282 0.28875086
-0.11625914 0.059326731 0.28863269
-0.1156674 0.059349071 0.28855616
-0.11524218 0.059363294 0.28850201
-0.11495485 0.059384916 0.28845462
-0.114482 0.059430163 0.28839418
-0.11379914 0.059475012 0.28830528
-0.11296678 0.059525784 0.28820825
-0.11214066 0.059619609 0.28811666
-0.11148269 0.059658241 0.28803822
-0.1109017 0.059701391 0.28795388
-0.11026932 0.059755486 0.28786093
-0.10945993 0.05981186 0.28774324
-0.1085283 0.059874184 0.28761011
-0.10787202 0.059924629 0.28752553
-0.10726589 0.059969287 0.28745311
-0.1066684 0.06003667 0.28737384
-0.10598336 0.060065735 0.28729296
-0.10534874 0.060097922 0.28721899
-0.10447088 0.060132515 0.28712103
-0.10373763 0.060174268 0.28700238
-0.10307116 0.060197134 0.28689519
-0.10244894 0.060228363 0.28677559
-0.10183548 0.060269192 0.28665662
-0.10111368 0.060291402 0.28650758
-0.10047714 0.060311154 0.28635579
-0.099708192 0.060335133 0.28616896
-0.099238597 0.060346454 0.28603464
-0.098844886 0.060350247 0.28593916
-0.098576315 0.060356315 0.28586316
-0.098189719 0.060369089 0.2857672
-0.097622022 0.060384426 0.28562987
-0.096745871 0.060413796 0.2854386
-0.096001267 0.060447708 0.28533813
-0.095521137 0.06046607 0.28525123
-0.094955325 0.060515523 0.28516504
-0.094351791 0.060542062 0.28505218
-0.093753703 0.06054863 0.28494936
-0.09282238 0.060559772 0.28479433
-0.09198343 0.060589109 0.28463775
-0.09116967 0.060615052 0.28446361
-0.09045881 0.060632441 0.28432164
-0.089878812 0.060657434 0.28422153
-0.08922296 0.060696725 0.28410798
-0.08859612 0.060728341 0.28398436
-0.088139564 0.060738027 0.28389618
-0.087879777 0.060749311 0.28384486
-0.087683618 0.06074382 0.28381643
