# .PCD v0.7 - Point Cloud Data file format
VERSION 0.7
FIELDS x y z
SIZE 4 4 4
TYPE F F F
COUNT 1 1 1
WIDTH 1365
HEIGHT 1
VIEWPOINT 0 0 0 1 0 0 0
POINTS 1365
DATA ascii
0.0021572399 0.029721323 0.29493824
0.010418575 0.02936748 0.29644868
0.010814748 0.029464295 0.29643425
0.011216828 0.029619515 0.2964133
0.011657144 0.029724238 0.29640523
0.012144937 0.029794959 0.29643777
0.012617699 0.029745091 0.29652351
0.013071221 0.029703289 0.2966024
0.013421311 0.029703528 0.29665565
0.013704443 0.029637003 0.29674011
0.013982637 0.029610706 0.29679343
0.014161266 0.029665906 0.29679397
0.014391017 0.029737832 0.29675999
0.01462531 0.029764403 0.29674196
0.014875061 0.02977352 0.29674733
0.015231544 0.029653192 0.29685175
0.015600057 0.029402416 0.29699194
0.016105579 0.028776608 0.29724798
0.016571019 0.028877228 0.29722828
0.016878309 0.029240005 0.29710975
0.01721062 0.029430732 0.29705897
0.017663155 0.029591305 0.2970596
0.01811282 0.029587796 0.29715097
0.018630736 0.029743295 0.29718411
0.079941511 0.029331839 0.30645964
0.080011331 0.02924186 0.30652574
0.080017708 0.029346749 0.30649394
0.080045633 0.029345337 0.30651692
0.080173701 0.029104436 0.30667859
0.080382869 0.02863339 0.30696949
0.080664292 0.027788214 0.3074376
0.080790393 0.027431954 0.30763614
-0.051105645 0.024979765 0.28972292
-0.050867721 0.024920646 0.28972229
-0.050647855 0.024925541 0.28970331
-0.050383009 0.024948942 0.28969786
-0.050128158 0.024774797 0.28983939
-0.04990853 0.02461621 0.28995904
-0.049857385 0.024679018 0.29029724
-0.049701415 0.025681792 0.29301599
-0.050876196 0.029208908 0.31409571
-0.021877322 0.025240825 0.2921854
-0.021214541 0.025389042 0.29221427
-0.020591324 0.025516111 0.29222888
-0.017923269 0.026032528 0.29238158
-0.017407682 0.026135761 0.29245088
-0.016809002 0.026258327 0.29254133
-0.016293641 0.026373344 0.29260588
-0.015736738 0.02649251 0.29267511
-0.015220201 0.026595205 0.29272816
-0.014707766 0.026705921 0.29277331
-0.014109666 0.02684146 0.29282552
-0.013465782 0.026976455 0.29287305
-0.012816226 0.027105087 0.29292572
-0.012163459 0.027221425 0.29297939
-0.011507483 0.027339198 0.29303786
-0.010852276 0.027470414 0.29309481
-0.010288595 0.027586125 0.29314318
-0.0096868193 0.027720213 0.2931726
-0.0090531465 0.027849125 0.29320806
-0.008422507 0.027991818 0.29319724
-0.0077600344 0.028098186 0.29323748
-0.0071124574 0.02819949 0.29328761
-0.0065131006 0.028305288 0.29333568
-0.0059892824 0.028416835 0.29337174
-0.0054672756 0.02852927 0.29342526
-0.0049390323 0.028623855 0.29348162
-0.0043762736 0.028736452 0.29355195
-0.0037327663 0.028858926 0.29362029
-0.0031291284 0.028982716 0.29367334
-0.0025170224 0.029107599 0.29373765
-0.0019404053 0.029221389 0.29382905
-0.0011345234 0.029380305 0.29402763
-0.00011795607 0.029529287 0.29432374
0.00073214073 0.02963558 0.29455078
0.0014870703 0.029696407 0.29474574
0.0020676411 0.029759042 0.29485798
0.0025466112 0.029811781 0.29491344
0.0030611851 0.029854788 0.29498479
0.0098868776 0.029693613 0.29631576
0.010420627 0.02969072 0.29634723
0.010766082 0.029800152 0.29631156
0.011147752 0.02997602 0.29627803
0.011596868 0.030039871 0.29627731
0.012026553 0.030079078 0.29631278
0.012521827 0.030128676 0.2963616
0.012971921 0.030110208 0.29644373
0.013279908 0.030098919 0.29648548
0.013569628 0.030057935 0.29655969
0.013839331 0.030079953 0.29659691
0.01407376 0.03008789 0.29661676
0.014334062 0.03007571 0.29665211
0.014612067 0.030073632 0.29667336
0.014940315 0.029947007 0.29677615
0.015297678 0.029807432 0.29685333
0.015801637 0.029478978 0.297005
0.016217347 0.029225387 0.29710209
0.016675686 0.029360259 0.2970838
0.016943166 0.029640138 0.29698119
0.017262449 0.029897047 0.29690322
0.017684264 0.029996075 0.29692894
0.018255848 0.030104985 0.29699537
0.079847679 0.029867658 0.30626893
0.079875186 0.029901603 0.30624932
0.079902515 0.029965665 0.3062236
0.079923153 0.030031389 0.30621928
0.080069453 0.029805088 0.30637866
0.0803103 0.029247575 0.30672249
0.080478206 0.028747167 0.30699062
0.080642827 0.02837915 0.30722058
-0.051161699 0.025719715 0.28944692
-0.050958287 0.025713703 0.28946501
-0.050744433 0.025883975 0.28940228
-0.050508235 0.025741179 0.28950006
-0.050216012 0.025490342 0.28966004
-0.050049011 0.02517895 0.28990704
-0.050075591 0.025214978 0.29027012
-0.050934125 0.029357819 0.31523404
-0.016685473 0.026289271 0.29257217
-0.016132239 0.026426574 0.29265684
-0.015577289 0.02654301 0.29270616
-0.015017766 0.026665265 0.29276082
-0.014460408 0.026789594 0.29280689
-0.013942233 0.026889913 0.29284379
-0.013296845 0.027026089 0.2928884
-0.012732868 0.027135478 0.29293343
-0.012079627 0.027251735 0.29298469
-0.011422135 0.027366875 0.29304454
-0.010809838 0.027484687 0.29309478
-0.010202558 0.027610425 0.29314414
-0.0096014217 0.027744086 0.29317114
-0.0089274729 0.02788865 0.29319629
-0.0083383517 0.028014952 0.29319203
-0.0076427716 0.028118618 0.29325643
-0.006966575 0.028235281 0.29331538
-0.0063603744 0.028360957 0.29334384
-0.0058726184 0.028454946 0.29338306
-0.0053873411 0.028552514 0.29343283
-0.0048243105 0.028664354 0.29349959
-0.0042589018 0.028773336 0.29356381
-0.003618018 0.028898081 0.29363406
-0.0030484868 0.029006016 0.29367962
-0.0024766265 0.029114777 0.29374123
-0.0018253207 0.02925582 0.29385054
-0.0011771161 0.029386431 0.29400262
-0.00039800475 0.029525479 0.29422739
0.00048978406 0.029629219 0.29448804
0.0012571064 0.029710531 0.29466194
0.0018258542 0.029782828 0.29475799
0.0024474803 0.029872367 0.29485789
0.0031263633 0.029956013 0.29497209
0.0038502398 0.030041041 0.29508942
0.009258748 0.030069785 0.29600984
0.0098478328 0.029998058 0.29613271
0.010338293 0.030052966 0.29617184
0.010713838 0.030172618 0.29620567
0.011143381 0.030310024 0.296166
0.011611415 0.030387552 0.29618388
0.011969154 0.030438591 0.29619491
0.01242202 0.03040324 0.29623908
0.012851985 0.030335337 0.29633617
0.013249161 0.030345032 0.29640058
0.013573441 0.030355325 0.29644328
0.013807522 0.030367462 0.29646605
0.014016077 0.030420862 0.29648381
0.014282274 0.0303293 0.29656875
0.014600596 0.030318981 0.29663619
0.014937008 0.030188141 0.29672635
0.015330667 0.030001977 0.29681334
0.015837504 0.02976694 0.29690897
0.016287375 0.029713294 0.29696879
0.016654314 0.029833179 0.29692769
0.016929099 0.030097369 0.29683307
0.017313443 0.030251756 0.29678524
0.017755788 0.03040239 0.29677841
0.018251929 0.03048322 0.2968249
0.0798041 0.030055724 0.30622098
0.079759397 0.030348131 0.30609235
0.079744034 0.030478025 0.30603266
0.079778895 0.030639453 0.30596977
0.079861574 0.030532362 0.30602822
0.079979561 0.030458866 0.30612358
0.080165096 0.030047417 0.30638021
0.080349118 0.029537734 0.30666059
0.080507524 0.029171178 0.30687025
-0.05123036 0.026647637 0.2891959
-0.05104113 0.026587756 0.28922999
-0.050813761 0.026829008 0.28917828
-0.050583664 0.026678128 0.28924042
-0.050352454 0.02620337 0.28951097
-0.050159089 0.025774807 0.2898297
-0.050211217 0.025604099 0.2902981
-0.014899374 0.026713617 0.29277644
-0.014294905 0.02683288 0.29281935
-0.013695781 0.02697143 0.29286325
-0.013130032 0.027079236 0.29290217
-0.012561939 0.027181424 0.29294989
-0.01190739 0.027298739 0.2929998
-0.011250179 0.027417062 0.2930567
-0.010682139 0.02752744 0.2930977
-0.010074611 0.027650652 0.29314294
-0.0094742393 0.027784076 0.29316449
-0.0088008316 0.02792594 0.29318589
-0.0081378492 0.028049912 0.29321894
-0.0075241351 0.028138855 0.29327527
-0.0068862378 0.028258199 0.29331851
-0.0062804208 0.028384134 0.29335058
-0.0057570026 0.028495887 0.29340038
-0.005271249 0.028590761 0.2934522
-0.004708041 0.028702091 0.29351833
-0.004104021 0.028823515 0.29358959
-0.0035017799 0.028936476 0.2936438
-0.0029311138 0.029044321 0.29368961
-0.0022768606 0.029167993 0.29377493
-0.0017057841 0.029290035 0.29387367
-0.0011420905 0.029403597 0.29401278
-0.00047642898 0.02953946 0.29418731
0.00028024139 0.029662056 0.2943885
0.001088051 0.0297365 0.29460323
0.0017336573 0.029812867 0.29472288
0.0023922811 0.029891631 0.29483417
0.0031238238 0.029996701 0.29495883
0.00394782 0.030109497 0.2950761
0.0048061172 0.030267762 0.29519784
0.0055419831 0.030295679 0.29532063
0.0063905683 0.03022103 0.2955156
0.0071161897 0.030276248 0.29557094
0.0077557419 0.030284336 0.29559419
0.0084479796 0.030357257 0.29568836
0.0091013443 0.03035868 0.29581389
0.0098004052 0.030359313 0.2959573
0.010310038 0.030416805 0.29604277
0.010677846 0.0304888 0.29610056
0.011127316 0.030550027 0.29606801
0.011538121 0.030605586 0.29608589
0.012014977 0.030621441 0.29614839
0.012419975 0.030608866 0.29619077
0.012803908 0.030624354 0.29626143
0.013194891 0.030623183 0.29632014
0.013507694 0.030578366 0.29637426
0.013780444 0.030555388 0.29639286
0.013994471 0.03059848 0.29640904
0.014288638 0.030586692 0.29647711
0.014615986 0.030538192 0.29657844
0.014920576 0.03043993 0.2966592
0.015300226 0.030303417 0.29676557
0.015741888 0.030195665 0.29679325
0.016171822 0.030166032 0.29680595
0.016574671 0.030291943 0.29675731
0.016901243 0.03047877 0.2966876
0.017323976 0.030665962 0.29660422
0.017750908 0.030812807 0.29658619
0.018292336 0.031000767 0.29657719
0.07967478 0.030670723 0.3060118
0.079634182 0.030945059 0.30590424
0.079593718 0.031160058 0.30581298
0.079598635 0.031308543 0.30574983
0.079670392 0.031308111 0.30574366
0.079848453 0.03106731 0.30587673
0.080050446 0.03077485 0.30608985
0.080222555 0.030488998 0.30628705
0.0803819 0.030050321 0.30652201
-0.051251795 0.027329253 0.28899226
-0.051130723 0.027433017 0.28897402
-0.050978936 0.027718049 0.28884855
-0.050692964 0.027448911 0.2890099
-0.05049419 0.026998814 0.28923538
-0.050242953 0.02629807 0.28972974
-0.013571422 0.027011991 0.29286206
-0.012871935 0.02714091 0.29290783
-0.012261104 0.027246477 0.29296592
-0.011736206 0.027340762 0.29301253
-0.008054316 0.028073451 0.29321942
-0.0074010561 0.028176509 0.29327112
-0.0067653153 0.028296346 0.29332125
-0.0062005166 0.028407741 0.29336119
-0.0056756916 0.028518792 0.29341099
-0.0051550646 0.028631976 0.29347599
-0.0045501632 0.028751502 0.29355061
-0.0039490331 0.028876266 0.29361585
-0.0033413148 0.028983982 0.2936646
-0.0027307062 0.029093737 0.29372492
-0.0021585138 0.029212326 0.29380009
-0.0015445937 0.029329352 0.29390958
-0.0010232055 0.029434949 0.29403907
-0.00051082973 0.02954728 0.29416427
0.00020497761 0.029706309 0.29435357
0.000994156 0.029803006 0.29454306
0.0016999741 0.029868141 0.2947028
0.0024126696 0.029983137 0.29482219
0.003320216 0.030106204 0.29496607
0.0040780017 0.030184656 0.29507574
0.004885531 0.030343808 0.29518375
0.0056115175 0.030426702 0.29527691
0.0063585411 0.030455582 0.29538298
0.0071046962 0.030448815 0.29546061
0.0078017772 0.030454902 0.2955769
0.0084294528 0.030534543 0.29562292
0.0090089878 0.030569153 0.29567757
0.009639509 0.030684363 0.29579192
0.010218397 0.0306882 0.29592046
0.010646508 0.030765489 0.29595813
0.011107661 0.03082313 0.29599795
0.011538597 0.030825699 0.29601699
0.012025874 0.030837674 0.29608777
0.012472119 0.030835083 0.29615551
0.01282818 0.030832231 0.29621631
0.013208992 0.030779956 0.29628813
0.013485656 0.030797813 0.29630828
0.013752362 0.030820787 0.29631293
0.013979649 0.030830594 0.29631475
0.014239286 0.030813709 0.29638517
0.014578657 0.030759238 0.29648265
0.014909638 0.030680809 0.29660127
0.015295889 0.030672625 0.29662541
0.01564607 0.030695926 0.29664895
0.016058186 0.03069176 0.29661369
0.016515272 0.030789539 0.29654044
0.016908448 0.030926162 0.29646847
0.017330445 0.031083379 0.29641619
0.017815698 0.031175939 0.29642692
0.018385489 0.031362385 0.29641765
0.079496019 0.031197457 0.30582902
0.079560407 0.031309597 0.30581504
0.079484828 0.0316176 0.30569035
0.079405122 0.031892553 0.30558243
0.079401374 0.03212288 0.30549371
0.079502068 0.032088269 0.30550343
0.079668701 0.031846497 0.30561924
0.079954356 0.03150019 0.30582637
0.08015427 0.031191386 0.30603355
0.08028914 0.030852448 0.30621704
-0.051298156 0.028084826 0.28872368
-0.051233195 0.028192295 0.28864932
-0.051117074 0.028481841 0.28856897
-0.050960898 0.028272493 0.28865618
-0.050639827 0.027787607 0.28894717
-0.050370052 0.02696351 0.28949443
-0.0060766172 0.028438378 0.29337278
-0.0055551166 0.028551973 0.29342985
-0.0050353371 0.028665764 0.2934978
-0.0043895612 0.028793378 0.29357615
-0.0037510425 0.028937265 0.29364651
-0.0031423823 0.029046493 0.293695
-0.0025307853 0.029158363 0.29376084
-0.0019983801 0.029264091 0.29383132
-0.0014245254 0.029369913 0.29393771
-0.00098604476 0.029471023 0.29404449
-0.00050910254 0.029580211 0.29416177
0.00013631849 0.029713657 0.29432997
0.00076236157 0.029835645 0.29447451
0.0016436274 0.029949706 0.29467568
0.0024499507 0.030032689 0.29482421
0.0033464378 0.030162688 0.2949532
0.0041814921 0.03031606 0.2950694
0.0049316031 0.030445559 0.2951422
0.0055743163 0.03055332 0.2951743
0.0062643308 0.03064367 0.29524267
0.0069218045 0.030716119 0.29531294
0.0076448279 0.030693382 0.29542747
0.0083214492 0.030759891 0.2955094
0.0089505035 0.03078953 0.29561359
0.009553018 0.030884119 0.29569235
0.010102845 0.030895771 0.29579565
0.010596031 0.031002177 0.29586914
0.011062939 0.031019775 0.29593852
0.011532657 0.031053443 0.29597911
0.012024515 0.031012777 0.2960206
0.012412062 0.031037757 0.29607525
0.012844122 0.031017236 0.29615662
0.013140284 0.031019086 0.29621246
0.013477144 0.031028818 0.29621953
0.013723953 0.031071952 0.29621679
0.014007201 0.031098172 0.29621536
0.014236484 0.031099506 0.29625568
0.014520424 0.031037277 0.29635346
0.014913779 0.030994348 0.29646996
0.015186545 0.031001253 0.29649052
0.01563663 0.031017108 0.29650548
0.016059618 0.031101 0.29644921
0.016495604 0.031188214 0.29637799
0.01693156 0.031296629 0.29632109
0.017392524 0.031332243 0.29632029
0.017926306 0.031503342 0.29629445
0.01842948 0.031616438 0.296303
0.079224698 0.032176636 0.30552077
0.079286993 0.032198984 0.30553427
0.079211235 0.032505836 0.30541217
0.07923355 0.032625448 0.30536634
0.079217859 0.032836843 0.30527824
0.079310335 0.032807548 0.30528304
0.079485998 0.032734368 0.30534217
0.079745911 0.032427803 0.30549225
0.080010787 0.031957995 0.30572319
0.080217272 0.031553622 0.30596453
-0.051390577 0.028976353 0.28833294
-0.051286168 0.028961752 0.2883471
-0.051268764 0.029354297 0.28816298
-0.051123433 0.029074905 0.2883344
-0.050812427 0.028460724 0.28866157
-0.050499264 0.027629271 0.28928179
-0.0049139415 0.028694987 0.29351395
-0.004233812 0.028846545 0.29360536
-0.0035906227 0.0289788 0.29367036
-0.0029811468 0.029090304 0.29372215
-0.0023686904 0.029204559 0.29379201
-0.0018353121 0.029311707 0.29386359
-0.0014224674 0.029381249 0.29393587
-0.0010577065 0.02947217 0.29401582
-0.00053703092 0.029578229 0.294139
3.8111495e-05 0.02971703 0.29428205
0.00077203126 0.029870415 0.29445776
0.0015362392 0.029999375 0.294622
0.0026334345 0.030124022 0.2948606
0.0034457308 0.030240828 0.29495957
0.0042525441 0.030436782 0.29505184
0.0050158906 0.030551942 0.29513428
0.0056806202 0.030672476 0.29516226
0.0063389107 0.030787885 0.29520333
0.0068851998 0.030904921 0.29520994
0.007466103 0.031005016 0.29524815
0.0083003342 0.030986739 0.29542422
0.0089906165 0.031027939 0.2955215
0.0095974449 0.031075556 0.29567894
0.010185796 0.031128202 0.29575232
0.010724718 0.031173607 0.2958397
0.011142863 0.031239536 0.29587004
0.011561026 0.031265292 0.2959249
0.012082036 0.031289164 0.29599181
0.012448716 0.031275272 0.2960377
0.012800045 0.031272184 0.29606646
0.013114659 0.031270795 0.29609907
0.01336139 0.031330727 0.29611078
0.013707257 0.031307317 0.29611203
0.013957255 0.031327773 0.29613912
0.01420696 0.031320114 0.29617679
0.014538254 0.03131561 0.29625037
0.014803024 0.031308122 0.29632214
0.015212487 0.031312548 0.29635128
0.015654633 0.03136244 0.29636025
0.016106198 0.031460591 0.29630283
0.01655744 0.031519815 0.29624197
0.016959922 0.031575821 0.29620811
0.017499024 0.0316897 0.29616725
0.018029295 0.031718545 0.29620507
0.018568404 0.03186338 0.29621002
0.079822741 0.031300161 0.30593985
0.07899417 0.033102382 0.30526492
0.078970529 0.033304289 0.30518728
0.079010531 0.033425268 0.30512807
0.079022117 0.033541415 0.30504417
0.079144545 0.033569828 0.30504993
0.079294078 0.033459116 0.30509827
0.079531573 0.033167325 0.30523294
0.079787612 0.032833204 0.30537814
0.080052435 0.032355033 0.30562204
-0.051476661 0.029843437 0.28795335
-0.051440366 0.029874507 0.28793594
-0.051383305 0.030002929 0.28786841
-0.051314786 0.029813902 0.28794506
-0.05110788 0.029336723 0.28825852
-0.050639562 0.028331893 0.28907385
-0.0013759325 0.029403057 0.29393771
-0.00093473995 0.029508127 0.29404268
-0.00052777171 0.02959867 0.29412758
8.2068393e-05 0.029737515 0.29428792
0.00078746735 0.029898841 0.29444617
0.0016082713 0.030072503 0.29463857
0.0026284971 0.030209525 0.29482827
0.0036551405 0.0303763 0.29499832
0.0044313646 0.030538408 0.29507262
0.0051975409 0.03067074 0.29515895
0.0058606984 0.0308051 0.29519454
0.0064520631 0.030929958 0.29519424
0.0069928351 0.03103786 0.29519555
0.0075414362 0.031181378 0.29522443
0.0083120987 0.031304773 0.29530537
0.0090577435 0.031248812 0.29549348
0.0096232584 0.0312774 0.29565424
0.010249847 0.03129527 0.2957463
0.010713269 0.031358588 0.29578716
0.011182287 0.031455155 0.29582116
0.01161374 0.031526621 0.29585704
0.012050157 0.031527482 0.29593155
0.01245095 0.031517133 0.29600924
0.012784436 0.031526193 0.29602674
0.013086193 0.031485293 0.29602063
0.01340731 0.031529505 0.29602402
0.013619779 0.03155414 0.29601014
0.013948506 0.03150392 0.29607117
0.014264544 0.031551648 0.29610792
0.014560958 0.031495012 0.29616487
0.014870211 0.031557783 0.29620346
0.01529538 0.031599961 0.29624623
0.015727112 0.031646226 0.29623145
0.016156238 0.031709589 0.29618976
0.016595626 0.031772751 0.29614168
0.017024605 0.031836603 0.29610625
0.017502518 0.031887133 0.29609692
0.018067913 0.031928688 0.29612458
0.018629342 0.032014798 0.29616138
0.019258836 0.032161072 0.29620019
0.078909382 0.033723511 0.30509165
0.078847252 0.033979308 0.30498356
0.078848444 0.034190159 0.30487436
0.078867689 0.0342043 0.30484655
0.078989923 0.034235615 0.30483127
0.079157107 0.034128807 0.30487978
0.079340123 0.033857629 0.30499321
0.07960429 0.033510145 0.30513415
0.079818472 0.033226188 0.30527049
-0.051511135 0.030577825 0.28771073
-0.051495563 0.03059366 0.28767243
-0.051461197 0.030779615 0.28760126
-0.051392891 0.030619426 0.2876538
-0.051260605 0.030176822 0.2879416
-0.050785139 0.028981633 0.28889638
-0.00044286402 0.029613884 0.29414248
0.0001750597 0.029791217 0.29428723
0.0010035174 0.029986247 0.2944985
0.0018853607 0.03016953 0.29468885
0.0029357867 0.03037638 0.29487813
0.003757118 0.030508064 0.29501235
0.0045899712 0.030669959 0.29510438
0.0054639108 0.030841038 0.29522079
0.0061193281 0.030993886 0.29526231
0.0067222114 0.031143783 0.29526228
0.0072168531 0.031249441 0.29522902
0.0077696308 0.031399146 0.29523873
0.0084207784 0.031527821 0.29529032
0.0091683166 0.031555749 0.29555398
0.0097568901 0.031520717 0.29564968
0.010244505 0.031554755 0.29572541
0.010716799 0.031575896 0.29575759
0.011162326 0.031597629 0.2957778
0.01161928 0.031668883 0.29581261
0.012021345 0.031721983 0.29584649
0.012465207 0.031748228 0.29590926
0.012783147 0.031783387 0.29594558
0.013028856 0.031788524 0.29595849
0.01337705 0.031750336 0.29593948
0.013680506 0.031756483 0.29597852
0.013969102 0.031709284 0.29603297
0.014318675 0.031678017 0.29607427
0.0145887 0.031683084 0.29612193
0.014916105 0.031753056 0.2961497
0.015342362 0.031795468 0.29618594
0.015771553 0.03186677 0.29614237
0.016198868 0.031940032 0.29609963
0.016677359 0.031978127 0.29605073
0.017113701 0.032061506 0.2960172
0.017578535 0.032105934 0.29602137
0.018122435 0.03214344 0.29604495
0.018734314 0.032224275 0.29609188
0.019385139 0.032329381 0.29616508
0.02009392 0.032502886 0.29625595
0.078770407 0.034377661 0.30489224
0.078728735 0.034558844 0.30479988
0.078686357 0.034923032 0.30459413
0.07872989 0.034889143 0.30458263
0.078848891 0.034912065 0.30457711
0.079032704 0.034730829 0.30466688
0.079264082 0.034389604 0.30481458
0.079504207 0.034103952 0.30493975
0.07973168 0.033867944 0.30504528
-0.05161088 0.031295173 0.28749418
-0.05157838 0.031435557 0.28740993
-0.051528249 0.031619351 0.28733277
-0.051451448 0.031498373 0.28736973
-0.051369723 0.030990411 0.28759554
-0.05105564 0.029868558 0.28845468
0.0030414553 0.030474611 0.29490715
0.0039174282 0.030604528 0.29502431
0.0047476846 0.030796079 0.29512411
0.0054838248 0.030969733 0.29525048
0.0062337355 0.031205796 0.29532975
0.0068848687 0.031369179 0.29532886
0.0074606384 0.031499162 0.29527047
0.008007111 0.031685185 0.29528329
0.0085986406 0.031819824 0.29540625
0.0092207659 0.031792458 0.29551631
0.0097862091 0.031801254 0.29564822
0.010371454 0.031809676 0.29575777
0.010799199 0.031855259 0.2957572
0.011250205 0.031890593 0.29574177
0.011660687 0.031933021 0.29577541
0.012075622 0.03195354 0.29584408
0.012466012 0.031963304 0.29584414
0.012804874 0.031968661 0.29588318
0.013002207 0.031977691 0.29587936
0.013337768 0.031996403 0.29588827
0.013622579 0.031996403 0.29592845
0.013941035 0.031940177 0.29598749
0.014257876 0.031942338 0.29604465
0.014607088 0.0319019 0.29611331
0.014994099 0.031924717 0.2961067
0.015384339 0.031996276 0.2961044
0.015786245 0.032080833 0.29608527
0.016240118 0.032160841 0.2960127
0.016751155 0.032196201 0.29596987
0.017166032 0.032229096 0.29596654
0.017633613 0.032276265 0.29597411
0.018172564 0.032314118 0.29599962
0.018787542 0.032374725 0.29605329
0.019546794 0.032484595 0.29614419
0.020266401 0.032680687 0.2962513
0.021032289 0.032929402 0.29638442
0.02166095 0.033089943 0.29649198
0.022234622 0.033238519 0.2965872
0.022700818 0.033305988 0.29664063
0.023342377 0.03346739 0.29670107
0.023968477 0.033618849 0.29673314
0.024643511 0.033792332 0.29672787
0.078669004 0.034922186 0.30470234
0.078571238 0.03519303 0.30452889
0.078470618 0.035653494 0.30427253
0.078528479 0.035681114 0.30423683
0.078687951 0.035557661 0.30429709
0.078955956 0.035134096 0.30451229
0.079141974 0.034889381 0.30464461
0.079474635 0.034478284 0.30484188
0.079737499 0.034193922 0.30494344
-0.05168676 0.032164901 0.28726855
-0.051667619 0.032048546 0.28729126
-0.051624045 0.032226339 0.28716668
-0.051595431 0.032299113 0.2871246
-0.051559061 0.032133065 0.2871674
-0.051491331 0.031866826 0.28727627
-0.05137093 0.031375393 0.28763509
0.0087218974 0.032004669 0.29542029
0.0093114534 0.032067318 0.29555935
0.0099102072 0.032129977 0.2956374
0.010374295 0.032128923 0.29569784
0.010840133 0.032177761 0.29571834
0.011277484 0.032189347 0.29571584
0.011664061 0.032204896 0.29573488
0.012065298 0.032246683 0.29577363
0.012394789 0.03222172 0.29575431
0.012716576 0.032254942 0.29577941
0.012986078 0.032243673 0.29578438
0.013290708 0.032247592 0.29581884
0.013595766 0.032223973 0.29586568
0.013921587 0.032236356 0.29592073
0.014267575 0.032158215 0.29599285
0.014679602 0.032207601 0.29604509
0.015119111 0.032221131 0.29606688
0.015531196 0.032287911 0.29606247
0.015961172 0.032295182 0.29601476
0.016354693 0.032326248 0.29595613
0.016753042 0.032390784 0.29593647
0.017223218 0.03243747 0.295908
0.017674739 0.032473233 0.29591671
0.018189276 0.032458179 0.29595679
0.018876394 0.032540128 0.29601708
0.019599859 0.032661039 0.29611129
0.02043318 0.032866374 0.29625568
0.021134542 0.033039715 0.2963917
0.021715991 0.03316725 0.29649949
0.022344641 0.033292856 0.29659364
0.022885354 0.033401221 0.29664737
0.023419878 0.033510484 0.29669267
0.02407589 0.03368431 0.29670313
0.024779553 0.033928681 0.29667184
0.025529161 0.034178205 0.29663551
0.026326559 0.034466151 0.2966013
0.078448586 0.035627495 0.30438936
0.078311965 0.035967074 0.30417162
0.078340963 0.036310855 0.30397132
0.078401648 0.03629503 0.30395919
0.078563668 0.03619507 0.3040249
0.078844063 0.035751075 0.3042787
0.079104476 0.03529872 0.30452406
0.079525597 0.034785755 0.30475274
0.079797544 0.034604624 0.30484399
-0.051772293 0.032883517 0.28700647
-0.051737212 0.032958981 0.28693298
-0.051761955 0.033238839 0.28680533
-0.051724594 0.03315112 0.28681794
-0.051710308 0.033068001 0.28684253
-0.051628575 0.032741092 0.2869592
0.0093577988 0.032314748 0.29552436
0.0099447621 0.032432389 0.29566684
0.010420294 0.032495949 0.29565835
0.010858139 0.032568097 0.29564384
0.011287965 0.032572214 0.29567933
0.011693997 0.032529775 0.29568425
0.012054929 0.032528456 0.29568622
0.012337676 0.032550532 0.29565316
0.012599073 0.032534439 0.29566339
0.012931298 0.032541964 0.29568538
0.013273051 0.032502666 0.29572713
0.013604508 0.032494739 0.29580161
0.013897414 0.032449063 0.29587299
0.014278582 0.032441117 0.29591227
0.014719608 0.032446895 0.29597458
0.015148756 0.032483634 0.29600701
0.015544607 0.032500826 0.29599604
0.015980313 0.032542326 0.29596353
0.016420905 0.032599501 0.29591891
0.016753854 0.032554056 0.29589087
0.017217698 0.032589618 0.29587013
0.017696554 0.032629211 0.29589337
0.018242165 0.032624185 0.2959255
0.018911388 0.032707859 0.29599151
0.019731104 0.032824431 0.29611292
0.020496268 0.032982066 0.29625428
0.021210607 0.03312853 0.29639938
0.021814266 0.033247977 0.29650703
0.022435088 0.033350497 0.29659557
0.0229451 0.033472635 0.29664057
0.023523429 0.033673003 0.2966466
0.024144618 0.033881728 0.29663065
0.024858437 0.034116179 0.29660845
0.025689092 0.034385562 0.29657435
0.026386021 0.034632437 0.29655698
0.027300179 0.034948181 0.29656681
0.028180817 0.035224464 0.29659775
0.028977791 0.03550116 0.29663351
0.029788814 0.035721984 0.29671317
0.030482585 0.035865337 0.29679444
0.031146877 0.035995837 0.2968584
0.031691447 0.036086969 0.29688817
0.032080963 0.036168657 0.29690963
0.032588631 0.036247864 0.29691693
0.078523763 0.03560359 0.3044897
0.078101188 0.036549412 0.30391461
0.078062743 0.036844287 0.30372337
0.078130081 0.037037317 0.30360705
0.07823959 0.03698127 0.30363134
0.078441881 0.036745332 0.3037594
0.078745358 0.036346667 0.30403033
0.079036206 0.035824921 0.30435455
0.079462558 0.035345059 0.3045738
0.079757869 0.035114363 0.30466726
-0.051853493 0.033500284 0.28674212
-0.051858068 0.033619016 0.2866841
-0.051849771 0.033739999 0.28661409
-0.051860452 0.033940963 0.28650537
-0.051851287 0.033882678 0.28649661
-0.05182324 0.033761665 0.28654027
-0.051794466 0.033659544 0.28661025
0.0099830069 0.032808647 0.2955173
0.010469564 0.032922488 0.2955406
0.010862255 0.032929368 0.29555622
0.01130682 0.032938462 0.29561397
0.011660052 0.032911487 0.29561213
0.011980923 0.032845937 0.29559144
0.012279204 0.03283314 0.29556909
0.012531046 0.03282753 0.29557836
0.012866152 0.032834109 0.29559582
0.013223734 0.032810867 0.29566047
0.013569278 0.032780319 0.29570949
0.013941562 0.032746099 0.29579654
0.014329674 0.032757938 0.29584876
0.014745836 0.032778822 0.29589736
0.015149055 0.032783009 0.29592335
0.01554904 0.032837283 0.29592276
0.016006114 0.032810941 0.29591009
0.016463021 0.03281299 0.29587483
0.016900413 0.032814458 0.29584169
0.01731278 0.032853942 0.29582599
0.017827846 0.032839425 0.29585487
0.018341126 0.032849837 0.29589933
0.018971998 0.03287201 0.29597336
0.019712722 0.032930832 0.29608884
0.020460544 0.033005942 0.29624006
0.021254193 0.033182427 0.2964012
0.021867761 0.033269648 0.29651046
0.022474585 0.033440538 0.29658797
0.023041166 0.033626277 0.29661512
0.023703229 0.033857949 0.29658046
0.024376679 0.034080453 0.29656151
0.02507494 0.034316663 0.29654384
0.025869958 0.034582298 0.29652163
0.026675882 0.034848578 0.29650715
0.027495066 0.035118815 0.29651064
0.028342331 0.035348985 0.29656559
0.02912824 0.03556899 0.2966353
0.029793378 0.035748258 0.29670578
0.030488761 0.03588121 0.29679379
0.031072736 0.036005054 0.29684964
0.0315735 0.036100864 0.29688406
0.032128483 0.03617442 0.29692119
0.032633275 0.036260612 0.29692045
0.033065204 0.03634157 0.29693091
0.033669576 0.036436703 0.2969141
0.034454595 0.03654822 0.29695532
0.035083186 0.036692444 0.29698458
0.035593331 0.036817174 0.29701933
0.077671297 0.037513547 0.30343637
0.077754341 0.037613112 0.30336785
0.077851512 0.037707202 0.30333671
0.077942438 0.037753429 0.30331501
0.07808616 0.037753347 0.30331793
0.078314759 0.037498329 0.30342463
0.078642279 0.037041217 0.30370364
0.078926213 0.036472533 0.304079
0.07935632 0.035997719 0.30433574
0.079657413 0.035774775 0.30443543
-0.051902454 0.034045808 0.28650221
-0.051915478 0.034166645 0.28644317
-0.051936358 0.03432655 0.2863639
-0.051948227 0.034434304 0.28628379
-0.051947184 0.034435648 0.28627586
-0.051921941 0.034314927 0.28632471
-0.05189085 0.03419102 0.28637764
0.010601177 0.033213012 0.29556376
0.010965357 0.033243515 0.29560056
0.011264876 0.033242878 0.29561743
0.011636185 0.03320438 0.29559329
0.011941643 0.033158444 0.29555368
0.012221013 0.033172518 0.29546502
0.012490938 0.033211384 0.29544732
0.012831123 0.033203959 0.29548016
0.013202487 0.033114873 0.29554635
0.013585317 0.033103351 0.29562736
0.013975814 0.033081323 0.29570889
0.014408673 0.033100732 0.29579058
0.014812608 0.033090796 0.29584953
0.015161183 0.033114549 0.29586783
0.015542207 0.033121869 0.2958717
0.016002027 0.033118319 0.29584441
0.016421948 0.033148143 0.29584116
0.016956413 0.033085264 0.29580194
0.017378662 0.033080649 0.29580519
0.017892336 0.03302341 0.29583305
0.018405916 0.033050291 0.29587427
0.019046934 0.033061381 0.29595813
0.019629644 0.033096828 0.29604587
0.020358199 0.033176098 0.2961933
0.02119465 0.03327737 0.29637238
0.02203908 0.033445865 0.29652131
0.022660835 0.033623856 0.29656976
0.023294466 0.033848606 0.29656449
0.023917992 0.034072436 0.29652065
0.024533514 0.034271963 0.29649046
0.025218241 0.034503214 0.29647118
0.026019802 0.034742638 0.29646528
0.026860738 0.034993052 0.29646915
0.027648803 0.035216227 0.29649657
0.028363636 0.035417922 0.29655018
0.029119978 0.035615128 0.29662386
0.029876517 0.035768457 0.29671529
0.030405533 0.035876714 0.29677853
0.030986646 0.035990681 0.29684088
0.031362347 0.036072224 0.29687005
0.031751223 0.036136545 0.29690245
0.032305382 0.036216188 0.2969307
0.032952342 0.036331411 0.29694238
0.033595253 0.036454014 0.29692799
0.034386151 0.036578644 0.29693601
0.035054348 0.036701005 0.29697144
0.035555124 0.036823116 0.29700717
0.035927266 0.036908709 0.29706383
0.036203936 0.036963318 0.29710269
0.036721572 0.037087198 0.2971918
0.077269547 0.038215548 0.30316609
0.077466823 0.038180627 0.30317736
0.07755702 0.038330171 0.30311614
0.077714749 0.038316816 0.30311078
0.077814475 0.038300462 0.30311087
0.07798975 0.038211171 0.30316553
0.078196928 0.038072012 0.30323154
0.078467354 0.037802752 0.30337125
0.078884967 0.037303824 0.30366394
0.079205036 0.036758438 0.30400521
0.079576269 0.036592878 0.30413592
-0.051993061 0.034667328 0.28620857
-0.05202996 0.034807742 0.28610599
-0.052065331 0.034996577 0.28598025
-0.052066624 0.03508237 0.28593031
-0.052005492 0.034805268 0.28609785
-0.051983736 0.034692481 0.28616738
0.010411213 0.033620749 0.29580718
0.010913949 0.033567254 0.29566693
0.011289365 0.033504836 0.29564369
0.011608246 0.033429272 0.2956025
0.011897612 0.033529088 0.29549813
0.012192389 0.033478487 0.29545733
0.01249931 0.033491008 0.2954174
0.012839747 0.033490468 0.29542103
0.013229036 0.033454735 0.29549184
0.013636924 0.033400394 0.29556924
0.014056677 0.03341708 0.29567534
0.014490866 0.033414442 0.29576653
0.014870069 0.03341214 0.29582924
0.01522371 0.033425007 0.29584336
0.015589459 0.033470798 0.29586229
0.016034363 0.033495881 0.29584584
0.016501302 0.033441778 0.29581809
0.016936447 0.033438079 0.29581782
0.017454796 0.033375513 0.2957724
0.017938802 0.033350412 0.29579446
0.018436486 0.033337899 0.29584122
0.019071862 0.033313807 0.29590434
0.019702377 0.033321299 0.29602224
0.020535 0.033389691 0.29619348
0.021381229 0.03350294 0.2963675
0.022285093 0.033686206 0.29648423
0.022996593 0.033869456 0.29653287
0.023559745 0.034060467 0.29651734
0.024138017 0.034243621 0.29648438
0.024733178 0.034457669 0.29643935
0.025420643 0.034674257 0.29641601
0.026182173 0.034896586 0.296417
0.027003566 0.035088874 0.29645291
0.027806703 0.035309684 0.29649091
0.028463628 0.035483666 0.29654482
0.029111657 0.03564617 0.29661158
0.029622393 0.035768226 0.29667097
0.030194743 0.035877034 0.29673874
0.030737765 0.035966441 0.29680765
0.031281218 0.036066502 0.29685834
0.031790525 0.036150683 0.2968995
0.03234493 0.036230814 0.29692742
0.032858282 0.036319938 0.29692861
0.033519555 0.036429901 0.29692867
0.034178242 0.036570486 0.29691511
0.034657966 0.03666085 0.29693326
0.035334278 0.036785893 0.29698277
0.035744041 0.036871769 0.29703826
0.036160368 0.036960043 0.29709432
0.03677192 0.037100848 0.29720113
0.037496731 0.037251718 0.2973201
0.038485423 0.037454419 0.2974104
0.039192095 0.037636228 0.29746786
0.039816692 0.037771866 0.29743975
0.074934974 0.039301965 0.3029559
0.075291529 0.039286647 0.30286282
0.076985687 0.038903598 0.30293256
0.077223465 0.038840711 0.30295601
0.07736399 0.038885459 0.30291277
0.077516638 0.038902409 0.30290294
0.077718496 0.038850851 0.30292583
0.077904724 0.038693629 0.30299306
0.078162797 0.038539153 0.30309609
0.078407757 0.038416009 0.30315322
0.078759871 0.038078647 0.30334798
0.079083525 0.037696745 0.30358249
0.079490297 0.037316363 0.30383748
0.079836689 0.037256297 0.30390134
-0.052103698 0.035261825 0.28585953
-0.052123614 0.035335071 0.28581679
-0.052146487 0.035545237 0.28573346
-0.052146494 0.035545237 0.2857334
-0.052126437 0.035462629 0.28577337
-0.052092131 0.035261635 0.28587103
-0.052041225 0.035031516 0.28602347
0.010003627 0.035121076 0.29704708
0.010694507 0.034528524 0.29619911
0.011116457 0.034199603 0.29567489
0.011504766 0.033748962 0.29563758
0.011874421 0.033734888 0.29553327
0.012187131 0.033792511 0.29539746
0.012479939 0.033888474 0.29532528
0.012863651 0.03388929 0.29533646
0.013233363 0.033834979 0.29541585
0.013640683 0.033768237 0.29552457
0.014101394 0.033757918 0.29562065
0.014512784 0.03374077 0.29573995
0.014885167 0.033789232 0.29578719
0.015292328 0.033793293 0.29581851
0.015751282 0.033883225 0.29583472
0.016170781 0.033852693 0.29585168
0.016609699 0.033825953 0.29584375
0.01706497 0.033764981 0.29580346
0.017393759 0.03373453 0.29576179
0.01795836 0.033688594 0.29571089
0.018448763 0.033729028 0.29572126
0.01912673 0.033655215 0.29580516
0.019911474 0.033654522 0.29595032
0.020839879 0.033655178 0.29617202
0.021701651 0.033739585 0.2963464
0.022527434 0.033899453 0.2964513
0.023342948 0.034080029 0.29649273
0.023873739 0.034269549 0.29646316
0.024416069 0.034449477 0.29642054
0.024980465 0.034645185 0.29638416
0.025574869 0.034819104 0.2963739
0.026367344 0.035028022 0.29640222
0.027173012 0.03521527 0.296446
0.027897555 0.035368159 0.29649392
0.02848913 0.035511643 0.29654813
0.028984914 0.035634756 0.29660109
0.029622393 0.035768226 0.29667097
0.030234853 0.035885364 0.29674262
0.030777518 0.035977386 0.29680809
0.031321049 0.036077768 0.29685667
0.031830203 0.036162317 0.29689708
0.032384947 0.03624301 0.29692554
0.032898642 0.036332823 0.29692718
0.033509295 0.036445733 0.29692587
0.034080327 0.036556564 0.29691118
0.034613173 0.036655985 0.29691109
0.035292923 0.036803987 0.29697418
0.035648387 0.036877289 0.29701102
0.036206361 0.036997486 0.29709718
0.036728427 0.037099764 0.2971912
0.037648432 0.037278958 0.29733652
0.038617641 0.037500624 0.29742238
0.039371308 0.037690319 0.29745302
0.039996739 0.037818678 0.29741937
0.040491827 0.037905522 0.29741257
0.040947843 0.038008977 0.29740825
0.041500375 0.038133137 0.29743674
0.074588388 0.040062502 0.30275264
0.074986994 0.03998179 0.30262291
0.075353034 0.039858408 0.30261266
0.076745562 0.039525468 0.30274421
0.076929033 0.039481089 0.30273914
0.077163711 0.039479252 0.30272469
0.077364132 0.0394076 0.30274364
0.077621952 0.039285503 0.30279279
0.077840358 0.039248064 0.30283457
0.078097269 0.039129905 0.30290556
0.07833831 0.038966194 0.30299583
0.078679152 0.038719043 0.30309877
0.079129167 0.038263753 0.30338338
0.079522051 0.038119573 0.30351108
0.079815216 0.037946142 0.30364907
0.080093987 0.03791631 0.30373937
-0.052217692 0.035876915 0.28558508
-0.05224698 0.036120266 0.28546941
-0.052246984 0.036120273 0.28546941
-0.052232571 0.03608213 0.28548786
-0.052182682 0.035840437 0.28560573
-0.052137878 0.035559617 0.28573984
-0.052099191 0.035402905 0.28581733
0.0096143968 0.038442031 0.3021301
0.009933562 0.036943387 0.29886669
0.010862223 0.035336934 0.29656658
0.011450664 0.034839295 0.29567537
0.011854325 0.034140088 0.29552615
0.012210838 0.034156136 0.29537946
0.012491936 0.034212191 0.29526195
0.012855985 0.034235001 0.29525501
0.013251891 0.034176871 0.29533705
0.013651773 0.034113109 0.29542553
0.014129937 0.034052242 0.29558685
0.014549145 0.034097508 0.29568344
0.021958711 0.033962265 0.29630211
0.022831593 0.034125183 0.29639333
0.023544403 0.034318104 0.29639798
0.024120094 0.034488428 0.29639271
0.024644747 0.034638263 0.29637086
0.025177825 0.034763604 0.29636917
0.025774173 0.034962032 0.29635647
0.026500277 0.035131626 0.2963967
0.027317721 0.035307433 0.29645956
0.028017499 0.035467561 0.29650265
0.02850778 0.035557982 0.29655242
0.029055614 0.035669155 0.29660517
0.02970003 0.035789233 0.29667941
0.030313356 0.035907298 0.29674849
0.031024467 0.036024652 0.29683059
0.031488985 0.036107928 0.29686975
0.031870384 0.036171567 0.29689661
0.032425471 0.036252815 0.29692557
0.03293949 0.036343217 0.29692724
0.033550542 0.036456741 0.29692593
0.034121949 0.036568191 0.29691064
0.034655288 0.036668368 0.29691109
0.035293479 0.036813021 0.29695266
0.035691183 0.036891319 0.29701257
0.036298595 0.037029244 0.29710937
0.03677116 0.03711506 0.29719311
0.037788577 0.037339058 0.29734063
0.038794197 0.03756351 0.2974281
0.039505567 0.037728745 0.29743746
0.040132876 0.037857383 0.29740736
0.040538978 0.037943631 0.29739696
0.041132618 0.038068272 0.29740411
0.041544266 0.038152032 0.29742602
0.042642161 0.038365949 0.29755229
0.044385236 0.038710974 0.29793561
0.074373618 0.040649705 0.30251059
0.0746843 0.040560257 0.30241686
0.075077534 0.040516235 0.30240148
0.076293699 0.040059123 0.30258921
0.076626249 0.04005171 0.30260956
0.076789856 0.040029775 0.30257297
0.076991297 0.040024314 0.3025471
0.077249147 0.039973471 0.30257845
0.077499986 0.039845221 0.30263472
0.077782243 0.039700162 0.30271897
0.078061104 0.039643764 0.30276492
0.078345165 0.039460246 0.30285978
0.078620352 0.039272159 0.30294445
0.079142876 0.038865905 0.3031702
0.079532899 0.038694564 0.30329642
0.079945877 0.03863721 0.30342409
0.080230661 0.038578883 0.30353609
0.080554739 0.038671665 0.30358484
-0.052345846 0.03658054 0.28528056
-0.052344829 0.036621481 0.2852703
-0.052349962 0.03665977 0.28525165
-0.052341271 0.036619216 0.28526786
-0.052324336 0.036538947 0.28530669
-0.05227413 0.036337066 0.28539127
-0.052188266 0.035976041 0.28555077
-0.05215434 0.035819255 0.28562719
0.0092562446 0.040101033 0.30974242
0.0093965083 0.039803129 0.30754092
0.0096447906 0.03918191 0.30428895
0.0097387535 0.037858598 0.30001765
0.011331026 0.035970956 0.29634127
0.011856841 0.034849294 0.29550701
0.012246046 0.034547113 0.29529366
0.012510478 0.034659561 0.2951611
0.012834892 0.034670409 0.29512694
0.013144527 0.03463015 0.29519552
0.01361174 0.034532376 0.2953065
0.014057452 0.034485795 0.29545733
0.029814836 0.035823666 0.29668885
0.030515924 0.035952687 0.29676592
0.031277567 0.036075015 0.29684889
0.031830203 0.036162313 0.29689705
0.032299552 0.036247846 0.29692492
0.032689702 0.036318403 0.29693502
0.033114746 0.036387779 0.29692778
0.03363115 0.036481634 0.29692361
0.034203414 0.036594551 0.29690859
0.034737762 0.036696371 0.29691052
0.035336796 0.036823709 0.29695544
0.035734601 0.036902726 0.29701626
0.03634214 0.037041269 0.29711246
0.036963344 0.037177283 0.29722849
0.038108643 0.037406374 0.29737872
0.038970146 0.037615445 0.29744601
0.039595556 0.037750352 0.29742792
0.040178996 0.037867453 0.2974
0.040630944 0.037968788 0.29738882
0.041181169 0.038082965 0.29741415
0.041589133 0.038168598 0.29742005
0.042161774 0.038289201 0.29746395
0.042795315 0.038402811 0.29756457
0.043387379 0.038515478 0.29766208
0.044317398 0.038748726 0.29783148
0.045343507 0.038990736 0.29798728
0.046296634 0.039233629 0.29811999
0.047202781 0.0394543 0.29826835
0.047863178 0.039608173 0.298374
0.048065644 0.039648157 0.29839709
0.04847848 0.039727744 0.29845801
0.048528735 0.039738387 0.29846391
0.074245356 0.041116249 0.30237019
0.074607931 0.040972263 0.3023431
0.075010046 0.040903911 0.30237052
0.075493068 0.040671755 0.30250886
0.076030388 0.040496539 0.3026565
0.076306723 0.04050108 0.30259863
0.076512888 0.040539481 0.30251917
0.076689593 0.040580533 0.30244955
0.076889746 0.040525686 0.30243164
0.077173069 0.040437598 0.30245191
0.077429913 0.04042251 0.30248022
0.077745542 0.040314652 0.30254981
0.078037284 0.040180799 0.30262637
0.078336738 0.040002719 0.30270004
0.078615889 0.039786678 0.30279762
0.079037055 0.039481573 0.30296364
0.079651356 0.039299995 0.3031038
0.080038093 0.039335459 0.30316064
0.080492504 0.039301977 0.30334285
0.080836564 0.039463118 0.30333975
-0.052519012 0.037451543 0.28499049
-0.052493494 0.037367061 0.28500882
-0.052468795 0.037283115 0.28503194
-0.052457508 0.037242487 0.28504416
-0.052421045 0.037126329 0.28509441
-0.052381858 0.036961343 0.28515661
-0.05229732 0.036546651 0.28530496
0.0089919856 0.040646695 0.31254432
0.0092562465 0.040101033 0.30974242
0.0093412828 0.039822515 0.30784258
0.0096907895 0.03922322 0.30411944
0.010771293 0.037298739 0.29802832
0.011782606 0.035787553 0.29557589
0.012221305 0.035038278 0.29521719
0.012487408 0.035136618 0.29502216
0.012786672 0.035154082 0.2949647
0.013099521 0.035156116 0.29499829
0.01348856 0.035069771 0.29508787
0.031396847 0.036104791 0.29684943
0.031990673 0.036197629 0.29689905
0.032460794 0.036279049 0.29692453
0.032847553 0.036361765 0.29693243
0.033243224 0.036420643 0.29692641
0.033809207 0.036520913 0.29692057
0.034286533 0.036615722 0.29690748
0.034822024 0.036719255 0.29691201
0.035372458 0.036843184 0.29695344
0.035819642 0.036928862 0.29702315
0.036386278 0.037050571 0.29711717
0.037058704 0.037197068 0.29724169
0.038287729 0.037470467 0.29741958
0.03906038 0.03764816 0.29744652
0.039641753 0.037764344 0.29742548
0.040133882 0.037866425 0.29739568
0.040586181 0.037964445 0.29738507
0.041135851 0.038078044 0.2974107
0.041589141 0.038168598 0.29742002
0.042209107 0.038307946 0.2974835
0.042746365 0.038413268 0.29754785
0.043387119 0.038547251 0.2976453
0.044457357 0.038805541 0.29784331
0.045294881 0.039002258 0.29795125
0.04639101 0.039258871 0.29813907
0.047252532 0.039462693 0.29827249
0.047913127 0.03961594 0.2983788
0.04801501 0.039628208 0.29838979
0.048319772 0.039705098 0.29843339
0.04847848 0.039727744 0.29845792
0.048839241 0.039813958 0.29849663
0.049306016 0.039903052 0.29853544
0.07419011 0.04131905 0.30243263
0.074647546 0.041300219 0.30238336
0.075142786 0.041166928 0.30246678
0.075613581 0.040959138 0.30256817
0.076047957 0.040852904 0.30261827
0.076271631 0.040897537 0.30255878
0.076487772 0.040960055 0.30245352
0.076633841 0.040994164 0.30236012
0.076864496 0.041004613 0.30233458
0.077088021 0.040954124 0.30231333
0.077377908 0.04088179 0.30237201
0.077694304 0.040835414 0.30242854
0.078003451 0.040686209 0.30248529
0.078337021 0.040545579 0.30255464
0.078659579 0.040283863 0.3026695
0.079035923 0.0400589 0.30280149
0.079765849 0.039837301 0.30296206
0.080220871 0.040001601 0.30296615
0.080585688 0.040086359 0.30301645
0.081028447 0.040127907 0.30314547
0.081678092 0.040425908 0.30323553
-0.052630965 0.038031287 0.28481099
-0.052593846 0.037912786 0.28485498
-0.052580189 0.037872266 0.28486449
-0.052558571 0.037788764 0.28488997
-0.0525162 0.037627444 0.28494626
-0.052487534 0.037501052 0.28497744
-0.052441504 0.03729821 0.28504679
0.0090525951 0.040568192 0.31212774
0.0092562456 0.040101029 0.30974242
0.0095577836 0.039618138 0.30626288
0.010042484 0.038476985 0.30004108
0.011756765 0.036480132 0.29565802
0.012147039 0.035665948 0.29516023
0.01243083 0.035641875 0.29492778
0.012764364 0.035645243 0.294866
0.013023856 0.035703339 0.2948629
0.033978444 0.036566224 0.29691455
0.034409728 0.036649603 0.29690474
0.034956113 0.036753964 0.29691929
0.035459213 0.036862649 0.29696119
0.035865001 0.036945928 0.29700902
0.036472719 0.037072405 0.2971257
0.037236411 0.037247572 0.29727381
0.038373929 0.037507042 0.29743177
0.039189897 0.03769508 0.29743844
0.0396831 0.037780631 0.29741785
0.040267661 0.037898418 0.29739344
0.040718507 0.038003743 0.29738784
0.041272614 0.038112007 0.29740846
0.041682027 0.038202778 0.2974216
0.042209107 0.038307946 0.2974835
0.042846236 0.038444996 0.29757532
0.043534357 0.038591176 0.29767141
0.044556092 0.038834833 0.29785049
0.045340907 0.039022692 0.29796019
0.046544459 0.039306868 0.29815075
0.047252532 0.039462697 0.29827249
0.047805887 0.039604228 0.29835525
0.04796255 0.039626896 0.29838347
0.048013169 0.03964695 0.29839075
0.04827527 0.039700881 0.29843327
0.048838802 0.039824449 0.29849166
0.049355507 0.039924636 0.29853436
0.050081432 0.040056076 0.29861069
0.051002771 0.040221423 0.29873043
0.051850699 0.040446822 0.29887614
0.052197408 0.040533137 0.29896998
0.052540358 0.040615629 0.29904813
0.053103928 0.040741991 0.29920894
0.053502001 0.040828452 0.29932705
0.074204125 0.041481353 0.30251163
0.074708208 0.041447774 0.30245402
0.075169466 0.04139569 0.30246451
0.07560195 0.0413124 0.30250111
0.075930186 0.041292775 0.30250537
0.076206639 0.041307114 0.3024784
0.076368921 0.041420147 0.30235752
0.076599464 0.041450527 0.30227879
0.07682886 0.041412447 0.30226105
0.077093095 0.04138609 0.30223688
0.077345222 0.041342385 0.30224809
0.077650338 0.041332509 0.30230567
0.07794635 0.041251134 0.30233553
0.078287356 0.041076202 0.30242556
0.078658 0.04087225 0.30250105
0.079041168 0.040676303 0.30260551
0.07980065 0.040537752 0.30274302
0.080356829 0.040643573 0.30278528
0.080714829 0.040728856 0.30282584
0.081131548 0.040870104 0.30289164
0.081810273 0.041157357 0.30299115
-0.052742738 0.038564526 0.284639
-0.052705046 0.038448598 0.28468445
-0.052680131 0.03837432 0.28472149
-0.052658603 0.038290977 0.28474751
-0.052627861 0.038165033 0.28477684
-0.052587822 0.038003072 0.28483289
-0.05255663 0.037880525 0.28486148
0.0089770351 0.040795229 0.31302708
0.0091003431 0.040412042 0.3112269
0.0093412818 0.039822515 0.30784258
0.0099651609 0.039158821 0.30104274
0.01179306 0.036873206 0.29560152
0.012107277 0.036271207 0.29504138
0.012394418 0.036259014 0.29483777
0.012679761 0.036231995 0.29475191
0.012935216 0.036281582 0.29474029
0.042251915 0.038325522 0.29747653
0.042937603 0.038467649 0.29757446
0.043727394 0.038647708 0.29769024
0.044647735 0.038875844 0.29784939
0.045486361 0.039070666 0.29796523
0.046593975 0.039319083 0.29815435
0.047398366 0.03951535 0.29829356
0.047753189 0.039593734 0.29834428
0.047962546 0.039626896 0.29838347
0.048064485 0.039664075 0.2983993
0.048325561 0.039721649 0.29843816
0.04883856 0.039835349 0.29848781
0.049505055 0.039967053 0.29854989
0.05027828 0.040107656 0.29864469
0.051097311 0.040256593 0.29874972
0.051850706 0.040446822 0.29887614
0.05224698 0.040550254 0.29896787
0.052540369 0.040615633 0.29904816
0.053103928 0.040741991 0.299209
0.053447183 0.040812783 0.29930106
0.053935844 0.040959876 0.29949111
0.054384496 0.041077852 0.29962546
0.05499601 0.041183043 0.29980004
0.055825911 0.041363999 0.29996806
0.056907695 0.041567683 0.30019301
0.058485135 0.041843925 0.30053157
0.059107114 0.041960455 0.30069864
0.059717685 0.042068109 0.30081019
0.073672198 0.041942995 0.30238324
0.074165449 0.041759755 0.30239278
0.074726745 0.041751899 0.30232972
0.075208522 0.041683137 0.30236015
0.075508371 0.041693721 0.30236492
0.075845569 0.041709084 0.30233988
0.076054856 0.041800208 0.30226484
0.076236688 0.041912641 0.30215871
0.076461181 0.041882109 0.30212855
0.076735727 0.041834593 0.30213174
0.077031292 0.041814685 0.30214387
0.077377655 0.041743807 0.30217341
0.077628814 0.041773412 0.30219644
0.077940747 0.041713327 0.30222431
