# .PCD v0.7 - Point Cloud Data file format
VERSION 0.7
FIELDS x y z
SIZE 4 4 4
TYPE F F F
COUNT 1 1 1
WIDTH 1305
HEIGHT 1
VIEWPOINT 0 0 0 1 0 0 0
POINTS 1305
DATA ascii
0.024145471 -0.017183753 0.31468084
0.024770759 -0.017172135 0.31446809
0.025395179 -0.017160516 0.31425533
0.026018729 -0.017148897 0.31404254
0.026623351 -0.017125661 0.31361702
0.027244732 -0.017114043 0.31340426
-0.17343482 -0.015126881 0.28776595
-0.17303939 -0.015143658 0.2880851
-0.17264265 -0.015160434 0.28840426
-0.17230807 -0.015182802 0.28882977
-0.17197177 -0.015205172 0.28925532
-0.17157069 -0.015221949 0.28957447
-0.17110549 -0.015233133 0.28978723
-0.17063943 -0.015244317 0.28999999
-0.17011012 -0.01524991 0.29010639
-0.045112677 -0.016055185 0.30542552
-0.04445852 -0.016044 0.30521277
-0.043759398 -0.01601604 0.30468085
-0.043092567 -0.015999263 0.3043617
-0.042471573 -0.015999263 0.3043617
-0.041909095 -0.016021634 0.30478725
-0.041316055 -0.016032817 0.30500001
-0.040679563 -0.016027223 0.30489361
0.017910758 -0.016715063 0.31797871
0.018478813 -0.016642366 0.31659573
0.019034799 -0.016564075 0.31510639
0.019624569 -0.016519338 0.31425533
0.020245165 -0.016502561 0.31393617
0.020878615 -0.016496968 0.31382978
0.021533513 -0.016508153 0.31404254
0.02221182 -0.016536115 0.31457448
0.022884563 -0.016558483 0.315
0.023551099 -0.01657526 0.31531915
0.024194449 -0.01657526 0.31531915
0.024837798 -0.01657526 0.31531915
0.025463954 -0.016564075 0.31510639
0.026071614 -0.016541706 0.31468084
0.026668506 -0.016513744 0.31414893
0.027272476 -0.016491376 0.31372342
0.027893638 -0.016480191 0.31351063
-0.17311424 -0.014512872 0.28723404
-0.17284769 -0.014539748 0.28776595
-0.17251529 -0.01456125 0.2881915
-0.17218114 -0.014582749 0.28861701
-0.17171876 -0.0145935 0.28882977
-0.1711925 -0.014598875 0.28893617
-0.17060298 -0.014598875 0.28893617
-0.17013866 -0.014609625 0.28914893
-0.044381041 -0.015394396 0.30468085
-0.043683 -0.01536752 0.30414894
-0.043017257 -0.015351394 0.30382979
-0.042427037 -0.015362144 0.30404255
-0.041909095 -0.015399772 0.30478725
-0.041359287 -0.015426647 0.30531916
-0.040764727 -0.015437397 0.30553192
0.018503651 -0.016017912 0.31702128
0.019060504 -0.015942659 0.31553191
0.019664427 -0.015910408 0.3148936
0.020300049 -0.015905034 0.31478724
0.020921081 -0.015888909 0.31446809
0.021562694 -0.015888909 0.31446809
0.02221182 -0.015894284 0.31457448
0.022876833 -0.015910408 0.3148936
0.023535209 -0.015921161 0.31510639
0.024186285 -0.015926534 0.31521276
0.024837798 -0.01593191 0.31531915
0.02547255 -0.015926534 0.31521276
0.026098056 -0.015915783 0.315
0.026704632 -0.015894284 0.31457448
0.027327962 -0.015883533 0.31436169
0.027959896 -0.015878158 0.31425533
-0.1731213 -0.013880404 0.28627661
-0.17285778 -0.013906194 0.28680852
-0.17265598 -0.013937142 0.2874468
-0.17238791 -0.013962932 0.28797871
-0.17205422 -0.013983564 0.28840426
-0.17152904 -0.013988723 0.28851065
-0.17081431 -0.013978406 0.28829786
-0.17016329 -0.013973249 0.2881915
-0.16957529 -0.013973249 0.2881915
-0.04435005 -0.014762436 0.3044681
-0.043683 -0.014746961 0.30414894
-0.043032318 -0.014736646 0.30393618
-0.042456727 -0.014752119 0.30425531
-0.04193835 -0.014788226 0.30500001
-0.041431341 -0.014829491 0.30585107
-0.040864084 -0.014850123 0.30627659
0.019691002 -0.01528856 0.31531915
0.02032063 -0.015278244 0.31510639
0.020942314 -0.01526277 0.31478724
0.02156999 -0.015252454 0.31457448
0.022204306 -0.015247296 0.31446809
0.02285365 -0.015252454 0.31457448
0.023511371 -0.01526277 0.31478724
0.024153635 -0.01526277 0.31478724
0.024804277 -0.015267927 0.3148936
0.025455358 -0.015273086 0.315
0.02610687 -0.015278244 0.31510639
0.026749786 -0.015278244 0.31510639
0.027401948 -0.015283401 0.31521276
0.028045081 -0.015283401 0.31521276
-0.17325352 -0.013261721 0.28553191
-0.17299262 -0.013286427 0.28606382
-0.17272954 -0.013311132 0.28659573
-0.17246431 -0.013335838 0.28712767
-0.17213319 -0.013355602 0.28755319
-0.1717369 -0.013370425 0.28787234
-0.17121278 -0.013375365 0.28797871
-0.17056219 -0.013370425 0.28787234
-0.16984922 -0.013360543 0.28765959
-0.1692623 -0.013360543 0.28765959
-0.044303559 -0.014126402 0.30414894
-0.043667722 -0.014121461 0.30404255
-0.04304738 -0.014121461 0.30404255
-0.042471573 -0.014136285 0.3043617
-0.041952975 -0.014170871 0.30510637
-0.041431341 -0.01420546 0.30585107
0.020300049 -0.014620505 0.31478724
0.020921081 -0.014605682 0.31446809
0.021548105 -0.0145958 0.31425533
0.022196794 -0.014600741 0.31436169
0.02284592 -0.014605682 0.31446809
0.02349548 -0.014610624 0.31457448
0.024129147 -0.014605682 0.31446809
0.024770759 -0.014605682 0.31446809
0.025420971 -0.014610624 0.31457448
0.02610687 -0.014635328 0.31510639
0.02680397 -0.014664974 0.31574467
0.027466685 -0.014674857 0.31595746
-0.1736418 -0.012664976 0.28521276
-0.17331809 -0.012683872 0.2856383
-0.17305696 -0.012707491 0.28617021
-0.17272954 -0.012726387 0.28659573
-0.17227261 -0.012735836 0.28680852
-0.17181478 -0.012745284 0.28702128
-0.17141958 -0.012759455 0.28734043
-0.1709598 -0.012768904 0.28755319
-0.17043614 -0.012773627 0.28765959
-0.16978639 -0.012768904 0.28755319
-0.16913711 -0.012764179 0.2874468
-0.044241574 -0.013486947 0.30372339
-0.043637164 -0.013491672 0.30382979
-0.043032318 -0.013496396 0.30393618
-0.042456727 -0.013510567 0.30425531
-0.041909095 -0.013534188 0.30478725
-0.041373696 -0.01356253 0.30542552
0.020245165 -0.013940449 0.31393617
0.020878615 -0.013935724 0.31382978
0.021518925 -0.013935724 0.31382978
0.022181772 -0.013949897 0.31414893
0.02284592 -0.013964069 0.31446809
0.023503425 -0.013973516 0.31468084
0.024129147 -0.013964069 0.31446809
0.024762379 -0.013959344 0.31436169
0.025403775 -0.013959344 0.31436169
0.026115682 -0.013997137 0.31521276
0.026840094 -0.014039652 0.31617022
-0.17701966 -0.012155163 0.28691489
-0.17630343 -0.01214615 0.28670213
-0.17532726 -0.012119108 0.28606382
-0.17441867 -0.012096574 0.28553191
-0.1738361 -0.012096574 0.28553191
-0.17351173 -0.012114601 0.28595746
-0.17324996 -0.012137136 0.28648937
-0.17272954 -0.012141642 0.28659573
-0.17214479 -0.012141642 0.28659573
-0.17156005 -0.012141642 0.28659573
-0.1711657 -0.012155163 0.28691489
-0.1708333 -0.012173192 0.28734043
-0.17043614 -0.012186713 0.28765959
-0.16984922 -0.012186713 0.28765959
-0.16913711 -0.012177697 0.2874468
-0.044751272 -0.012835708 0.30297872
-0.044164095 -0.012844722 0.30319148
-0.043560769 -0.012849229 0.30329788
-0.042941947 -0.012849229 0.30329788
-0.042352814 -0.012858243 0.30351064
-0.041792069 -0.012876271 0.30393618
-0.041215174 -0.012889791 0.30425531
0.020197142 -0.013268373 0.3131915
0.020836152 -0.013268373 0.3131915
0.021482453 -0.01327288 0.31329787
0.022144213 -0.013286401 0.31361702
0.022822734 -0.013308935 0.31414893
0.023487533 -0.013322456 0.31446809
0.024137311 -0.013326963 0.31457448
0.024762379 -0.013317948 0.31436169
-0.17805831 -0.011561188 0.28670213
-0.17760506 -0.011569767 0.28691489
-0.17708531 -0.011574057 0.28702128
-0.17643426 -0.011569767 0.28691489
-0.17558807 -0.011552609 0.28648937
-0.17474359 -0.011535448 0.28606382
-0.1742247 -0.011539739 0.28617021
-0.17376994 -0.011548318 0.28638297
-0.17324996 -0.011552609 0.28648937
-0.17266543 -0.011552609 0.28648937
-0.17195311 -0.011544028 0.28627661
-0.17149638 -0.011552609 0.28648937
-0.1711657 -0.011569767 0.28691489
-0.17102306 -0.011599797 0.28765959
-0.17062521 -0.011612666 0.28797871
-0.17003764 -0.011612666 0.28797871
-0.1692623 -0.011599797 0.28765959
-0.16867539 -0.011599797 0.28765959
-0.044688419 -0.012200377 0.30255318
-0.044086613 -0.012204668 0.30265957
-0.043453813 -0.012200377 0.30255318
-0.04283651 -0.012200377 0.30255318
-0.042248897 -0.012208957 0.30276597
-0.041689672 -0.012226117 0.30319148
-0.041099887 -0.012234696 0.30340424
0.020176562 -0.012616495 0.31287235
0.02080784 -0.012612205 0.31276596
0.021438686 -0.012607914 0.31265956
0.022091633 -0.012616495 0.31287235
0.022760903 -0.012633654 0.31329787
0.023439858 -0.012655103 0.31382978
0.024104659 -0.012667973 0.31414893
-0.17884214 -0.010988444 0.28702128
-0.17819045 -0.010984371 0.28691489
-0.17767091 -0.010988444 0.28702128
-0.17721657 -0.010996589 0.28723404
-0.17669594 -0.011000663 0.28734043
-0.17604448 -0.010996589 0.28723404
-0.17526348 -0.010984371 0.28691489
-0.17461333 -0.010980299 0.28680852
-0.17396358 -0.010976226 0.28670213
-0.17331429 -0.010972152 0.28659573
-0.17260131 -0.010964007 0.28638297
-0.17195311 -0.010959935 0.28627661
-0.17162374 -0.010976226 0.28670213
-0.17141958 -0.011000663 0.28734043
-0.17127603 -0.011029172 0.2880851
-0.17087735 -0.011041391 0.28840426
-0.17016329 -0.011033245 0.2881915
-0.16945009 -0.011025099 0.28797871
-0.16898729 -0.011033245 0.2881915
-0.16877225 -0.011057681 0.28882977
-0.045257933 -0.011570857 0.30223405
-0.044641282 -0.011570857 0.30223405
-0.044024631 -0.011570857 0.30223405
-0.043377418 -0.01156271 0.30202127
-0.042746138 -0.011558638 0.3019149
-0.042159829 -0.011566783 0.30212766
-0.041601904 -0.011583074 0.30255318
0.020155979 -0.011965919 0.3125532
0.020779531 -0.011957774 0.31234044
0.02139492 -0.011945555 0.31202129
0.02203154 -0.011945555 0.31202129
0.022691347 -0.011957774 0.31234044
0.023368347 -0.011978137 0.31287235
-0.17897472 -0.010410543 0.28723404
-0.17825653 -0.010402831 0.28702128
-0.17767091 -0.010402831 0.28702128
-0.17728221 -0.010414398 0.28734043
-0.17689221 -0.010425966 0.28765959
-0.17637049 -0.010429821 0.28776595
-0.17571838 -0.010425966 0.28765959
-0.17500192 -0.010418254 0.2874468
-0.17415723 -0.010402831 0.28702128
-0.17337862 -0.010391263 0.28670213
-0.17266543 -0.010383553 0.28648937
-0.17214479 -0.010387408 0.28659573
-0.17194214 -0.010410543 0.28723404
-0.17180035 -0.010437532 0.28797871
-0.17159228 -0.010460667 0.28861701
-0.1710034 -0.010460667 0.28861701
-0.17028892 -0.010452956 0.28840426
-0.16970047 -0.010452956 0.28840426
-0.16936156 -0.010468379 0.28882977
-0.16920741 -0.010495369 0.28957447
-0.045242 -0.010950348 0.30212766
-0.044625565 -0.010950348 0.30212766
-0.043993633 -0.010946493 0.30202127
-0.04334686 -0.010938781 0.30180851
-0.042731076 -0.010938781 0.30180851
-0.04214498 -0.010946493 0.30202127
-0.041587278 -0.010961916 0.30244681
0.020149119 -0.011324356 0.3124468
0.020772453 -0.011316645 0.31223404
0.021387624 -0.011305078 0.31191489
0.022009006 -0.011297367 0.31170213
0.022652702 -0.011301222 0.3118085
0.023312727 -0.011312789 0.31212765
-0.17982678 -0.0098390505 0.28765959
-0.179041 -0.0098281344 0.28734043
-0.17825653 -0.0098172184 0.28702128
-0.17753921 -0.0098099411 0.28680852
-0.17715095 -0.0098208571 0.28712767
-0.17676136 -0.0098317722 0.2874468
-0.17643569 -0.0098463278 0.28787234
-0.17584834 -0.0098463278 0.28787234
-0.17519622 -0.0098426882 0.28776595
-0.17441542 -0.0098317722 0.2874468
-0.17357163 -0.0098172184 0.28702128
-0.17292188 -0.0098135788 0.28691489
-0.17246431 -0.0098208571 0.28712767
-0.17226055 -0.0098426882 0.28776595
-0.17205422 -0.0098645212 0.28840426
-0.17165554 -0.0098754372 0.28872341
-0.1710034 -0.0098717986 0.28861701
-0.17028892 -0.0098645212 0.28840426
-0.16976309 -0.0098681599 0.28851065
-0.16961108 -0.0098936306 0.28925532
-0.16964254 -0.0099300174 0.29031914
-0.16948381 -0.0099554881 0.29106382
-0.04589073 -0.010341191 0.30234042
-0.045257933 -0.010337553 0.30223405
-0.044625565 -0.010333913 0.30212766
-0.043993633 -0.010330275 0.30202127
-0.04334686 -0.010322997 0.30180851
-0.042761199 -0.010330275 0.30202127
-0.042189516 -0.010341191 0.30234042
-0.041616533 -0.010352107 0.30265957
0.020155979 -0.010690507 0.3125532
0.020779531 -0.010683229 0.31234044
0.021409508 -0.010679591 0.31223404
0.02203905 -0.010675951 0.31212765
0.02266816 -0.010672313 0.31202129
-0.17956077 -0.009238448 0.28723404
-0.17877585 -0.009228183 0.28691489
-0.17799224 -0.0092179179 0.28659573
-0.17727579 -0.0092110746 0.28638297
-0.17675713 -0.0092144972 0.28648937
-0.17643426 -0.009228183 0.28691489
-0.17610969 -0.0092418697 0.28734043
-0.17571838 -0.0092521347 0.28765959
-0.17513146 -0.0092521347 0.28765959
-0.17447999 -0.009248713 0.28755319
-0.17370029 -0.009238448 0.28723404
-0.17311424 -0.009238448 0.28723404
-0.1727199 -0.009248713 0.28755319
-0.1724516 -0.0092658214 0.2880851
-0.1721177 -0.0092795081 0.28851065
-0.17159228 -0.0092829298 0.28861701
-0.17087735 -0.0092760865 0.28840426
-0.17016329 -0.0092692431 0.2881915
-0.16970047 -0.0092760865 0.28840426
-0.16967347 -0.0093068816 0.28936172
-0.16976686 -0.0093445191 0.2905319
-0.16960771 -0.0093684709 0.2912766
-0.045906879 -0.0097277435 0.30244681
-0.045242 -0.0097174784 0.30212766
-0.044594143 -0.009710636 0.3019149
-0.043962643 -0.0097072134 0.30180851
-0.043377418 -0.0097140567 0.30202127
-0.042821448 -0.0097277435 0.30244681
-0.042263743 -0.0097414302 0.30287233
-0.041689672 -0.0097516952 0.30319148
0.02018342 -0.010066487 0.31297871
0.020814918 -0.010063065 0.31287235
0.021453276 -0.010063065 0.31287235
0.022091633 -0.010063065 0.31287235
0.022737717 -0.010066487 0.31297871
-0.17974648 -0.0086331731 0.28659573
-0.17909524 -0.0086299693 0.28648937
-0.17837813 -0.00862356 0.28627661
-0.17759584 -0.0086139459 0.28595746
-0.17694654 -0.0086107412 0.28585106
-0.1763633 -0.0086107412 0.28585106
-0.17597634 -0.0086203553 0.28617021
-0.17565326 -0.0086331731 0.28659573
-0.17532846 -0.0086459918 0.28702128
-0.17493716 -0.0086556058 0.28734043
-0.17435089 -0.0086556058 0.28734043
-0.17376463 -0.0086556058 0.28734043
-0.17324246 -0.0086588096 0.2874468
-0.17284769 -0.0086684236 0.28776595
-0.1724516 -0.0086780377 0.2880851
-0.17205422 -0.0086876517 0.28840426
-0.17140253 -0.0086844461 0.28829786
-0.17068826 -0.0086780377 0.2880851
-0.17003764 -0.008674833 0.28797871
-0.16963787 -0.0086844461 0.28829786
-0.16954871 -0.0087100836 0.28914893
-0.16951822 -0.0087389247 0.29010639
-0.16929799 -0.0087581528 0.29074469
-0.16882823 -0.0087645622 0.29095745
-0.046523966 -0.0091106575 0.30244681
-0.045874584 -0.0091042491 0.30223405
-0.045194212 -0.0090914303 0.30180851
-0.044531286 -0.0090818163 0.30148935
-0.043947149 -0.0090882257 0.30170214
-0.043392699 -0.0091010444 0.30212766
-0.042866636 -0.0091202715 0.30276597
-0.042337965 -0.0091394987 0.30340424
-0.04176281 -0.0091491127 0.30372339
0.020224584 -0.0094471397 0.31361702
0.020857383 -0.009443935 0.31351063
0.021489749 -0.0094407313 0.31340426
0.022136701 -0.009443935 0.31351063
0.022776362 -0.009443935 0.31351063
-0.17907926 -0.0080185533 0.28553191
-0.17849669 -0.0080185533 0.28553191
-0.17784785 -0.0080155656 0.28542554
-0.17719941 -0.0080125779 0.28531915
-0.17661726 -0.0080125779 0.28531915
-0.17603514 -0.0080125779 0.28531915
-0.17558382 -0.0080185533 0.28553191
-0.17519686 -0.0080275154 0.28585106
-0.17493854 -0.0080424529 0.28638297
-0.17454855 -0.0080514159 0.28670213
-0.17415723 -0.008060379 0.28702128
-0.17370029 -0.0080663534 0.28723404
-0.17324246 -0.0080723288 0.2874468
-0.17278379 -0.0080783041 0.28765959
-0.17232424 -0.0080842795 0.28787234
-0.17180035 -0.0080872662 0.28797871
-0.17121278 -0.0080872662 0.28797871
-0.17056219 -0.0080842795 0.28787234
-0.16997485 -0.0080842795 0.28787234
-0.16945009 -0.0080872662 0.28797871
-0.16911204 -0.008099217 0.28840426
-0.16883442 -0.0081141545 0.28893617
-0.16843075 -0.0081231166 0.28925532
-0.16790231 -0.0081261052 0.28936172
-0.046393052 -0.0084696719 0.30159575
-0.045745406 -0.0084636966 0.30138299
-0.045066766 -0.0084517458 0.30095744
-0.044452719 -0.0084517458 0.30095744
-0.043900661 -0.0084636966 0.30138299
-0.043407977 -0.0084875971 0.30223405
-0.042911824 -0.0085114976 0.30308512
-0.04239735 -0.0085324096 0.30382979
-0.041806694 -0.0085383849 0.30404255
0.020238305 -0.0088132378 0.31382978
0.020878615 -0.0088132378 0.31382978
0.021504337 -0.0088072633 0.31361702
0.022136701 -0.0088042757 0.31351063
0.022768633 -0.008801288 0.31340426
0.087651171 -0.0089626154 0.31914893
-0.1785455 -0.0074138148 0.28468084
-0.17796466 -0.0074138148 0.28468084
-0.17745012 -0.0074165855 0.28478724
-0.17686906 -0.0074165855 0.28478724
-0.17635384 -0.0074193557 0.2848936
-0.17583822 -0.0074221264 0.285
-0.17538756 -0.0074276673 0.28521276
-0.17487085 -0.007430438 0.28531915
-0.17454864 -0.0074415193 0.28574467
-0.17415993 -0.0074498309 0.28606382
-0.17383449 -0.0074609132 0.28648937
-0.17344296 -0.0074692247 0.28680852
-0.17305014 -0.0074775363 0.28712767
-0.17252819 -0.0074803066 0.28723404
-0.17200583 -0.0074830772 0.28734043
-0.17141958 -0.0074830772 0.28734043
-0.1708333 -0.0074830772 0.28734043
-0.1703731 -0.0074886181 0.28755319
-0.16984922 -0.0074913888 0.28765959
-0.1692623 -0.0074913888 0.28765959
-0.168613 -0.0074886181 0.28755319
-0.16796413 -0.007485847 0.2874468
-0.16737765 -0.007485847 0.2874468
-0.16672945 -0.0074830772 0.28734043
-0.046262134 -0.0078321584 0.30074468
-0.045616228 -0.007826617 0.30053192
-0.044971187 -0.0078210756 0.30031914
-0.044374157 -0.0078238463 0.30042553
-0.043869667 -0.0078432392 0.3011702
-0.043407977 -0.0078709451 0.30223405
-0.042941947 -0.0078986501 0.30329788
-0.042412195 -0.0079152733 0.30393618
-0.041835949 -0.0079235835 0.30425531
0.020210864 -0.0081618456 0.31340426
0.020857383 -0.0081646154 0.31351063
0.021489749 -0.0081618456 0.31340426
0.022114169 -0.0081563052 0.3131915
0.022729991 -0.0081479931 0.31287235
0.085697681 -0.0083114514 0.31914893
0.086291283 -0.008305911 0.31893617
0.086855009 -0.0082975989 0.31861702
0.087475874 -0.0082948292 0.31851065
0.08824347 -0.008305911 0.31893617
-0.1782119 -0.0068202098 0.28414893
-0.17769866 -0.0068227635 0.28425533
-0.17718495 -0.0068253162 0.28436169
-0.17667085 -0.0068278704 0.28446808
-0.17622215 -0.0068329768 0.28468084
-0.17577258 -0.0068380837 0.2848936
-0.17525673 -0.0068406374 0.285
-0.17474045 -0.0068431911 0.28510639
-0.1742887 -0.0068482975 0.28531915
-0.17390087 -0.0068559581 0.2856383
-0.17357628 -0.0068661715 0.28606382
-0.17318562 -0.0068738316 0.28638297
-0.17279366 -0.0068814922 0.28670213
-0.17227261 -0.0068840459 0.28680852
-0.17168742 -0.0068840459 0.28680852
-0.17103878 -0.0068814922 0.28670213
-0.17045382 -0.0068814922 0.28670213
-0.17005795 -0.0068891523 0.28702128
-0.16959795 -0.0068942592 0.28723404
-0.16901191 -0.0068942592 0.28723404
-0.16817635 -0.0068840459 0.28680852
-0.16721819 -0.0068687252 0.28617021
-0.16632459 -0.0068559581 0.2856383
-0.16555661 -0.0068482975 0.28531915
-0.046163946 -0.0072032241 0.30010638
-0.045535494 -0.0072006714 0.30000001
-0.044891533 -0.0071955635 0.29978722
-0.044327013 -0.0072032241 0.30010638
-0.043838672 -0.0072236517 0.30095744
-0.043407977 -0.0072542932 0.30223405
-0.042941947 -0.0072798273 0.30329788
-0.042427037 -0.0072977012 0.30404255
-0.041835949 -0.0073028076 0.30425531
0.019511629 -0.0074994219 0.3124468
0.020155979 -0.0075019756 0.3125532
0.020800762 -0.0075045289 0.31265956
0.021438686 -0.0075045289 0.31265956
0.022061586 -0.0074994219 0.3124468
0.022683619 -0.007494315 0.31223404
0.084226571 -0.0076449681 0.31851065
0.084791385 -0.0076373075 0.3181915
0.085412025 -0.0076347538 0.3180851
0.086003453 -0.0076296469 0.31787235
0.086623006 -0.0076270932 0.31776595
0.087300569 -0.0076296469 0.31787235
0.088096298 -0.007642414 0.31840426
-0.17814519 -0.0062381211 0.28404257
-0.17756565 -0.0062381211 0.28404257
-0.17711869 -0.006242794 0.28425533
-0.17673692 -0.0062498031 0.28457448
-0.17628801 -0.0062544756 0.28478724
-0.17583822 -0.006259148 0.285
-0.17525673 -0.006259148 0.285
-0.17467524 -0.006259148 0.285
-0.17415874 -0.0062614847 0.28510639
-0.1736418 -0.0062638209 0.28521276
-0.17325352 -0.0062708301 0.28553191
-0.17292829 -0.0062801759 0.28595746
-0.17253721 -0.006287185 0.28627661
-0.17201699 -0.0062895212 0.28638297
-0.17130533 -0.0062848483 0.28617021
-0.17053105 -0.0062778392 0.28585106
-0.16988458 -0.0062755025 0.28574467
-0.1695537 -0.0062848483 0.28617021
-0.16915826 -0.0062918575 0.28648937
-0.16863632 -0.0062941937 0.28659573
-0.16767731 -0.0062801759 0.28595746
-0.16659656 -0.0062614847 0.28510639
-0.1655193 -0.006242794 0.28425533
-0.16456895 -0.0062287753 0.28361702
-0.046147585 -0.0065885773 0.30000001
-0.045503195 -0.0065839039 0.29978722
-0.044875607 -0.0065815682 0.29968086
-0.044311304 -0.0065885773 0.30000001
-0.043838672 -0.0066096042 0.30095744
-0.043407977 -0.0066376412 0.30223405
-0.042957004 -0.0066633406 0.30340424
-0.042427037 -0.0066773593 0.30404255
0.01943191 -0.0068338965 0.31117022
0.020080514 -0.0068385694 0.31138298
0.020729987 -0.0068432419 0.31159574
0.021373035 -0.0068455786 0.31170213
0.022001494 -0.0068432419 0.31159574
0.022621788 -0.0068385694 0.31138298
0.023257107 -0.0068385694 0.31138298
0.083744191 -0.0070091244 0.31914893
0.084170297 -0.0069904332 0.31829786
0.084649637 -0.0069764154 0.31765959
0.085183494 -0.0069670696 0.31723404
0.085744403 -0.0069600604 0.31691489
0.086391009 -0.0069600604 0.31691489
0.087125264 -0.0069670696 0.31723404
0.08791969 -0.0069787516 0.31776595
0.088745944 -0.0069927699 0.31840426
0.089455321 -0.0069974428 0.31861702
0.089954972 -0.0069857608 0.3180851
0.090210035 -0.006955388 0.31670213
-0.17807846 -0.0056564659 0.28393617
-0.17763214 -0.0056607043 0.28414893
-0.17725125 -0.0056670625 0.28446808
-0.17686906 -0.0056734206 0.28478724
-0.17648557 -0.0056797788 0.28510639
-0.17596948 -0.0056818975 0.28521276
-0.17538756 -0.0056818975 0.28521276
-0.17474045 -0.0056797788 0.28510639
-0.17415874 -0.0056797788 0.28510639
-0.1736418 -0.0056818975 0.28521276
-0.17318898 -0.0056861369 0.28542554
-0.17273529 -0.0056903753 0.2856383
-0.17234485 -0.005696733 0.28595746
-0.17182529 -0.0056988522 0.28606382
-0.17105059 -0.0056924941 0.28574467
-0.17021373 -0.0056840172 0.28531915
-0.16950509 -0.0056797788 0.28510639
-0.16904944 -0.0056840172 0.28531915
-0.16871855 -0.0056924941 0.28574467
-0.16813554 -0.0056924941 0.28574467
-0.16724063 -0.0056818975 0.28521276
-0.16609927 -0.005662824 0.28425533
-0.16502373 -0.0056458693 0.28340426
-0.16407511 -0.0056331535 0.28276595
-0.16343667 -0.0056310338 0.28265956
-0.046098493 -0.0059701256 0.29968086
-0.045470901 -0.0059680059 0.29957446
-0.044843744 -0.0059658866 0.29946807
-0.044279873 -0.0059722443 0.29978722
-0.043823179 -0.005993438 0.30085108
-0.043392699 -0.0060188696 0.30212766
-0.042957004 -0.0060443012 0.30340424
-0.042427037 -0.0060570175 0.30404255
0.019378763 -0.0061820578 0.31031916
0.020032492 -0.0061884155 0.31063831
0.020687524 -0.0061947736 0.31095746
0.021314679 -0.0061926539 0.31085107
0.021933889 -0.0061884155 0.31063831
0.022559959 -0.0061862962 0.31053191
0.023193542 -0.0061862962 0.31053191
0.08428283 -0.006349484 0.31872341
0.084677979 -0.0063304096 0.31776595
0.085126363 -0.0063155745 0.31702128
0.085600488 -0.0063028587 0.31638297
0.086217016 -0.0063007395 0.31627661
0.086949959 -0.0063070972 0.31659573
0.087743089 -0.0063176937 0.31712765
0.088538386 -0.0063282908 0.31765959
0.089216374 -0.0063304096 0.31776595
0.089684203 -0.0063176937 0.31712765
0.089967616 -0.0062922621 0.31585106
0.090184778 -0.0062625916 0.31436169
-0.17814519 -0.0050790501 0.28404257
-0.17763214 -0.0050809518 0.28414893
-0.17731754 -0.0050885612 0.28457448
-0.17693512 -0.0050942674 0.2848936
-0.17661726 -0.0051018768 0.28531915
-0.17610078 -0.0051037795 0.28542554
-0.17551841 -0.0051037795 0.28542554
-0.17487085 -0.0051018768 0.28531915
-0.17422372 -0.0050999746 0.28521276
-0.17370656 -0.0051018768 0.28531915
-0.17312443 -0.0051018768 0.28531915
-0.17260663 -0.0051037795 0.28542554
-0.17208837 -0.0051056813 0.28553191
-0.17156971 -0.0051075839 0.2856383
-0.17079587 -0.0051018768 0.28531915
-0.16995986 -0.0050942674 0.2848936
-0.1692521 -0.005090463 0.28468084
-0.16867125 -0.005090463 0.28468084
-0.16827886 -0.0050961701 0.285
-0.16769737 -0.0050961701 0.285
-0.16680399 -0.005086659 0.28446808
-0.16578844 -0.0050733429 0.28372341
-0.16477594 -0.0050600269 0.28297871
-0.16407511 -0.0050562224 0.28276595
-0.1636212 -0.0050600269 0.28297871
-0.16353419 -0.0050752452 0.28382978
-0.046049397 -0.0053529763 0.29936171
-0.045422457 -0.0053510736 0.29925531
-0.044811882 -0.0053510736 0.29925531
-0.044264164 -0.0053586829 0.29968086
-0.043776691 -0.0053739012 0.30053192
-0.043362141 -0.0053986306 0.3019149
-0.042896759 -0.0054176529 0.30297872
0.019372119 -0.0055470071 0.31021276
0.020039352 -0.0055565182 0.31074467
0.020687524 -0.0055603231 0.31095746
0.021307385 -0.0055565182 0.31074467
0.021903843 -0.0055470071 0.31021276
0.022521317 -0.0055432026 0.31
0.084791385 -0.0056896773 0.3181915
0.085154928 -0.0056706541 0.31712765
0.085600488 -0.0056573385 0.31638297
0.086217016 -0.0056554363 0.31627661
0.086920746 -0.0056592408 0.31648937
0.087684222 -0.0056668497 0.31691489
0.088479079 -0.0056763608 0.3174468
0.089156643 -0.0056782635 0.31755319
0.089684203 -0.0056706541 0.31712765
0.089967616 -0.0056478274 0.31585106
0.090245828 -0.0056250002 0.31457448
-0.17814519 -0.0044995146 0.28404257
-0.17769866 -0.0045028846 0.28425533
-0.17731754 -0.0045079403 0.28457448
-0.17700119 -0.0045146812 0.285
-0.17674898 -0.0045231069 0.28553191
-0.17629766 -0.0045264773 0.28574467
-0.17571466 -0.0045264773 0.28574467
-0.17506646 -0.0045247925 0.2856383
-0.1743537 -0.0045214221 0.28542554
-0.17377134 -0.0045214221 0.28542554
-0.17318898 -0.0045214221 0.28542554
-0.17260663 -0.0045214221 0.28542554
-0.17202426 -0.0045214221 0.28542554
-0.171378 -0.0045197369 0.28531915
-0.17073219 -0.0045180512 0.28521276
-0.17002332 -0.0045146812 0.285
-0.16937858 -0.0045129955 0.2848936
-0.1687343 -0.0045113107 0.28478724
-0.16815324 -0.0045113107 0.28478724
-0.16750959 -0.0045096255 0.28468084
-0.16661684 -0.0045011993 0.28414893
-0.16566411 -0.004491088 0.28351063
-0.16489984 -0.0044860328 0.2831915
-0.16438375 -0.0044877175 0.28329787
-0.1641133 -0.0044961437 0.28382978
-0.16390197 -0.004506255 0.28446808
-0.1637491 -0.0045180512 0.28521276
-0.16347148 -0.0045264773 0.28574467
-0.045934848 -0.0047303885 0.29861704
-0.045325577 -0.0047303885 0.29861704
-0.044748165 -0.0047337585 0.29882979
-0.044217024 -0.0047421847 0.29936171
-0.043730203 -0.0047556665 0.30021277
-0.043270465 -0.0047725183 0.30127659
-0.042776264 -0.0047860001 0.30212766
0.018719908 -0.0049090204 0.30989361
0.019392049 -0.0049191318 0.31053191
0.020080514 -0.0049326136 0.31138298
0.020737065 -0.0049376693 0.31170213
0.021343857 -0.0049309279 0.31127658
0.021926377 -0.0049191318 0.31053191
0.022521317 -0.0049107056 0.31
0.085046515 -0.0050556338 0.31914893
0.085383452 -0.0050370963 0.31797871
0.085830756 -0.0050253002 0.31723404
0.086391009 -0.0050202445 0.31691489
0.087066837 -0.0050219297 0.31702128
0.087801963 -0.0050269854 0.31734043
0.088597685 -0.0050354116 0.31787235
0.089305982 -0.0050387816 0.3180851
0.089894809 -0.0050354116 0.31787235
0.090240344 -0.0050185593 0.31680852
0.090520494 -0.0049983365 0.31553191
0.090918384 -0.0049848547 0.31468084
-0.1782119 -0.0039214469 0.28414893
-0.17776515 -0.0039243829 0.28436169
-0.17738383 -0.0039287875 0.28468084
-0.17713334 -0.0039361282 0.28521276
-0.17681482 -0.0039420011 0.2856383
-0.17642894 -0.0039464054 0.28595746
-0.1758455 -0.0039464054 0.28595746
-0.17519686 -0.0039449371 0.28585106
-0.17448367 -0.0039420011 0.2856383
-0.1738361 -0.0039405329 0.28553191
-0.17318898 -0.0039390647 0.28542554
-0.17260663 -0.0039390647 0.28542554
-0.17208837 -0.0039405329 0.28553191
-0.17144191 -0.0039390647 0.28542554
-0.17092323 -0.0039405329 0.28553191
-0.17034066 -0.0039405329 0.28553191
-0.16975808 -0.0039405329 0.28553191
-0.16911249 -0.0039390647 0.28542554
-0.16840449 -0.0039361282 0.28521276
-0.16757219 -0.0039302558 0.28478724
-0.16674159 -0.0039243829 0.28436169
-0.16591276 -0.0039185104 0.28393617
-0.16533345 -0.0039185104 0.28393617
-0.16487758 -0.0039214469 0.28414893
-0.16460539 -0.0039287875 0.28468084
-0.16426975 -0.0039346605 0.28510639
-0.16387127 -0.0039390647 0.28542554
-0.16347148 -0.0039434689 0.28574467
-0.1630704 -0.0039478736 0.28606382
-0.16260761 -0.0039508101 0.28627661
-0.16214393 -0.0039537461 0.28648937
-0.16215932 -0.0039684279 0.28755319
-0.16217038 -0.0039831093 0.28861701
-0.1618793 -0.0039904499 0.28914893
-0.16128933 -0.0039904499 0.28914893
-0.045820296 -0.0041108388 0.29787233
-0.04522869 -0.004112307 0.29797873
-0.044700373 -0.0041196481 0.29851064
-0.044201311 -0.0041299248 0.29925531
-0.043714706 -0.0041416702 0.30010638
-0.043209352 -0.0041519473 0.30085108
-0.042625643 -0.0041548838 0.30106384
0.018707056 -0.0042738044 0.30968085
0.019398693 -0.004287018 0.31063831
0.020107955 -0.0043031671 0.3118085
0.020779531 -0.0043105083 0.31234044
0.02139492 -0.004306104 0.31202129
0.021978958 -0.0042958264 0.31127658
0.08617615 -0.0043956614 0.31851065
0.086710006 -0.004389789 0.3180851
0.087329783 -0.0043883203 0.31797871
0.088066861 -0.0043927249 0.31829786
0.088805243 -0.0043971296 0.31861702
0.08954493 -0.0044015339 0.31893617
0.09016557 -0.0044000656 0.31882977
0.090634272 -0.0043912572 0.3181915
0.09097828 -0.0043765754 0.31712765
0.091410168 -0.0043662982 0.31638297
-0.17841206 -0.0033454474 0.28446808
-0.17796466 -0.0033479496 0.28468084
-0.17764898 -0.0033529541 0.28510639
-0.17733155 -0.0033579583 0.28553191
-0.17694654 -0.0033617117 0.28585106
-0.17642894 -0.003362963 0.28595746
-0.17578009 -0.0033617117 0.28585106
-0.17519686 -0.0033617117 0.28585106
-0.17448367 -0.0033592095 0.2856383
-0.17390087 -0.0033592095 0.2856383
-0.17338262 -0.0033604605 0.28574467
-0.17286396 -0.0033617117 0.28585106
-0.17228073 -0.0033617117 0.28585106
-0.1716975 -0.0033617117 0.28585106
-0.17124164 -0.0033642137 0.28606382
-0.17078492 -0.0033667164 0.28627661
-0.17032732 -0.0033692184 0.28648937
-0.16961673 -0.0033667164 0.28627661
-0.16884419 -0.003362963 0.28595746
-0.16794777 -0.0033567075 0.28542554
-0.16705349 -0.0033504516 0.2848936
-0.16628575 -0.0033466986 0.28457448
-0.16570513 -0.0033466986 0.28457448
-0.16537142 -0.0033517028 0.285
-0.16497447 -0.0033554563 0.28531915
-0.16451491 -0.0033579583 0.28553191
-0.16399342 -0.0033592095 0.2856383
-0.16347148 -0.0033604605 0.28574467
-0.16300976 -0.003362963 0.28595746
-0.16248675 -0.0033642137 0.28606382
-0.16190308 -0.0033642137 0.28606382
-0.16143942 -0.0033667164 0.28627661
-0.16121396 -0.0033742227 0.28691489
-0.16098593 -0.0033817294 0.28755319
-0.16057725 -0.0033854828 0.28787234
-0.15987165 -0.0033829806 0.28765959
-0.1589313 -0.0033754739 0.28702128
-0.15816961 -0.0033717207 0.28670213
-0.15735076 -0.0033667164 0.28627661
-0.15635887 -0.0033579583 0.28553191
-0.15525396 -0.0033466986 0.28457448
-0.15444204 -0.0033416941 0.28414893
-0.15449594 -0.0033554563 0.28531915
-0.15529111 -0.0033854828 0.28787234
-0.045738474 -0.0034968308 0.29734042
-0.045164101 -0.0034993328 0.29755318
-0.044652581 -0.0035068395 0.29819149
-0.044185597 -0.0035180997 0.29914895
-0.043699212 -0.0035281086 0.30000001
-0.043178789 -0.0035356148 0.30063829
-0.042595521 -0.0035381173 0.30085108
0.018006908 -0.0036281964 0.30851063
0.018662073 -0.0036332011 0.30893618
0.019365476 -0.0036469633 0.3101064
0.020080514 -0.0036619762 0.31138298
0.020772453 -0.0036719851 0.31223404
0.021424096 -0.0036744874 0.3124468
0.087000005 -0.0037533066 0.31914893
0.087592736 -0.0037508046 0.31893617
0.088302337 -0.0037533066 0.31914893
0.091313995 -0.0037432979 0.31829786
-0.17861223 -0.0027681459 0.28478724
-0.17823069 -0.0027712481 0.28510639
-0.17791411 -0.0027753841 0.28553191
-0.17752975 -0.0027784863 0.28585106
-0.17688067 -0.0027774521 0.28574467
-0.17623204 -0.0027764181 0.2856383
-0.17551841 -0.0027743501 0.28542554
-0.17500125 -0.0027753841 0.28553191
-0.17448367 -0.0027764181 0.2856383
-0.17403041 -0.0027784863 0.28585106
-0.17357628 -0.0027805544 0.28606382
-0.17305696 -0.0027815884 0.28617021
-0.17247307 -0.0027815884 0.28617021
-0.17195311 -0.0027826226 0.28627661
-0.17156005 -0.0027857246 0.28659573
-0.17122917 -0.0027898608 0.28702128
-0.17077005 -0.0027919288 0.28723404
-0.17012098 -0.0027908951 0.28712767
-0.16928388 -0.0027867586 0.28670213
-0.16832334 -0.0027805544 0.28606382
-0.16742778 -0.0027753841 0.28553191
-0.16659656 -0.0027712481 0.28510639
-0.16601487 -0.0027712481 0.28510639
-0.16555661 -0.0027733161 0.28531915
-0.165159 -0.0027764181 0.2856383
-0.16469879 -0.0027784863 0.28585106
-0.16405448 -0.0027774521 0.28574467
-0.16347148 -0.0027774521 0.28574467
-0.16288847 -0.0027774521 0.28574467
-0.16224505 -0.0027764181 0.2856383
-0.16154183 -0.0027743501 0.28542554
-0.16083948 -0.0027722819 0.28521276
-0.16031735 -0.0027733161 0.28531915
-0.16003299 -0.0027784863 0.28585106
-0.15974647 -0.0027836564 0.28638297
-0.15933953 -0.0027867586 0.28670213
-0.15875457 -0.0027867586 0.28670213
-0.15805224 -0.0027846906 0.28648937
-0.1572338 -0.0027805544 0.28606382
-0.15630062 -0.0027743501 0.28542554
-0.15519591 -0.0027650436 0.28446808
-0.15444204 -0.0027619414 0.28414893
-0.15449594 -0.0027733161 0.28531915
-0.15511894 -0.0027950311 0.28755319
-0.15556131 -0.0028136438 0.28946808
-0.15542634 -0.0028219162 0.29031914
-0.045754839 -0.0028911976 0.29744682
-0.045147955 -0.0028911976 0.29744682
-0.044636648 -0.0028974016 0.29808509
-0.044169884 -0.0029067083 0.29904255
-0.043714706 -0.0029170485 0.30010638
-0.04319407 -0.002923253 0.30074468
-0.042625643 -0.0029263552 0.30106384
0.017963443 -0.0029915001 0.30776596
0.018610662 -0.0029946023 0.30808511
0.019292399 -0.0030028748 0.30893618
0.019998191 -0.0030142493 0.3101064
0.020708755 -0.0030256235 0.31127658
0.02138033 -0.0030307937 0.3118085
-0.17874566 -0.0021887247 0.285
-0.17829718 -0.0021903587 0.28521276
-0.17791411 -0.0021928097 0.28553191
-0.17739762 -0.0021936267 0.2856383
-0.17668313 -0.0021919929 0.28542554
-0.17590386 -0.0021895419 0.28510639
-0.1751913 -0.0021879077 0.2848936
-0.17480564 -0.0021903587 0.28521276
-0.17448367 -0.0021936267 0.2856383
-0.1742247 -0.0021977117 0.28617021
-0.17376994 -0.0021993457 0.28638297
-0.17324996 -0.0022001627 0.28648937
-0.17266543 -0.0022001627 0.28648937
-0.1722087 -0.0022017967 0.28670213
-0.17181478 -0.0022042478 0.28702128
-0.17148302 -0.0022075155 0.2874468
-0.1710863 -0.0022099665 0.28776595
-0.17049916 -0.0022099665 0.28776595
-0.16966078 -0.0022066988 0.28734043
-0.16869892 -0.0022017967 0.28670213
-0.16773967 -0.0021968947 0.28606382
-0.1668452 -0.0021928097 0.28553191
-0.16607679 -0.0021903587 0.28521276
-0.16561835 -0.0021919929 0.28542554
-0.1652205 -0.0021944437 0.28574467
-0.1647601 -0.0021960777 0.28595746
-0.16417666 -0.0021960777 0.28595746
-0.16353235 -0.0021952607 0.28585106
-0.16288847 -0.0021944437 0.28574467
-0.1621242 -0.0021919929 0.28542554
-0.16124077 -0.0021879077 0.2848936
-0.16041954 -0.0021846399 0.28446808
-0.15971959 -0.0021830059 0.28425533
-0.1593183 -0.0021854569 0.28457448
-0.15903439 -0.0021895419 0.28510639
-0.15880741 -0.0021944437 0.28574467
-0.15840113 -0.0021968947 0.28606382
-0.15787616 -0.0021977117 0.28617021
-0.15711686 -0.0021952607 0.28585106
-0.15612586 -0.0021895419 0.28510639
-0.15513787 -0.0021838227 0.28436169
-0.15449987 -0.0021830059 0.28425533
-0.15449594 -0.0021911757 0.28531915
-0.1548894 -0.0022050648 0.28712767
-0.15516113 -0.0022173196 0.28872341
-0.1548568 -0.0022214046 0.28925532
-0.15381274 -0.0022148686 0.28840426
-0.15271562 -0.0022075155 0.2874468
-0.15167873 -0.0022009797 0.28659573
-0.046577282 -0.0022949339 0.29882979
-0.045836661 -0.0022883981 0.29797873
-0.04518025 -0.0022859471 0.29765958
-0.044620723 -0.0022883981 0.29797873
-0.044154167 -0.0022957509 0.29893616
-0.043699212 -0.0023039209 0.30000001
-0.043224625 -0.0023112737 0.30095744
-0.042670831 -0.002314542 0.30138299
0.017951025 -0.0023619274 0.3075532
0.018578529 -0.0023619274 0.3075532
0.019239251 -0.0023660124 0.30808511
0.019922724 -0.0023725484 0.30893618
0.020623825 -0.0023807182 0.31
0.021292794 -0.0023848033 0.31053191
-0.17847879 -0.0016048361 0.28457448
-0.17796466 -0.0016054359 0.28468084
-0.17745012 -0.0016060359 0.28478724
-0.17693512 -0.0016066357 0.2848936
-0.17622215 -0.0016054359 0.28468084
-0.17557569 -0.0016048361 0.28457448
-0.17506047 -0.0016054359 0.28468084
-0.17480564 -0.0016084355 0.28521276
-0.17461362 -0.0016120352 0.28585106
-0.17448378 -0.0016162348 0.28659573
-0.17402814 -0.0016174348 0.28680852
-0.17344296 -0.0016174348 0.28680852
-0.17279366 -0.0016168348 0.28670213
-0.17233649 -0.0016180346 0.28691489
-0.17194214 -0.0016198345 0.28723404
-0.1717369 -0.0016234341 0.28787234
-0.17133929 -0.0016252339 0.2881915
-0.17081431 -0.0016258338 0.28829786
-0.17010047 -0.001624634 0.2880851
-0.16919971 -0.0016216342 0.28755319
-0.16817635 -0.0016174348 0.28680852
-0.16715603 -0.0016132351 0.28606382
-0.16626263 -0.0016102354 0.28553191
-0.16568007 -0.0016102354 0.28553191
-0.16528203 -0.0016120352 0.28585106
-0.16488269 -0.0016138351 0.28617021
-0.1642988 -0.0016138351 0.28617021
-0.16365406 -0.0016132351 0.28606382
-0.16294912 -0.0016120352 0.28585106
-0.16218461 -0.0016102354 0.28553191
-0.16130099 -0.0016072358 0.285
-0.16041954 -0.0016042361 0.28446808
-0.15960005 -0.0016018364 0.28404257
-0.15902051 -0.0016018364 0.28404257
-0.15867834 -0.0016042361 0.28446808
-0.15845267 -0.0016078358 0.28510639
-0.1581655 -0.0016108354 0.2856383
-0.15770009 -0.0016120352 0.28585106
-0.15694144 -0.0016102354 0.28553191
-0.15595108 -0.0016060359 0.28478724
-0.15502179 -0.0016024362 0.28414893
-0.15449987 -0.0016030362 0.28425533
-0.15449594 -0.0016090355 0.28531915
-0.15465984 -0.0016168348 0.28670213
-0.15464658 -0.0016228341 0.28776595
-0.1540025 -0.0016222342 0.28765959
-0.15301843 -0.0016180346 0.28691489
-0.15209392 -0.0016144351 0.28627661
-0.15139721 -0.0016132351 0.28606382
-0.15081355 -0.0016132351 0.28606382
-0.15011816 -0.0016120352 0.28585106
-0.04667677 -0.0016888273 0.29946807
-0.045902118 -0.0016828279 0.29840425
-0.045196399 -0.0016792285 0.29776597
-0.044620723 -0.0016804283 0.29797873
-0.044154167 -0.0016858276 0.29893616
-0.043714706 -0.001692427 0.30010638
-0.043255184 -0.0016984263 0.3011702
-0.042716015 -0.0017014262 0.30170214
0.017969653 -0.0017362226 0.30787235
0.01859781 -0.0017362226 0.30787235
0.019225964 -0.0017362226 0.30787235
0.019888423 -0.0017392223 0.30840427
0.020560127 -0.0017428219 0.30904254
0.021212555 -0.0017446217 0.3093617
0.085697681 -0.001799816 0.31914893
0.086320065 -0.0017992163 0.31904256
0.087000005 -0.001799816 0.31914893
-0.17781156 -0.0010203862 0.28351063
-0.17723311 -0.0010203862 0.28351063
-0.17665467 -0.0010203862 0.28351063
-0.17614229 -0.0010207692 0.28361702
-0.17569533 -0.0010215349 0.28382978
-0.17531313 -0.0010226836 0.28414893
-0.17506047 -0.001024598 0.28468084
-0.17500125 -0.0010276611 0.28553191
-0.17493854 -0.0010307241 0.28638297
-0.17474285 -0.0010330215 0.28702128
-0.17428634 -0.0010337873 0.28723404
-0.17363596 -0.0010334045 0.28712767
-0.17292188 -0.0010326386 0.28691489
-0.1724004 -0.0010330215 0.28702128
-0.17200583 -0.0010341702 0.28734043
-0.17186382 -0.0010368504 0.2880851
-0.17165554 -0.0010391476 0.28872341
-0.17131856 -0.0010406792 0.28914893
-0.1706658 -0.0010402963 0.28904256
-0.16988827 -0.0010391476 0.28872341
-0.16886252 -0.0010364674 0.28797871
-0.16777766 -0.0010334045 0.28712767
-0.16682015 -0.0010311072 0.28648937
-0.16617389 -0.0010307241 0.28638297
-0.16577412 -0.0010318728 0.28670213
-0.16537304 -0.0010330215 0.28702128
-0.16478743 -0.0010330215 0.28702128
-0.16414095 -0.0010326386 0.28691489
-0.16337362 -0.0010314899 0.28659573
-0.16254717 -0.0010299585 0.28617021
-0.16160204 -0.0010276611 0.28553191
-0.16065951 -0.0010253638 0.2848936
-0.15977935 -0.0010234494 0.28436169
-0.15919918 -0.0010234494 0.28436169
-0.15873767 -0.0010242152 0.28457448
-0.15845267 -0.0010261296 0.28510639
-0.1581655 -0.001028044 0.2856383
-0.15770009 -0.0010288098 0.28585106
-0.15694144 -0.0010276611 0.28553191
-0.15595108 -0.0010249809 0.28478724
-0.15507984 -0.0010230666 0.28425533
-0.15455768 -0.0010234494 0.28436169
-0.15449594 -0.0010268954 0.28531915
-0.15448767 -0.0010307241 0.28638297
-0.15424639 -0.0010330215 0.28702128
-0.15348992 -0.0010318728 0.28670213
-0.1525078 -0.0010291927 0.28595746
-0.15158524 -0.0010268954 0.28531915
-0.1509468 -0.0010265125 0.28521276
-0.15042096 -0.0010268954 0.28531915
-0.14978294 -0.0010265125 0.28521276
-0.14897843 -0.0010249809 0.28478724
-0.14806476 -0.0010226836 0.28414893
-0.047472563 -0.0010820306 0.30063829
-0.046709936 -0.0010785847 0.29968086
-0.045902118 -0.0010739901 0.29840425
-0.045196399 -0.0010716928 0.29776597
-0.044636648 -0.0010728415 0.29808509
-0.044169884 -0.0010762874 0.29904255
-0.043730203 -0.0010804991 0.30021277
-0.043270465 -0.0010843279 0.30127659
0.018019326 -0.0011111299 0.30872339
0.018642792 -0.001110747 0.30861703
0.019259181 -0.0011099812 0.30840427
0.019895282 -0.0011103641 0.30851063
0.020538894 -0.0011111299 0.30872339
0.021183377 -0.0011118957 0.30893618
0.084876433 -0.0011463553 0.31851065
0.085354894 -0.001144058 0.31787235
0.086003453 -0.001144058 0.31787235
0.086739011 -0.0011452066 0.3181915
0.087651171 -0.0011486525 0.31914893
-0.1769442 -0.00043978021 0.28212765
-0.17630208 -0.00043961444 0.28202128
-0.17579293 -0.00043978021 0.28212765
-0.17541552 -0.00044027771 0.2824468
-0.17523436 -0.00044127271 0.28308511
-0.17511623 -0.00044243349 0.28382978
-0.1751259 -0.00044392599 0.28478724
-0.17513165 -0.00044541844 0.28574467
-0.17513351 -0.00044691091 0.28670213
-0.17493716 -0.00044790591 0.28734043
-0.17435089 -0.00044790591 0.28734043
-0.17363596 -0.00044757425 0.28712767
-0.17292188 -0.00044724255 0.28691489
-0.1724004 -0.00044740841 0.28702128
-0.1720695 -0.00044807172 0.2874468
-0.17205422 -0.00044956419 0.28840426
-0.17203502 -0.00045105667 0.28936172
-0.17188585 -0.00045221747 0.29010639
-0.17141956 -0.00045254911 0.29031914
-0.17070203 -0.00045221747 0.29010639
-0.16979823 -0.00045138833 0.28957447
-0.16877225 -0.0004502275 0.28882977
-0.16787322 -0.00044939836 0.28829786
-0.16728501 -0.00044939836 0.28829786
-0.16694285 -0.00045006169 0.28872341
-0.16653764 -0.00045055919 0.28904256
-0.16600898 -0.000450725 0.28914893
-0.1652973 -0.00045039333 0.28893617
-0.16446522 -0.00044973005 0.28851065
-0.16357441 -0.00044890086 0.28797871
-0.16244498 -0.00044740841 0.28702128
-0.16131942 -0.00044591591 0.28606382
-0.16031735 -0.00044475513 0.28531915
-0.1596161 -0.00044442349 0.28510639
-0.15921241 -0.00044492097 0.28542554
-0.15886654 -0.00044558427 0.28585106
-0.15840113 -0.00044591591 0.28606382
-0.15775879 -0.00044575013 0.28595746
-0.15694144 -0.00044508677 0.28553191
-0.15606759 -0.00044425763 0.285
-0.15525396 -0.00044359433 0.28457448
-0.15473114 -0.00044376013 0.28468084
-0.15449594 -0.00044475513 0.28531915
-0.15431552 -0.00044591591 0.28606382
-0.15390337 -0.00044641341 0.28638297
-0.15309125 -0.00044575013 0.28595746
-0.15216738 -0.00044475513 0.28531915
-0.15130265 -0.00044392599 0.28478724
-0.15072159 -0.00044392599 0.28478724
-0.15014054 -0.00044392599 0.28478724
-0.14955948 -0.00044392599 0.28478724
-0.14881147 -0.00044342849 0.28446808
-0.14806476 -0.00044293099 0.28414893
-0.147485 -0.00044293099 0.28414893
-0.14712526 -0.00044359433 0.28457448
-0.1422642 -0.00044840341 0.28765959
-0.1413105 -0.00044724255 0.28691489
-0.04740537 -0.00046797129 0.30021277
-0.046627026 -0.00046631301 0.29914895
-0.045836661 -0.00046448887 0.29797873
-0.045164101 -0.00046382553 0.29755318
-0.044620723 -0.00046448887 0.29797873
-0.044169884 -0.00046614715 0.29904255
-0.043714706 -0.00046780545 0.30010638
-0.043224625 -0.00046913209 0.30095744
0.018037954 -0.00048173513 0.30904254
0.018668497 -0.00048173513 0.30904254
0.019285755 -0.00048140349 0.30882978
0.019915864 -0.00048140349 0.30882978
0.020545973 -0.00048140349 0.30882978
0.021176083 -0.00048140349 0.30882978
0.084706336 -0.000495499 0.31787235
0.085126363 -0.00049417239 0.31702128
0.085744403 -0.00049400656 0.31691489
0.086536005 -0.00049483567 0.3174468
0.087563522 -0.00049699144 0.31882977
-0.17627698 0.0001353361 0.28106382
-0.17577004 0.00013538732 0.28117022
-0.17532893 0.00013548977 0.28138298
-0.17508517 0.0001357459 0.28191489
-0.1750368 0.00013615569 0.28276595
-0.1750506 0.00013661673 0.28372341
-0.17506047 0.00013707775 0.28468084
-0.17513165 0.00013758999 0.28574467
-0.17506851 0.00013799978 0.28659573
-0.17474285 0.00013820469 0.28702128
-0.17415723 0.00013820469 0.28702128
-0.17350729 0.00013815347 0.28691489
-0.17285778 0.00013810224 0.28680852
-0.1724004 0.00013820469 0.28702128
-0.17232424 0.00013861449 0.28787234
-0.17249846 0.00013922919 0.28914893
-0.17273074 0.0001398951 0.2905319
-0.17276829 0.00014040737 0.29159576
-0.17242458 0.00014061226 0.29202127
-0.17176618 0.00014056102 0.29191488
-0.17092106 0.00014035613 0.29148936
-0.17013985 0.00014020246 0.29117021
-0.16948381 0.00014015123 0.29106382
-0.16907515 0.00014030491 0.29138297
-0.16884971 0.00014061226 0.29202127
-0.16862166 0.00014091961 0.29265958
-0.1681467 0.00014102206 0.29287234
-0.16742742 0.00014091961 0.29265958
-0.16646644 0.00014061226 0.29202127
-0.16550806 0.00014030491 0.29138297
-0.16407064 0.00013958776 0.28989363
-0.16239928 0.00013866571 0.28797871
-0.160676 0.00013769245 0.28595746
-0.16015211 0.00013774366 0.28606382
-0.15980582 0.00013794856 0.28648937
-0.15933953 0.00013805102 0.28670213
-0.15875457 0.00013805102 0.28670213
-0.15799354 0.00013789734 0.28638297
-0.15717535 0.00013769245 0.28595746
-0.15635887 0.00013748754 0.28553191
-0.15560217 0.00013733386 0.28521276
-0.15496244 0.00013728265 0.28510639
-0.15449594 0.0001373851 0.28531915
-0.15408596 0.00013753877 0.2856383
-0.15356034 0.00013758999 0.28574467
-0.15286343 0.00013748754 0.28553191
-0.15211064 0.00013733386 0.28521276
-0.15135916 0.00013718019 0.2848936
-0.15083419 0.00013723141 0.285
-0.15019661 0.00013718019 0.2848936
-0.14955948 0.00013712897 0.28478724
-0.14886713 0.00013702652 0.28457448
-0.14823106 0.0001369753 0.28446808
-0.14776109 0.00013707775 0.28468084
-0.14745525 0.00013733386 0.28521276
-0.14720203 0.00013764121 0.28585106
-0.1467825 0.00013779489 0.28617021
-0.14614427 0.00013774366 0.28606382
-0.14545235 0.00013764121 0.28585106
-0.14481521 0.00013758999 0.28574467
-0.14407112 0.00013743632 0.28542554
-0.14338179 0.00013733386 0.28521276
-0.14301293 0.00013753877 0.2856383
-0.14296061 0.00013805102 0.28670213
-0.14274544 0.00013840958 0.2874468
-0.14215896 0.00013840958 0.2874468
-0.1413105 0.00013815347 0.28691489
-0.14046422 0.00013789734 0.28638297
-0.13987991 0.00013789734 0.28638297
-0.13960606 0.00013820469 0.28702128
-0.13927808 0.00013846082 0.28755319
-0.13869138 0.00013846082 0.28755319
-0.13790032 0.00013825593 0.28712767
-0.13726361 0.00013820469 0.28702128
-0.13677931 0.00013830714 0.28723404
-0.047949832 0.00014435167 0.29978722
-0.047237385 0.00014404433 0.29914895
-0.046444632 0.00014348085 0.29797873
-0.045705747 0.00014307105 0.29712766
-0.045099512 0.00014307105 0.29712766
-0.044588864 0.00014337841 0.29776597
-0.044122744 0.00014383942 0.2987234
-0.043637224 0.00014424922 0.29957446
-0.043102395 0.00014450535 0.30010638
0.018031746 0.00014875701 0.30893618
0.018655645 0.00014870579 0.30882978
0.019279111 0.00014865455 0.30872339
0.019902144 0.00014860334 0.30861703
0.020531818 0.00014860334 0.30861703
0.021161493 0.00014860334 0.30861703
0.084310956 0.00015352092 0.31882977
0.084621288 0.00015290623 0.31755319
0.085097797 0.00015259888 0.31691489
0.085715622 0.00015254765 0.31680852
0.086507015 0.00015280378 0.31734043
0.087534308 0.00015346971 0.31872341
-0.17627698 0.0007087941 0.28106382
-0.17577004 0.00070906244 0.28117022
-0.17539522 0.00070986728 0.28148937
-0.1752173 0.0007114769 0.28212765
-0.17510267 0.00071335491 0.28287235
-0.1750506 0.00071550114 0.28372341
-0.17499506 0.00071764737 0.28457448
-0.17493606 0.00071979361 0.28542554
-0.17474359 0.00072140322 0.28606382
-0.17428948 0.00072193984 0.28627661
-0.17370538 0.00072193984 0.28627661
-0.1731213 0.00072193984 0.28627661
-0.17266543 0.0007224764 0.28648937
-0.17252819 0.00072435435 0.28723404
-0.17277001 0.00072784198 0.28861701
-0.17326006 0.00073240272 0.29042554
-0.17367947 0.00073669525 0.29212767
-0.17383981 0.00073991454 0.29340425
-0.17349243 0.00074098771 0.2938298
-0.17289293 0.00074098771 0.2938298
-0.17229342 0.00074098771 0.2938298
-0.17181824 0.00074152421 0.29404256
-0.17140415 0.00074232911 0.29436171
-0.17117392 0.00074393873 0.29499999
