# .PCD v0.7 - Point Cloud Data file format
VERSION 0.7
FIELDS x y z
SIZE 4 4 4
TYPE F F F
COUNT 1 1 1
WIDTH 1379
HEIGHT 1
VIEWPOINT 0 0 0 1 0 0 0
POINTS 1379
DATA ascii
-0.19253339 0.063636817 0.31558108
-0.19247963 0.063621439 0.31565315
-0.039417204 0.05861979 0.28354874
-0.039400455 0.058580667 0.28356737
-0.039375287 0.058440272 0.28364998
-0.039334267 0.058313545 0.28372264
-0.039311655 0.058233656 0.28375983
-0.039147407 0.057371508 0.28423667
0.068724774 0.044618059 0.22010776
0.068741485 0.044546314 0.22013448
0.068751201 0.044542801 0.22013113
0.068769649 0.044470772 0.22015624
0.06878031 0.044470519 0.22015102
0.068791941 0.044435069 0.22016284
0.06881164 0.044382811 0.22017944
0.068829514 0.044348244 0.22018601
0.068839513 0.044330653 0.22018847
0.068846762 0.044314388 0.22019304
0.068850532 0.044369586 0.22016989
0.068832465 0.044464197 0.22013341
0.068857104 0.044545081 0.22007772
0.10352088 0.055210151 0.28052369
0.10349789 0.05510154 0.28040394
0.10351379 0.055014819 0.28032267
0.10359095 0.054874189 0.2803365
0.10403277 0.054619268 0.28051984
0.10459425 0.054290827 0.28097674
0.1051447 0.0546108 0.28173125
0.108093 0.053714454 0.2858142
-0.19321232 0.062986702 0.31433284
-0.19307733 0.063044153 0.31445548
-0.19300114 0.063110277 0.31453383
-0.19292308 0.063152 0.31462228
-0.19286768 0.0633099 0.31472296
-0.19282754 0.063515052 0.31486589
-0.19279321 0.063661613 0.31498727
-0.19277687 0.063932933 0.31510112
-0.19276276 0.064007536 0.31514886
-0.19275215 0.064254291 0.31524611
-0.19273852 0.064294867 0.31528887
-0.19272375 0.064492144 0.31537157
-0.19271584 0.064517632 0.31539616
-0.19268151 0.064492837 0.31543145
-0.19263664 0.064392298 0.31548446
-0.19258627 0.06431637 0.31555179
-0.19251019 0.064228445 0.31563318
-0.19236386 0.06432499 0.31584749
-0.039484803 0.059019882 0.28338045
-0.039467823 0.058979131 0.28339219
-0.039453723 0.058937933 0.28340405
-0.039434645 0.058843791 0.28344557
-0.039417796 0.058816429 0.28344738
0.068662107 0.044971894 0.21998101
0.068675742 0.044915393 0.21999611
0.068686217 0.044895373 0.21999925
0.068695985 0.044857901 0.22001
0.068707868 0.04482238 0.22002007
0.068719007 0.044821836 0.22001383
0.068725228 0.044822935 0.22001138
0.068743661 0.044770643 0.22002694
0.068761662 0.044719864 0.22004111
0.068767294 0.044735719 0.22002479
0.06876909 0.044791322 0.21999907
0.068766862 0.045013893 0.21987948
0.068780199 0.045047261 0.21984689
0.10312712 0.055963594 0.28015852
0.10316347 0.055745218 0.28011689
0.1031459 0.055722766 0.28000844
0.10321359 0.055702519 0.27994692
0.10342585 0.055545036 0.28010839
0.10415777 0.054996837 0.2805644
0.1047837 0.054703619 0.28118107
-0.1932756 0.063768402 0.3143777
-0.19315325 0.06373103 0.31446624
-0.19305059 0.063899614 0.31459206
-0.19297042 0.063987486 0.31468415
-0.19289652 0.06403023 0.31478423
-0.19286765 0.064260237 0.31489164
-0.19283347 0.06438788 0.31499568
-0.19282778 0.064613275 0.31507382
-0.1928245 0.064854607 0.31516883
-0.19282888 0.064969331 0.31523964
-0.1928068 0.065063559 0.31532079
-0.19280338 0.065177724 0.3153581
-0.19278093 0.065228321 0.31541425
-0.1926959 0.065083057 0.31547308
-0.19263211 0.064989537 0.31552541
-0.19254231 0.064923316 0.31562322
-0.19240309 0.064990155 0.31585622
-0.039569642 0.059480269 0.2832225
-0.039546449 0.059385858 0.28325203
-0.039535109 0.059283726 0.28330317
-0.039521314 0.059241552 0.28331152
-0.039507721 0.059154656 0.28332341
-0.03947163 0.059082258 0.28333312
0.068596311 0.045376956 0.21983427
0.068612844 0.045321155 0.2198468
0.068627588 0.045249488 0.21986979
0.06863571 0.045211807 0.21988049
0.068642907 0.045227777 0.21986666
0.06864953 0.045228433 0.21986517
0.068661086 0.045209069 0.21986459
0.068672858 0.045174435 0.21987212
0.068677127 0.045156658 0.21987617
0.068689987 0.045191057 0.21985209
0.068693459 0.045340024 0.21975079
0.068692908 0.045467965 0.21967083
0.068705358 0.045466751 0.21965505
0.10281395 0.056614771 0.27980652
0.10290681 0.056532774 0.27983338
0.10296118 0.056702908 0.27969962
0.10301655 0.05664739 0.27970546
0.10319915 0.056393877 0.27980965
0.10350688 0.056062553 0.28005314
0.10420117 0.05545247 0.28057164
-0.19336133 0.064513586 0.31444636
-0.19323929 0.064575292 0.31453559
-0.19314235 0.06466642 0.31463906
-0.19306524 0.064764999 0.31471521
-0.19297518 0.064766213 0.31479806
-0.19292668 0.064909935 0.31487605
-0.19290541 0.065081343 0.31496936
-0.19287869 0.065272436 0.31505948
-0.19290118 0.065459736 0.31512567
-0.19290073 0.065597355 0.31521586
-0.19291402 0.065768898 0.31529337
-0.19290768 0.065854676 0.31534544
-0.19272332 0.065666072 0.31548077
-0.19266893 0.065634854 0.31554034
-0.19257605 0.065650947 0.31567264
-0.039640587 0.059791256 0.28311729
-0.039614365 0.059697878 0.28314361
-0.039602082 0.059648372 0.2831673
-0.039588947 0.059605811 0.28317595
-0.039562237 0.059522349 0.2831935
-0.039541841 0.059438474 0.28321701
0.06849654 0.046046462 0.21956369
0.068527289 0.045887213 0.21963024
0.068556629 0.045689307 0.21970573
0.068578519 0.045600396 0.2197341
0.068585046 0.045615781 0.2197198
0.068591498 0.045612626 0.21971226
0.068597488 0.045628294 0.21969709
0.068602711 0.045627873 0.2196918
0.068613522 0.045643076 0.21966915
0.068618163 0.045707278 0.21961562
0.068623811 0.045756429 0.21956842
0.068615884 0.045866095 0.21949466
0.06862992 0.045851473 0.21948361
0.10265126 0.057516649 0.27939379
0.10276238 0.057404708 0.27945608
0.10281725 0.057396423 0.2795004
0.10287028 0.057382431 0.27947745
0.10300729 0.057273608 0.27957648
0.10318136 0.057076771 0.27968502
-0.19342041 0.065187201 0.31454372
-0.19331653 0.065250061 0.31459367
-0.1932245 0.065368399 0.31468046
-0.19314127 0.065464243 0.31474376
-0.19305238 0.065543503 0.31483358
-0.19299698 0.065522507 0.31486881
-0.19296169 0.065587796 0.31489915
-0.19294395 0.065760233 0.31499788
-0.19294983 0.06585823 0.3150534
-0.19296508 0.066126965 0.31514814
-0.1929642 0.066230655 0.31525493
-0.19292586 0.06627287 0.31534106
-0.19289216 0.066234775 0.31536615
-0.19284496 0.06628263 0.31540304
-0.19278945 0.066173948 0.31541514
-0.19270188 0.066160299 0.31553632
-0.19261721 0.066281863 0.31569722
-0.039718959 0.06020258 0.28296164
-0.039708707 0.060153086 0.28298235
-0.039680183 0.060061418 0.28301111
-0.039651658 0.059977457 0.28302625
-0.039642658 0.059935007 0.28304079
-0.039612789 0.05985361 0.28305313
0.068429485 0.04639351 0.21941802
0.068411916 0.04654542 0.21933839
0.068463832 0.046316322 0.21942998
0.068505354 0.046104088 0.21951851
0.068511382 0.046083488 0.21952157
0.068522766 0.046065193 0.21952061
0.068529926 0.046062928 0.21951233
0.06854225 0.046043552 0.21950953
0.068544038 0.046075296 0.219482
0.068548098 0.046106905 0.21944994
0.068548247 0.046192802 0.21938579
0.068571217 0.046124019 0.21939436
0.10257968 0.058450896 0.27912408
0.10258852 0.058451388 0.27911803
0.1026679 0.05832446 0.27920595
0.1027612 0.058200985 0.27929604
0.10280431 0.058107216 0.27933598
0.10290004 0.058001623 0.27940902
0.10297211 0.057874963 0.27946499
-0.19348343 0.065889105 0.31458971
-0.19339839 0.065970987 0.3146522
-0.19329756 0.066085465 0.31471077
-0.19320951 0.06611339 0.31474724
-0.19313346 0.066140182 0.31480157
-0.193082 0.066115052 0.31485099
-0.19302993 0.066170417 0.31488842
-0.19301249 0.066230126 0.31492221
-0.19298209 0.066367552 0.3150171
-0.19300257 0.066601783 0.31510085
-0.19299151 0.06666398 0.31518659
-0.19297595 0.066778824 0.31524894
-0.19291814 0.06680055 0.3153165
-0.19285187 0.066697851 0.31535473
-0.19280656 0.066653386 0.31538272
-0.19276442 0.066743635 0.31551164
-0.19267336 0.06683857 0.31568858
-0.039832853 0.060842495 0.28271824
-0.039818421 0.06069468 0.28278342
-0.039790761 0.060604863 0.28281516
-0.039776519 0.060563028 0.28282624
-0.03974691 0.060479958 0.28284431
-0.039731476 0.060438585 0.28285077
-0.039694764 0.060314469 0.28288108
0.068382323 0.046607327 0.21933909
0.068310879 0.047026366 0.21913742
0.068372868 0.046815172 0.21921784
0.068409182 0.046657883 0.21927926
0.068433791 0.046550032 0.21931924
0.068453133 0.046496343 0.21933189
0.068462469 0.046463128 0.21934821
0.068471938 0.046427112 0.21935913
0.06849356 0.04640599 0.21934901
0.068476826 0.046496615 0.2193123
0.068464369 0.046597149 0.21923813
0.068517521 0.046350308 0.21933804
0.10252483 0.05914712 0.27892798
0.10252859 0.059143901 0.2789205
0.10257206 0.059098572 0.27896115
0.10258516 0.059065718 0.27897528
0.10271767 0.058839697 0.27913091
0.10273606 0.058774523 0.27916628
-0.19352935 0.066520713 0.31459364
-0.19343314 0.066508107 0.31464657
-0.19334951 0.06666702 0.31471244
-0.1932655 0.066731773 0.31476912
-0.19321287 0.066783749 0.31479245
-0.19315879 0.066758469 0.31483132
-0.19311617 0.066735819 0.31484553
-0.19305587 0.066817053 0.31490529
-0.193042 0.066783339 0.31494829
-0.19303896 0.067036681 0.31504542
-0.19302161 0.067155823 0.31510592
-0.19298632 0.067257658 0.31520441
-0.19294702 0.067268558 0.31523696
-0.19288497 0.067161329 0.31526265
-0.19283924 0.067120321 0.31532082
-0.19278409 0.067177445 0.31545001
-0.19273622 0.067423031 0.31566596
-0.039923053 0.061328724 0.2825149
-0.039909713 0.061234329 0.28256151
-0.039869424 0.061050333 0.28263965
-0.039856125 0.061008941 0.28265244
-0.039837867 0.060917649 0.28268772
-0.039798215 0.060737479 0.28275669
-0.039765771 0.060662393 0.28276795
0.06833379 0.046771463 0.21929277
0.068224378 0.047425319 0.21898247
0.068275325 0.047249831 0.21905556
0.068300828 0.047163505 0.21908771
0.068341814 0.047056362 0.21912532
0.068367042 0.046970617 0.21915878
0.068388104 0.046901874 0.21918041
0.068395145 0.046867445 0.21919483
0.068420671 0.046794508 0.21920964
0.068406269 0.046881068 0.21916473
0.068380356 0.047033694 0.21907362
0.068484232 0.046498191 0.21930298
0.10244628 0.059800766 0.27871341
0.10246637 0.059728753 0.2787376
0.10246637 0.059728753 0.27873763
0.10247899 0.059798326 0.27870524
0.10248855 0.059760373 0.27871656
0.1025262 0.059751883 0.27874985
0.10254887 0.05965136 0.27879345
-0.19358402 0.067074813 0.31450951
-0.19346708 0.067048348 0.31463552
-0.19339024 0.067152925 0.31468192
-0.19332904 0.067209892 0.31471133
-0.19325826 0.067316234 0.31476739
-0.19320738 0.067347668 0.31481424
-0.19317533 0.067381427 0.31483814
-0.19313592 0.067424729 0.31486973
-0.19309688 0.067469433 0.31492123
-0.19307293 0.067548305 0.31498677
-0.19304667 0.067685962 0.31505656
-0.19302036 0.067760624 0.31510285
-0.19294396 0.067702204 0.31517574
-0.19291982 0.06769266 0.31520456
-0.19287954 0.067610122 0.31527179
-0.19281922 0.0677277 0.31540293
-0.040008675 0.061751302 0.28232992
-0.039981987 0.061626785 0.28241369
-0.03994675 0.061492801 0.28246918
-0.039933894 0.061451059 0.28248045
-0.039899047 0.061264697 0.2825872
-0.039876133 0.061182987 0.28261223
-0.039828781 0.060927276 0.28267613
0.068233624 0.047312822 0.21905832
0.068156809 0.04778995 0.2188431
0.068187334 0.047650613 0.21891393
0.068211131 0.047597703 0.21892641
0.06823349 0.047545306 0.21894307
0.068264484 0.047457166 0.21897829
0.068300359 0.047319312 0.21902633
0.06832125 0.047253132 0.21904972
0.06833756 0.047198404 0.21906367
0.068326026 0.047285497 0.21901669
0.068293288 0.047454994 0.21891938
0.068434276 0.046783749 0.21920066
0.10242983 0.060239844 0.27863345
0.10243996 0.060162421 0.27864945
0.10243879 0.060229078 0.27860966
0.10242078 0.060272846 0.27856255
0.10239971 0.060415901 0.27851206
0.10241015 0.060449626 0.27848738
0.10244502 0.060347803 0.2785235
-0.19361569 0.067707404 0.3144123
-0.19352835 0.067713797 0.31453395
-0.1934333 0.067676544 0.31464773
-0.19335611 0.067707844 0.31470433
-0.19330338 0.067745283 0.3147271
-0.19324444 0.067805246 0.31475943
-0.19319177 0.067873821 0.3148033
-0.19315878 0.067977518 0.31483886
-0.19313663 0.068077356 0.3148841
-0.19310723 0.06819433 0.314937
-0.19306473 0.068253808 0.31501383
-0.19302934 0.068308353 0.31505585
-0.19298382 0.068254285 0.31512192
-0.19295736 0.068238497 0.31514525
-0.19291228 0.068259053 0.31523755
-0.19286491 0.068350628 0.31537929
-0.040120956 0.062351674 0.28215241
-0.040085051 0.062220991 0.28220466
-0.040069614 0.062179584 0.28221026
-0.040040057 0.062055394 0.28229389
-0.040024869 0.061966892 0.28232419
-0.03997279 0.061747514 0.28241074
-0.039934099 0.061582882 0.28245595
-0.039907228 0.061459903 0.28249311
0.068098053 0.048036743 0.21878411
0.068087034 0.048154887 0.21872163
0.068119571 0.048016436 0.21878025
0.068132058 0.047998361 0.21878403
0.068141304 0.048015669 0.21877545
0.068179682 0.04787498 0.21882455
0.068200916 0.047787894 0.21885447
0.06822481 0.047684591 0.21888827
0.068243384 0.047635183 0.21890265
0.068244353 0.047701322 0.21885738
0.068209812 0.0478549 0.21877004
0.068320632 0.047341067 0.21899626
0.10244436 0.060476385 0.27861667
0.1024154 0.060639039 0.27855426
0.10237831 0.060703263 0.27847308
0.10232198 0.060920626 0.27834219
0.10232033 0.060954947 0.27832913
0.10233203 0.060920622 0.2783334
0.10236835 0.060783699 0.27838203
-0.19364303 0.068315372 0.31429318
-0.19355458 0.068289183 0.31441122
-0.19345666 0.068361834 0.31454837
-0.19338611 0.068383917 0.3146379
-0.19333556 0.068381086 0.31468645
-0.19327898 0.068394341 0.31473261
-0.19323319 0.068507545 0.31476474
-0.19318987 0.068611875 0.31479856
-0.19314954 0.068610713 0.3148472
-0.19311404 0.068806075 0.3149021
-0.19309197 0.068918064 0.31494716
-0.19305608 0.068995118 0.31501272
-0.19299696 0.068883412 0.31508526
-0.19297388 0.068910524 0.3151145
-0.1929397 0.068927519 0.31519327
-0.1928906 0.069040082 0.31534642
-0.040203802 0.062811613 0.28200722
-0.040174522 0.062728979 0.28203523
-0.040174522 0.062728979 0.28203523
-0.040139589 0.062600337 0.28208986
-0.040090971 0.062392823 0.28218025
-0.040062789 0.062262539 0.28223774
-0.040020365 0.06210158 0.28227413
0.068022929 0.048501447 0.21860285
0.06803181 0.048483837 0.21860793
0.068056412 0.048364107 0.21866557
0.068069607 0.048328321 0.21867454
0.068078361 0.048345234 0.21866469
0.068107575 0.048240185 0.21869792
0.068122193 0.04820358 0.21870044
0.068145797 0.048085045 0.21874626
0.068155535 0.048065774 0.21874014
0.068166547 0.048083469 0.21871828
0.068143643 0.048234701 0.21862988
0.068195216 0.047997188 0.21873154
0.10238524 0.060932949 0.27847958
0.10237428 0.061053094 0.27842039
0.10230531 0.061213452 0.27830389
0.10226209 0.061362691 0.27821535
0.102229 0.061493769 0.27815017
0.10225008 0.061428402 0.27817109
0.10229497 0.061259933 0.27824008
0.10233276 0.061138835 0.27830389
-0.19356249 0.068978839 0.31431654
-0.19351533 0.068951912 0.31437615
-0.19345047 0.06903135 0.31445608
-0.1933898 0.069019482 0.31455028
-0.19334161 0.069007143 0.31461823
-0.19329037 0.069022544 0.31467927
-0.19324253 0.069108844 0.31473261
-0.19319883 0.069296263 0.31477165
-0.19318135 0.06935142 0.3147952
-0.19313559 0.069445476 0.31486154
-0.19309984 0.069538355 0.3149102
-0.19304521 0.069578506 0.31498331
-0.19301663 0.069599122 0.31503987
-0.1929844 0.069574185 0.31509763
-0.19294649 0.069608428 0.31517583
-0.19289251 0.069626264 0.31531885
-0.040276635 0.063311651 0.28183371
-0.040276643 0.063311659 0.28183374
-0.040249787 0.063182376 0.2818853
-0.040220696 0.063054688 0.28193834
-0.040203702 0.063016042 0.28194094
-0.040160209 0.062811099 0.28204376
-0.040111855 0.062650092 0.2820884
0.067875497 0.04908549 0.21839465
0.067925848 0.048984844 0.21843773
0.067963451 0.048831746 0.21849941
0.067991249 0.048709743 0.21854539
0.068006113 0.048674595 0.21855415
0.068023689 0.048673421 0.2185481
0.068038851 0.048621483 0.21856172
0.068055376 0.048552226 0.21858221
0.068068042 0.048501037 0.21859568
0.068077683 0.04846669 0.21860194
0.068090498 0.048481941 0.21857519
0.068082877 0.048550062 0.21852773
0.10231017 0.061487574 0.2783159
0.10226046 0.061578184 0.27821845
0.10224541 0.061646614 0.27815285
0.10216166 0.061863523 0.27803352
0.10215609 0.061963089 0.2779851
0.10218672 0.061830457 0.27803794
0.10220214 0.061796721 0.27805826
0.10226795 0.061579544 0.27817014
-0.19350553 0.06964685 0.31427541
-0.19345866 0.069634736 0.31434971
-0.19340608 0.069647178 0.31442729
-0.19338004 0.069625102 0.31445947
-0.19334824 0.069624908 0.31453088
-0.1933043 0.06968049 0.31459719
-0.19325769 0.069738269 0.31466728
-0.19322154 0.069848716 0.31470972
-0.19319503 0.069949396 0.31474704
-0.19315176 0.070026673 0.31481108
-0.19311795 0.070171587 0.31486189
-0.19308223 0.070245571 0.31491041
-0.19304569 0.070277572 0.31496838
-0.19301058 0.070242152 0.3150211
-0.19295162 0.070195317 0.31510568
-0.19290574 0.070309855 0.31523493
-0.040343855 0.063798383 0.28164744
-0.040343851 0.063798375 0.28164744
-0.040334255 0.063755907 0.28167066
-0.040317696 0.063672885 0.28170189
-0.040301207 0.06359005 0.28173405
-0.040269066 0.063469909 0.28177392
-0.040226892 0.063315213 0.28180569
0.067827508 0.049375925 0.21829621
0.067876317 0.049276851 0.21832943
0.067912325 0.049088161 0.21840972
0.067948677 0.048950404 0.21845523
0.067961298 0.04891615 0.21846579
0.067963988 0.048967898 0.21844546
0.067982279 0.048898909 0.21846899
0.067992203 0.048863132 0.21847673
0.068012252 0.048793938 0.21849774
0.068024561 0.048775695 0.2184938
0.068020321 0.048828639 0.2184613
0.068033017 0.048810404 0.21845432
0.10218923 0.061986268 0.27808794
0.10217452 0.062069107 0.27804372
0.10213848 0.062093217 0.27797115
0.1020893 0.062287163 0.27787364
0.1020459 0.062450044 0.27779427
0.10208298 0.062354524 0.27784401
0.10208929 0.062287159 0.27787364
0.10216094 0.06206011 0.27797368
-0.19347167 0.070217766 0.31424898
-0.19343413 0.070222892 0.3143101
-0.19338997 0.070278928 0.31437683
-0.19336903 0.070240438 0.31440786
-0.19332774 0.070260875 0.31448552
-0.19330408 0.070277169 0.31451941
-0.19326901 0.070352659 0.31458709
-0.19324057 0.070440501 0.31463146
-0.19320697 0.070548937 0.31469041
-0.19317406 0.070647895 0.31473398
-0.1931414 0.070759416 0.31479132
-0.19310673 0.070809416 0.31483912
-0.19306578 0.070847683 0.31489208
-0.19302458 0.070872739 0.31494525
-0.19296844 0.070877999 0.31502584
-0.1928574 0.070914663 0.31521067
-0.040416315 0.064351879 0.28143278
-0.040410232 0.064313009 0.28144401
-0.040397406 0.064270839 0.2814633
-0.040381063 0.064151861 0.2815116
-0.040365268 0.064071298 0.28154564
-0.040334914 0.063954607 0.28158969
-0.040300611 0.063843563 0.28161642
0.067810439 0.049528275 0.21823986
0.067846708 0.049410969 0.21828164
0.067868501 0.049343754 0.21830432
0.067890182 0.049275734 0.218329
0.067909703 0.049189489 0.21836308
0.067914441 0.049207237 0.2183581
0.06793052 0.049173146 0.21836632
0.067942962 0.049139343 0.21837674
0.067953832 0.049104795 0.21838735
0.06796433 0.049120218 0.21837042
0.067987151 0.049034368 0.21839505
0.067997344 0.048998468 0.21839783
0.10205962 0.062470123 0.27788699
0.10207395 0.062414322 0.27788472
0.10204286 0.062607646 0.27779716
0.10201131 0.06267941 0.27773854
0.10199143 0.062773727 0.27769169
0.10195902 0.062868096 0.27763629
0.10193884 0.062925182 0.27759427
0.10196821 0.062870607 0.27763748
0.10202628 0.062678039 0.27772453
-0.19345395 0.070891224 0.31419778
-0.19343331 0.070906781 0.31423533
-0.19338341 0.070931993 0.31432664
-0.19337013 0.070928596 0.31436408
-0.19333661 0.070951127 0.3144103
-0.19329745 0.070925683 0.31446773
-0.19327243 0.070952505 0.3145127
-0.19324684 0.071041621 0.31455842
-0.1932112 0.071154803 0.31462491
-0.19317459 0.071254842 0.31467783
-0.19314781 0.071352653 0.31472659
-0.19311972 0.071403161 0.31476724
-0.19308753 0.07149113 0.31480473
-0.19304937 0.071514904 0.31485361
-0.19297704 0.071580127 0.31494305
-0.19285002 0.07158044 0.31515652
-0.040475398 0.064783223 0.28125349
-0.040470321 0.064780325 0.28125983
-0.040457327 0.064733878 0.28128278
-0.040451769 0.064732768 0.28127861
-0.040435944 0.064578652 0.28134051
-0.040418006 0.064500131 0.28137425
-0.040396616 0.064428493 0.28140065
0.067750454 0.049868703 0.21809831
0.067785434 0.049769759 0.2181372
0.067805015 0.0497027 0.21816349
0.067828998 0.049600273 0.21820493
0.067838237 0.049565893 0.21821679
0.067855962 0.049550511 0.21822344
0.067872986 0.049500231 0.21824116
0.067884535 0.049483411 0.21824346
0.067894913 0.049449053 0.21825513
0.067917362 0.049399104 0.21826865
0.067925081 0.049346879 0.21828616
0.067944139 0.049294844 0.21829654
0.10195083 0.062966727 0.27766919
0.10194043 0.062980495 0.27764317
0.10191657 0.063100152 0.27757677
0.10189486 0.063220941 0.27751574
0.10186289 0.063309513 0.27745548
0.10181646 0.063473538 0.27737337
0.10181449 0.063506804 0.27735808
0.10182682 0.063441947 0.27738804
0.10186063 0.063343234 0.27743015
-0.19345714 0.071521446 0.31409183
-0.19342346 0.071569957 0.31417149
-0.19337806 0.071588159 0.31426081
-0.19334963 0.071609102 0.31431496
-0.19331904 0.071625642 0.31436032
-0.19330059 0.071657151 0.31439233
-0.19327627 0.071667559 0.31442726
-0.19323801 0.071756318 0.314491
-0.19320424 0.071825065 0.31455344
-0.19316918 0.071861789 0.31462049
-0.19314721 0.071937114 0.31466243
-0.19311589 0.072012968 0.31470492
-0.19309188 0.072045557 0.31473586
-0.19304013 0.072123833 0.31479242
-0.19295321 0.07219176 0.31489354
-0.040568419 0.065279983 0.28106394
-0.040546883 0.065204695 0.28110352
-0.040532291 0.065234743 0.28109807
-0.04050944 0.065120108 0.28113887
-0.0404891 0.06500499 0.28118226
-0.040471267 0.064889386 0.28122839
-0.040450934 0.064817809 0.28125447
0.067670971 0.050260291 0.21794382
0.06769336 0.050177678 0.21797909
0.067724608 0.050059766 0.2180275
0.067735501 0.050008778 0.21804845
0.067758426 0.049959838 0.21806777
0.067783065 0.049911115 0.21808705
0.067799784 0.049860559 0.21810485
0.067816183 0.049810383 0.21812333
0.067824811 0.049826745 0.21811314
0.067851678 0.049742039 0.21814226
0.067863442 0.049709402 0.21815386
0.067881115 0.049641233 0.21817446
0.10178643 0.063577794 0.27736944
0.1017952 0.06356816 0.27736533
0.10176081 0.063723482 0.27728873
0.10175434 0.063788064 0.27725646
0.10170513 0.063980579 0.27717227
0.10171656 0.063981734 0.27716869
0.10170093 0.064012058 0.27714857
0.10171969 0.063985385 0.27715987
-0.19345279 0.072125316 0.31398413
-0.19340824 0.072195254 0.31407478
-0.19337341 0.072208792 0.31416389
-0.19333312 0.072240248 0.31423464
-0.19331145 0.072312526 0.31426406
-0.19328719 0.072323523 0.31431496
-0.19326064 0.072315954 0.31435624
-0.19322342 0.072366506 0.31442714
-0.19318736 0.072428748 0.31449491
-0.1931558 0.072450787 0.31456193
-0.19313352 0.072525062 0.31458712
-0.1931158 0.07256487 0.3146069
-0.19309185 0.072620161 0.31464332
-0.19304259 0.072677508 0.31470442
-0.1929508 0.072799787 0.314825
-0.04065451 0.065780543 0.28090206
-0.040647529 0.065739647 0.2809152
-0.040622294 0.065616995 0.28095621
-0.040617827 0.065651312 0.28094992
-0.040580656 0.065503247 0.28101236
-0.040558238 0.065388933 0.28105274
-0.040534437 0.065318666 0.28107807
-0.04051476 0.065246575 0.28110158
0.067556441 0.050791822 0.21774513
0.067588374 0.050673947 0.21779087
0.067622237 0.050555177 0.21783571
0.067656554 0.050419778 0.21788886
0.067679696 0.05038831 0.217902
0.067697503 0.050355278 0.2179143
0.067723513 0.050271399 0.21794505
0.067740604 0.050221171 0.21796323
0.067758836 0.0501718 0.21798229
0.067784511 0.050104488 0.21800764
0.067805111 0.05005385 0.21802565
0.067822792 0.05000424 0.21804354
0.10163351 0.064210676 0.27710927
0.10162274 0.06429854 0.27706051
0.1016082 0.064358726 0.27703032
0.10158966 0.06451638 0.27695563
0.10158319 0.064585529 0.27691823
0.10157333 0.064612389 0.27688518
0.10157982 0.064616248 0.27687725
0.10159324 0.064586088 0.27688622
-0.1934423 0.072656445 0.3138518
-0.19339979 0.072761774 0.31393057
-0.19335608 0.072820209 0.31402707
-0.19332138 0.072901338 0.31409788
-0.19329207 0.072860017 0.31417575
-0.19327095 0.072930142 0.31421629
-0.193257 0.0729395 0.31424692
-0.19321808 0.072972782 0.31432599
-0.19317813 0.073061749 0.31438944
-0.19314812 0.073078215 0.31446508
-0.19312103 0.073116824 0.31450671
-0.19310388 0.073180206 0.31451681
-0.19308291 0.073191524 0.3145473
-0.19303769 0.073275566 0.31459716
-0.19294415 0.073393814 0.31474298
-0.040743917 0.066194028 0.28077692
-0.040734138 0.06615451 0.28078941
-0.040722795 0.066149101 0.28079268
-0.040691413 0.066034034 0.28083354
-0.040662587 0.065921389 0.28087112
-0.040636793 0.065811634 0.28091663
-0.040613957 0.065741032 0.2809405
0.067487836 0.051207144 0.21759072
0.067501783 0.05113855 0.21762022
0.067534737 0.051036406 0.21765754
0.067569286 0.050918557 0.21770194
0.067593835 0.050834119 0.21773623
0.067614079 0.050766811 0.21776068
0.067632623 0.050733697 0.21777232
0.067658365 0.050649546 0.21780173
0.067682073 0.050583556 0.21782608
0.067700386 0.050532006 0.21784635
0.067730747 0.05044876 0.21787927
0.067753658 0.050382245 0.21790464
0.10146924 0.065035753 0.27678177
0.10146592 0.065030232 0.27677917
0.10147921 0.065021612 0.27676421
0.10145582 0.065213405 0.27666685
0.10146115 0.065215744 0.27665097
0.10146114 0.065215737 0.27665094
0.10146821 0.065149613 0.27666265
0.10149091 0.065087199 0.27667621
-0.19342302 0.073177442 0.31373414
-0.19337507 0.073305808 0.31380737
-0.19332856 0.073436089 0.31389558
-0.19330387 0.073392265 0.31398299
-0.19327071 0.073469326 0.31405798
-0.19326316 0.073513366 0.31406203
-0.19323777 0.073465787 0.31412709
-0.19321389 0.073559597 0.31419224
-0.19317356 0.073676541 0.3142857
-0.1931438 0.073718123 0.31432623
-0.1931143 0.073718004 0.31437275
-0.19310252 0.073729105 0.31438577
-0.19307759 0.073759064 0.31441909
-0.19301997 0.07391078 0.3145082
-0.19294472 0.074042864 0.31463382
-0.040857863 0.066758923 0.28060725
-0.04083069 0.066679738 0.28062969
-0.040815208 0.06660293 0.28065237
-0.040785301 0.066492364 0.28069049
-0.04075598 0.066342443 0.28073901
-0.040730145 0.066273093 0.28076485
-0.040708225 0.066201836 0.28078836
0.06742271 0.051604509 0.21744521
0.067438975 0.051519178 0.21748047
0.067473255 0.05143588 0.21750949
0.067502782 0.051333554 0.2175498
0.067523554 0.051248498 0.2175827
0.067542985 0.051180489 0.21760739
0.067563243 0.051129926 0.2176255
0.067576349 0.051096786 0.21763791
0.067588657 0.051045403 0.21765412
0.067612022 0.050960973 0.21768387
0.06763529 0.050894514 0.21770754
0.067658864 0.050843321 0.2177242
0.10131808 0.065732196 0.27655074
0.10135181 0.065630801 0.27658433
0.10136105 0.065646224 0.2765303
0.10135161 0.065708585 0.27648157
0.10135273 0.06570635 0.27647337
0.10138869 0.065576151 0.27651408
0.10139434 0.065579489 0.2764996
0.10141008 0.065516435 0.27652401
-0.19341841 0.07376112 0.31360483
-0.19334549 0.073817492 0.3137382
-0.19331452 0.073919691 0.31379992
-0.19327933 0.074001469 0.31388125
-0.19325967 0.074036993 0.31390706
-0.19325106 0.074081831 0.31391281
-0.19322522 0.074041151 0.31400901
-0.19319846 0.074046172 0.3140623
-0.19317576 0.074161053 0.31414142
-0.19313009 0.074277706 0.31423035
-0.19310941 0.074315876 0.31425747
-0.19309694 0.074284784 0.31428483
-0.19306184 0.074362651 0.31433094
-0.19301419 0.074537046 0.31441313
-0.19291772 0.074735433 0.31456256
-0.040925082 0.067063011 0.28051299
-0.04091917 0.067022569 0.28052369
-0.040884152 0.06691093 0.28056064
-0.040873829 0.066871628 0.28057194
-0.040849313 0.066797726 0.28059724
-0.04082495 0.06672886 0.28062469
0.067365319 0.051914182 0.21733068
0.067386113 0.051846452 0.21735477
0.067401186 0.051812988 0.21736705
0.067437917 0.051677901 0.21741892
0.067457363 0.051592484 0.21745291
0.067479379 0.051507194 0.21748465
0.067503609 0.051439747 0.21750858
0.067504041 0.051474631 0.21749412
0.067515388 0.051440928 0.21750395
0.067525312 0.051407088 0.21751425
0.067536123 0.051423833 0.21750005
0.067563176 0.051304489 0.2175431
0.10123206 0.06627772 0.27637425
0.10123729 0.066271476 0.27634403
0.10126403 0.066171579 0.27635038
0.10128114 0.066107526 0.27634668
0.10128919 0.066075496 0.27635738
0.10129625 0.066043988 0.27637094
0.10132392 0.06591434 0.27641165
-0.19340934 0.074291468 0.31351539
-0.19334397 0.074352272 0.31363615
-0.19328913 0.074444875 0.31373987
-0.19325863 0.074572191 0.31381017
-0.19324759 0.074556239 0.31384164
-0.19322981 0.074589007 0.31386647
-0.19321044 0.074617289 0.31390029
-0.19319423 0.074643523 0.31393161
-0.19315979 0.074716412 0.31402504
-0.19311889 0.074769169 0.31411657
-0.19309257 0.074879974 0.3141779
-0.19306754 0.074911594 0.3142229
-0.19303274 0.075022496 0.31427798
-0.19298738 0.075186588 0.31436744
-0.19288306 0.075367719 0.31454629
-0.041022178 0.067520663 0.28038827
-0.040996719 0.067435212 0.28039357
-0.040974483 0.067358568 0.28041175
-0.040963653 0.067319758 0.28042179
-0.040939447 0.067246743 0.28044739
-0.040889446 0.067005843 0.28055298
0.067295112 0.052272625 0.2171984
0.067315266 0.052223165 0.21721362
0.067338705 0.052156281 0.21723381
0.067350738 0.05212228 0.21724761
0.067395076 0.05197046 0.21730576
0.067418143 0.051885303 0.21733592
0.067429423 0.051868878 0.21734132
0.067429423 0.051868886 0.21734133
0.067440905 0.05183547 0.21735194
0.06744568 0.051868096 0.2173322
0.067453735 0.051852189 0.21733272
0.06746053 0.051817946 0.21734093
0.10114473 0.066838451 0.27623719
0.10116156 0.066773206 0.27623543
0.10117804 0.066705912 0.27624756
0.10120355 0.06661208 0.2762354
0.10122219 0.066545404 0.27625301
0.10122666 0.066480227 0.27627093
0.10125616 0.066352949 0.27628413
-0.19340548 0.074831508 0.31341922
-0.19333342 0.074840039 0.31358042
-0.19327863 0.075040452 0.3136676
-0.19324312 0.075144023 0.31374502
-0.19322307 0.07516183 0.31376553
-0.1932167 0.075183839 0.31377074
-0.19319914 0.075188287 0.31379315
-0.19318342 0.075269796 0.31385282
-0.19314748 0.07528422 0.31393287
-0.19310585 0.075461589 0.31400076
-0.19307758 0.075521134 0.31407329
-0.19304602 0.075644545 0.31413022
-0.19301365 0.075661667 0.314226
-0.19295843 0.075807288 0.31434122
-0.19281016 0.076105319 0.31456608
-0.041114632 0.067968033 0.28024253
-0.041075654 0.067881413 0.28024024
-0.041062646 0.06783919 0.28023899
-0.041051202 0.067800485 0.28024754
-0.041027151 0.067727983 0.28027308
0.067222774 0.052649405 0.21706651
0.067243263 0.052617174 0.21707001
0.067254961 0.052583344 0.21708047
0.067275524 0.052532647 0.21709533
0.067308687 0.052414138 0.21713503
0.06732741 0.052346695 0.21716079
0.067349426 0.052279793 0.21718483
0.067369871 0.052212294 0.21720862
0.067369878 0.052212302 0.21720858
0.067378834 0.052244898 0.21718723
0.067381829 0.052244496 0.21718179
0.067399584 0.052208379 0.21718968
0.10105864 0.067337915 0.27611792
0.10108803 0.067269839 0.27613065
0.10109687 0.067235351 0.27613753
0.10111287 0.067172617 0.27613956
0.10114735 0.067045487 0.27615297
0.10116255 0.066985026 0.27615666
0.10119445 0.066817872 0.27618876
0.10121067 0.066683061 0.27622199
-0.19339204 0.075453252 0.31334165
-0.19334179 0.075463556 0.3134616
-0.19328126 0.07560464 0.31358039
-0.19323336 0.075701661 0.31367314
-0.19320959 0.075754821 0.31371498
-0.19319527 0.075782664 0.31372398
-0.19318105 0.075803928 0.3137435
-0.19315556 0.07581374 0.31381062
-0.19313127 0.075901791 0.31383786
-0.19310431 0.076093741 0.31389925
-0.19307086 0.076110736 0.31396794
-0.19303745 0.076282032 0.31404352
-0.19300571 0.076292314 0.31414375
-0.19294919 0.076456681 0.31426141
-0.041187294 0.068377182 0.28010377
-0.041172367 0.068292148 0.28010657
-0.041177705 0.068351589 0.28005055
-0.0411609 0.068343014 0.28002864
-0.041134726 0.068266407 0.28004378
-0.04111151 0.068202265 0.28008375
0.067130864 0.053060457 0.21694456
0.067151815 0.053010203 0.2169556
0.067162387 0.053011656 0.2169472
0.067179978 0.052978694 0.21694858
0.067206025 0.052911177 0.21696752
0.067228317 0.05282598 0.21699302
0.067254283 0.052741379 0.21701899
0.067274675 0.052673582 0.21704218
0.067290246 0.052621882 0.21705575
0.067303792 0.052605197 0.21705952
0.067323193 0.05258755 0.21705857
0.067330658 0.052569676 0.21706094
0.067344658 0.052549783 0.21706189
0.10099521 0.067826144 0.27598438
0.10100093 0.067792125 0.27599323
0.10101818 0.067726776 0.27600813
0.10102669 0.067695588 0.2760165
0.10106204 0.067628786 0.27604094
0.10108129 0.067599967 0.27605164
0.10112326 0.0674318 0.27609482
0.10115673 0.067310035 0.27611244
-0.19337127 0.076000333 0.31330612
-0.19332647 0.076125309 0.31338686
-0.19326811 0.076186478 0.31352049
-0.19322076 0.076324724 0.31360984
-0.19319481 0.076356396 0.31365964
-0.1931832 0.076404952 0.31366721
-0.19316702 0.076368451 0.31369403
-0.19313973 0.076438427 0.31372544
-0.19312152 0.076480135 0.31376827
-0.19310716 0.076583907 0.31380224
-0.19307519 0.07677874 0.3138676
-0.19304805 0.076879442 0.31394482
-0.19300734 0.076964065 0.31402615
-0.19293864 0.077085085 0.31420243
-0.041380648 0.069097027 0.27974558
-0.04131525 0.06891942 0.27980962
-0.041284576 0.068876505 0.27980554
-0.041259706 0.068833336 0.2798045
-0.041239925 0.068827048 0.27978963
-0.041215185 0.068763092 0.27982396
0.067079961 0.053444341 0.21682194
0.067097485 0.053393874 0.21683255
0.067117728 0.053343598 0.21683936
0.067144081 0.053258184 0.21685816
0.067158662 0.053206366 0.21687081
0.06718047 0.053137805 0.21688794
0.067197122 0.05308681 0.21690297
0.067212626 0.053034637 0.21691525
0.067235887 0.05299861 0.21691763
0.067240477 0.052996125 0.21691282
0.067244701 0.053010169 0.21690114
0.067264408 0.05295904 0.21691421
0.10093261 0.068364233 0.27582791
0.10095245 0.068329871 0.27583349
0.10096994 0.068266101 0.27584961
0.10097905 0.068236098 0.27585986
0.10100131 0.068204157 0.27587226
0.10102406 0.068080932 0.27591518
0.10106687 0.067888878 0.27597332
0.10109471 0.067768574 0.27601385
-0.19331613 0.076744892 0.31328979
-0.19328751 0.076829202 0.31335226
-0.193248 0.076845534 0.31345144
-0.19321322 0.076927751 0.31353274
-0.193185 0.077004254 0.31359258
-0.19317544 0.07700891 0.31360376
-0.19316006 0.076972663 0.31363216
-0.1931362 0.07704173 0.31366262
-0.1931244 0.077107862 0.3136861
-0.19310389 0.077192158 0.31373093
-0.19308829 0.077255599 0.31377694
-0.19306101 0.077425353 0.3138437
-0.19301929 0.077572778 0.3139489
-0.19290555 0.077703051 0.31417763
-0.041527331 0.06975048 0.27945068
-0.041474082 0.069640055 0.27948126
-0.041459713 0.069630057 0.27947074
-0.041384973 0.069491193 0.27951095
-0.041356828 0.069453187 0.27951908
-0.04131069 0.06938374 0.27953792
0.067017742 0.053794738 0.21671687
0.067040063 0.053744972 0.21672539
0.067054749 0.053710267 0.21673499
0.067069925 0.053658899 0.21674365
0.067091286 0.053589705 0.21675391
0.067114919 0.053521357 0.21676923
0.06712468 0.053485975 0.21677659
0.06713976 0.053433198 0.21678752
0.067155108 0.053429306 0.21677528
0.067164764 0.053410511 0.21677637
0.067161605 0.053442385 0.21676099
0.067175604 0.053403143 0.21676672
0.10086211 0.06882631 0.27566499
0.10088664 0.06882114 0.27565721
0.10089408 0.068815351 0.27564326
0.10090741 0.068801455 0.27561823
0.10093013 0.068721727 0.27566081
0.10096855 0.068483904 0.27577028
0.10101463 0.068243235 0.27586877
0.10103033 0.068159521 0.27590066
-0.19326703 0.077527583 0.31327483
-0.19325331 0.077512711 0.31331798
-0.19322771 0.077557474 0.31339052
-0.19319427 0.077623479 0.31347522
-0.19317442 0.077636063 0.3135215
-0.19316874 0.077638954 0.31353781
-0.19315967 0.077686444 0.31354716
-0.19314222 0.077627309 0.31358603
-0.19312634 0.077645183 0.31361806
-0.19310269 0.077779531 0.31366101
-0.19308686 0.077865764 0.31371272
-0.19306025 0.078013286 0.31378123
-0.19301052 0.078155756 0.31386983
-0.19287741 0.078335702 0.31411994
-0.041672487 0.070328377 0.27923977
-0.041641664 0.070240982 0.27925789
-0.041604109 0.070282981 0.27919701
-0.041576773 0.070238605 0.2792072
-0.041494731 0.070129253 0.27922583
-0.041473109 0.070062503 0.27925828
-0.041425616 0.069999442 0.27926695
-0.041289736 0.069061778 0.2799063
0.066956826 0.054183569 0.21659596
0.066978797 0.054096736 0.21661976
0.066993035 0.0540617 0.21662736
0.067014247 0.054009829 0.21663341
0.067025766 0.053975567 0.21664371
0.06704095 0.053922672 0.21665224
0.067053162 0.053887695 0.21665424
0.067068055 0.053834513 0.21666457
0.067083396 0.053830631 0.21665289
0.067090273 0.053828713 0.21664819
0.06709297 0.05387124 0.21662425
0.067113161 0.053831436 0.21663049
0.10084579 0.069079854 0.27557909
0.10081054 0.069308788 0.27545932
0.1008043 0.069470331 0.27533051
0.10081071 0.069474436 0.27532879
0.10083895 0.069358811 0.27538535
0.10089152 0.069033027 0.27555278
0.10094484 0.068710417 0.27569863
0.1009723 0.06863144 0.27573636
-0.1932435 0.078161441 0.313234
-0.19322066 0.078205131 0.31330377
-0.1932116 0.078274198 0.31332645
-0.19318806 0.078274176 0.3134084
-0.19316502 0.07826937 0.31344953
-0.19315991 0.078294568 0.31346351
-0.19314572 0.078303419 0.31348988
-0.19312567 0.078352094 0.31351355
-0.19311444 0.078369968 0.31355321
-0.19309565 0.078437902 0.31360579
-0.19307953 0.078524783 0.31365299
-0.19305295 0.078626096 0.31369779
-0.19299451 0.078744434 0.31380042
-0.19286522 0.078950681 0.31407195
-0.041775119 0.070781961 0.27905393
-0.041737653 0.070756748 0.27904761
-0.041705839 0.070732728 0.27903679
-0.041653063 0.070796922 0.27896121
-0.041609831 0.070728466 0.27897587
-0.04157415 0.070778802 0.27892655
-0.041504215 0.070712134 0.27893099
-0.041430317 0.070532605 0.27900183
0.066855155 0.054687634 0.21643643
0.06689997 0.05453603 0.21648405
0.066927984 0.054432008 0.21651188
0.066944309 0.054379422 0.21652696
0.066954724 0.054379575 0.21651918
0.066976674 0.054309607 0.2165333
0.066982388 0.054291889 0.21653543
0.066997148 0.054238345 0.21654537
0.067010917 0.054184437 0.21655457
0.067019895 0.054233026 0.21653239
0.067031391 0.054258179 0.21650903
0.067038536 0.05425185 0.21650717
0.10073411 0.069654435 0.27533829
0.10075665 0.069619521 0.27534285
0.10072682 0.069872096 0.27518108
0.10070509 0.069976442 0.27509966
0.10070858 0.070000127 0.27506962
0.1007359 0.0698926 0.27513468
0.10080276 0.069596052 0.2752746
0.10086487 0.069252573 0.27545315
0.10090319 0.069117546 0.27552444
-0.19321883 0.078679584 0.31319156
-0.19320256 0.078799859 0.31324384
-0.19319023 0.078832947 0.31328723
-0.19318071 0.078822762 0.31330159
-0.19315782 0.078906685 0.31336823
-0.19314866 0.078932978 0.31339356
-0.19312811 0.078963727 0.31344607
-0.19311044 0.079010144 0.31346604
-0.1930985 0.079037316 0.31350768
-0.19307834 0.079125941 0.31355491
-0.1930673 0.079145446 0.31357959
-0.19302978 0.079271704 0.31363702
-0.19298442 0.079403356 0.31373698
-0.19286795 0.079719022 0.31399283
-0.041878346 0.071363389 0.27881905
-0.041820552 0.071289219 0.27882311
-0.041772783 0.071379028 0.27874911
-0.041709311 0.071435511 0.27867869
-0.041679624 0.071451582 0.27866003
-0.041653428 0.071476758 0.27863488
-0.041602202 0.071356751 0.27867463
-0.041551813 0.071243934 0.27870423
0.066786885 0.055094928 0.21631256
0.066804312 0.05500783 0.21633758
0.066841662 0.054869808 0.21637927
0.066858821 0.054800976 0.21640109
0.066889487 0.054732371 0.21641341
0.066895701 0.054749891 0.21640323
0.066911444 0.054696627 0.21641394
0.066933729 0.054626592 0.21642962
0.066940799 0.05459056 0.21643914
0.066954114 0.054602653 0.21642427
0.066958889 0.054648276 0.21639943
0.10062227 0.070213675 0.27506784
0.10063892 0.070178375 0.27506357
0.10058114 0.070490293 0.27489057
0.10055059 0.070661299 0.27477232
0.10055905 0.070627362 0.2747834
0.10062784 0.070393763 0.27490115
0.10070412 0.070049234 0.27508774
0.10077663 0.069730274 0.27523282
-0.19320111 0.079302549 0.31312275
-0.19318767 0.079379834 0.31316283
-0.19317497 0.079419322 0.31319666
-0.19316372 0.079447567 0.31323689
-0.19314691 0.079502523 0.3132759
-0.19313057 0.079511374 0.31332713
-0.1931085 0.079543263 0.31338471
-0.1930982 0.079609327 0.31338581
-0.19308588 0.079733215 0.31344578
-0.19306675 0.079774737 0.31347474
-0.19305065 0.079791084 0.31350368
-0.19301334 0.079936214 0.31359366
-0.19295985 0.080092773 0.31372353
-0.19287719 0.080352753 0.31391609
-0.041919798 0.072031461 0.27850276
-0.041865796 0.071997359 0.27849135
-0.041796427 0.07209789 0.27841541
-0.041783087 0.072121806 0.27839655
-0.041753508 0.071996599 0.2784425
-0.041730493 0.071932875 0.27846915
-0.041708536 0.071874872 0.2784864
-0.041660249 0.071762413 0.27851376
0.066697009 0.055604558 0.21615519
0.066715635 0.055534553 0.21617278
0.06674061 0.055414665 0.21621247
0.066763975 0.055292405 0.21624993
0.06678737 0.055222929 0.21627004
0.066799417 0.055188272 0.21627508
0.06682422 0.055119473 0.21629314
0.066840149 0.05510157 0.21629183
0.066855587 0.055048384 0.2163042
0.06686604 0.055029858 0.21630615
0.06687735 0.055010304 0.21630514
0.066908181 0.054903258 0.2163282
0.10049126 0.070800066 0.27476525
0.10049301 0.070795566 0.27475393
0.10043257 0.071106434 0.27457681
0.1004186 0.071191952 0.27451682
0.10043673 0.07112997 0.27454001
0.10051811 0.070837893 0.27469409
0.10060768 0.070490211 0.27487171
0.10066689 0.070232801 0.27500063
-0.19318549 0.079907842 0.31304583
-0.19317351 0.079946041 0.31306562
-0.19315913 0.080002174 0.3131144
-0.19314659 0.080035277 0.31317142
-0.19313538 0.080092356 0.31320277
-0.19311288 0.080120727 0.31323627
-0.19310458 0.080168568 0.31325793
-0.19308893 0.080194116 0.3133117
-0.19306807 0.080336168 0.31335601
-0.19304715 0.0804023 0.3134065
-0.19302276 0.080514416 0.31347755
-0.19299255 0.080633253 0.31355745
-0.19293575 0.080876201 0.31371868
-0.19285373 0.08117453 0.31395748
-0.041936699 0.072782412 0.27815807
-0.041909516 0.072712086 0.27818334
-0.041879196 0.072613053 0.2782205
-0.041861825 0.072577611 0.27823302
-0.04184588 0.072518207 0.27825248
-0.041820999 0.072423786 0.27828848
-0.04180013 0.072334327 0.2783173
-0.041769728 0.072247773 0.27834189
0.066626273 0.055976354 0.21605121
0.06664893 0.055890974 0.21607421
0.066676751 0.055784162 0.21609724
0.066700593 0.055699237 0.21612516
0.066711478 0.055645905 0.21614055
0.066727221 0.055593226 0.21615009
0.066745311 0.055538591 0.21615794
0.066759303 0.055502646 0.21616136
0.06677144 0.055504616 0.21616335
0.06679064 0.055434022 0.21618155
0.066823311 0.0553293 0.21621099
0.066852503 0.055206675 0.21624896
0.10032944 0.071442828 0.27443773
0.10031545 0.07154838 0.27438098
0.10030585 0.071606942 0.27434292
0.1003281 0.071569815 0.27433193
0.10035702 0.071480125 0.27436578
0.10041033 0.071277834 0.27447361
0.10047749 0.071021356 0.27460712
0.10052959 0.070813589 0.27470335
-0.1932098 0.080379814 0.31288815
-0.19318105 0.080375046 0.31293625
-0.19315021 0.08057227 0.31301108
-0.19313127 0.0806261 0.3130829
-0.19312447 0.080702767 0.31309971
-0.19310917 0.080709778 0.31311294
-0.19309591 0.080736443 0.31314138
-0.19307677 0.080784947 0.31319731
-0.19305649 0.080873653 0.31324622
-0.19303688 0.081038237 0.31331658
-0.19301359 0.081178918 0.31339577
-0.1929642 0.081450351 0.3135699
-0.19291398 0.081607774 0.31375679
-0.1928243 0.08197289 0.31402737
-0.042024784 0.073296614 0.27797404
-0.041993938 0.07319764 0.27800831
-0.04197504 0.073132552 0.27803111
-0.041951932 0.073007487 0.27807817
-0.041922323 0.072882608 0.27812594
-0.04191149 0.072883382 0.27812171
-0.041892283 0.072794072 0.27815288
-0.041863333 0.072707154 0.27817848
0.066574223 0.056298316 0.21596609
0.066586345 0.056263171 0.21597198
0.066600777 0.056211229 0.21598484
0.066622809 0.056141123 0.21599627
0.066632636 0.056069154 0.21601507
0.066664718 0.055964924 0.21603836
0.06668333 0.055894393 0.21605569
0.066692635 0.055874392 0.21605146
0.066702716 0.055856727 0.21605688
0.066723213 0.055803843 0.21606988
0.066769429 0.055646949 0.21611702
0.06679529 0.055541102 0.21614686
0.10019201 0.072049387 0.27412754
0.10020743 0.072016016 0.27414182
0.10020275 0.072044574 0.27412081
0.10023044 0.071950682 0.27415261
0.10026117 0.071861893 0.27418697
0.10029966 0.071716048 0.27426443
0.1003464 0.071516402 0.27435988
0.10038961 0.071367189 0.27442175
-0.19319803 0.080897845 0.31275338
-0.19318299 0.080945663 0.31276646
-0.19314495 0.081051968 0.31288502
-0.19312279 0.081106506 0.312976
-0.19310659 0.081185214 0.31299126
-0.19309282 0.081258744 0.31302556
-0.19307962 0.081311025 0.31303501
-0.19306517 0.081354961 0.31306812
-0.1930462 0.081491984 0.31312606
-0.19302382 0.081657007 0.31322899
-0.19298533 0.081887938 0.31337816
-0.19293737 0.082133137 0.31358796
-0.19289839 0.082450286 0.31378567
-0.042112488 0.073747836 0.27781257
-0.042081274 0.073649622 0.27784517
-0.042064153 0.073555902 0.27788106
-0.042022604 0.073335089 0.27796379
-0.042007484 0.073269106 0.27798486
-0.041996345 0.073306046 0.27796912
-0.041983172 0.073284306 0.27797636
-0.041957375 0.07316646 0.27801895
0.066511482 0.056671247 0.2158667
0.066523589 0.056619201 0.21587875
0.066537261 0.056567173 0.21588798
0.066552185 0.056531396 0.21589254
0.066562988 0.056494985 0.21590045
0.066592552 0.056388807 0.21591763
0.066607647 0.056299519 0.21593592
0.066616818 0.056263842 0.21594156
0.066630013 0.056229323 0.21594898
0.066659808 0.056159787 0.21597065
0.066696882 0.0560367 0.21600318
0.066716656 0.055963404 0.21602315
0.1000924 0.072485402 0.27390385
0.1000954 0.072457105 0.27392533
0.10010666 0.072446853 0.27390927
0.10012805 0.072385244 0.27392653
0.10017572 0.072238751 0.27399215
0.1001827 0.072211206 0.27400824
0.10022335 0.072013341 0.27411568
0.10027246 0.071863875 0.27417317
-0.19319955 0.081438921 0.31253147
-0.19316168 0.081544094 0.31266639
-0.19313757 0.081661358 0.31274518
-0.19311166 0.081702471 0.31285724
-0.19309051 0.081803061 0.31291324
-0.19307561 0.081792742 0.3129414
-0.19306743 0.081864379 0.31294876
-0.19305272 0.08197552 0.31297201
-0.19303149 0.082115941 0.31304935
-0.19300908 0.082300343 0.31317073
-0.19296774 0.08258342 0.31332868
-0.19292633 0.082841486 0.31356585
-0.19289294 0.083191402 0.31382307
-0.042232003 0.074274801 0.27763796
-0.042201672 0.074204408 0.27765584
-0.042170104 0.074106589 0.27768865
-0.042145312 0.073982909 0.27773711
-0.042113878 0.073859096 0.27778509
-0.042096157 0.073756523 0.27781442
-0.042070258 0.07369858 0.27783474
-0.042056348 0.073675856 0.27784401
0.066449918 0.057043169 0.21576299
0.066461734 0.057008728 0.21576902
0.066476114 0.056922019 0.21579379
0.066510551 0.056780349 0.21583556
0.066514261 0.056780584 0.21583337
0.066521905 0.056726497 0.2158363
0.066532508 0.056724306 0.21582173
0.066558562 0.056636002 0.2158348
0.066570148 0.056600746 0.21583998
0.06658487 0.056582686 0.21584517
0.066619404 0.056459919 0.21588086
0.066635534 0.056389403 0.21590145
0.10002499 0.072754875 0.27378976
0.10001603 0.072799422 0.27374309
0.10001423 0.07285174 0.27370784
0.10003474 0.072818473 0.27370489
0.10004543 0.072790325 0.2737163
0.10007555 0.072677962 0.27377805
0.1001273 0.072450943 0.27389288
0.10018776 0.072213471 0.27400035
-0.19319189 0.081956394 0.31233519
-0.1931611 0.082016975 0.31251085
-0.19312173 0.082164347 0.31264266
-0.19310057 0.082340725 0.31276077
-0.19307369 0.082430311 0.31284124
-0.19305713 0.082508929 0.31289628
-0.19305572 0.082557775 0.3128992
-0.19304255 0.082627907 0.31292436
-0.19301568 0.082767047 0.31302744
-0.19300313 0.08302585 0.31312713
-0.19296511 0.083312802 0.31330484
-0.19293629 0.083567992 0.31350985
-0.19291669 0.083926953 0.31382403
-0.042308684 0.074697018 0.277493
-0.042278759 0.074599281 0.27752689
-0.042259902 0.074534461 0.27754879
-0.042230107 0.07437931 0.2776103
-0.042204704 0.074315459 0.27763134
-0.042189255 0.074249059 0.27765006
-0.042161383 0.074154653 0.27767995
-0.042122614 0.074032821 0.27772111
0.066372439 0.057464596 0.21563978
0.066392355 0.057415154 0.2156523
0.066414624 0.057329655 0.21567848
0.066434629 0.057275701 0.2156868
0.066454522 0.057187878 0.21571139
0.066461369 0.05711434 0.21571821
0.066469654 0.057079367 0.21572557
0.06648396 0.057042655 0.21572064
0.066495225 0.057025082 0.2157267
0.066520192 0.056972027 0.2157359
0.066545978 0.056919102 0.2157495
0.066582322 0.056741625 0.21580513
0.09998779 0.072911389 0.2737509
0.0999773 0.072983965 0.27368009
0.099926494 0.073259257 0.2735174
0.099935964 0.073253937 0.27350792
0.099944733 0.073255226 0.27350193
0.099955134 0.0732271 0.27351284
0.099964403 0.073199295 0.27352557
0.10005482 0.072851852 0.27368027
0.10012309 0.072486036 0.27388176
-0.19318879 0.082496814 0.31221595
-0.19316296 0.082575344 0.31235704
-0.19310927 0.082764298 0.31258807
-0.19308583 0.082940117 0.31268752
-0.19305916 0.083155639 0.31279016
-0.19304967 0.083139531 0.31284776
-0.19303858 0.083306216 0.31290829
-0.19301714 0.083401471 0.3129721
-0.19300528 0.083446309 0.31305969
