# .PCD v0.7 - Point Cloud Data file format
VERSION 0.7
FIELDS x y z
SIZE 4 4 4
TYPE F F F
COUNT 1 1 1
WIDTH 1336
HEIGHT 1
VIEWPOINT 0 0 0 1 0 0 0
POINTS 1336
DATA ascii
-0.052317794 -0.029372478 0.28361702
-0.051680859 -0.029339425 0.28329787
-0.051045228 -0.029306373 0.28297871
-0.05044885 -0.029295357 0.28287235
-0.049871661 -0.029295357 0.28287235
-0.049294468 -0.029295357 0.28287235
0.10204472 -0.02932841 0.2831915
0.10223705 -0.029218234 0.28212765
0.10226998 -0.029063992 0.28063831
0.10268667 -0.02901992 0.28021276
0.10333683 -0.029041955 0.28042552
0.10406671 -0.029086025 0.28085107
0.10475869 -0.029119078 0.28117022
0.10537226 -0.029130094 0.28127658
0.10590613 -0.029119078 0.28117022
0.10643955 -0.029108061 0.28106382
0.10705356 -0.029119078 0.28117022
0.107668 -0.029130094 0.28127658
0.10824193 -0.029130094 0.28127658
0.10869241 -0.029097045 0.28095746
0.10914157 -0.029063992 0.28063831
0.10963102 -0.029041955 0.28042552
-0.056990203 -0.028815368 0.28382978
-0.056411054 -0.028815368 0.28382978
-0.055810988 -0.028804569 0.28372341
-0.055211347 -0.028793767 0.28361702
-0.054612141 -0.028782966 0.28351063
-0.053993098 -0.028761366 0.28329787
-0.053394984 -0.028750567 0.2831915
-0.052797299 -0.028739765 0.28308511
-0.052219674 -0.028739765 0.28308511
-0.051622637 -0.028728964 0.28297871
-0.051026043 -0.028718166 0.28287235
-0.050429877 -0.028707365 0.28276595
-0.049834143 -0.028696563 0.28265956
-0.049257386 -0.028696563 0.28265956
0.10154638 -0.028610162 0.28180853
0.10189009 -0.028545361 0.28117022
0.10207614 -0.028437357 0.2801064
0.10253073 -0.028404955 0.27978724
0.10318003 -0.028426556 0.28
0.10390903 -0.028469756 0.28042552
0.10460014 -0.028502157 0.28074467
0.10517299 -0.028502157 0.28074467
0.10574584 -0.028502157 0.28074467
0.10635898 -0.028512958 0.28085107
0.10701305 -0.028534558 0.28106382
0.107668 -0.028556159 0.28127658
0.10816006 -0.028534558 0.28106382
0.10856894 -0.028491359 0.28063831
0.10893471 -0.028437357 0.2801064
0.10942307 -0.028415754 0.27989361
-0.057011563 -0.028246807 0.28393617
-0.056432202 -0.028246807 0.28393617
-0.055810988 -0.028225642 0.28372341
-0.055190638 -0.028204473 0.28351063
-0.054571159 -0.028183306 0.28329787
-0.053932272 -0.028151557 0.28297871
-0.053294688 -0.028119806 0.28265956
-0.052698094 -0.028109225 0.2825532
-0.052121554 -0.028109225 0.2825532
-0.051564418 -0.028119806 0.28265956
-0.050987657 -0.028119806 0.28265956
-0.0504109 -0.028119806 0.28265956
-0.049834143 -0.028119806 0.28265956
-0.049257386 -0.028119806 0.28265956
0.10158471 -0.028045723 0.28191489
0.10196719 -0.027992807 0.28138298
0.1022312 -0.027908141 0.28053191
0.10264768 -0.027865808 0.2801064
0.10321923 -0.027865808 0.2801064
0.10386962 -0.027886976 0.28031915
0.10452086 -0.027908141 0.28053191
0.10509329 -0.027908141 0.28053191
0.1056657 -0.027908141 0.28053191
0.10635898 -0.027939891 0.28085107
0.10705356 -0.027971642 0.28117022
0.10762728 -0.027971642 0.28117022
0.10811912 -0.027950475 0.28095746
0.10856894 -0.027918726 0.28063831
0.10901745 -0.027886976 0.28031915
0.10950626 -0.027865808 0.2801064
-0.056990203 -0.027657077 0.28382978
-0.056411054 -0.027657077 0.28382978
-0.055810988 -0.027646713 0.28372341
-0.055169929 -0.027615614 0.28340426
-0.054530177 -0.027584516 0.28308511
-0.053891722 -0.027553415 0.28276595
-0.053234518 -0.027511952 0.28234044
-0.052598886 -0.027480854 0.28202128
-0.052023433 -0.027480854 0.28202128
-0.05148679 -0.027501585 0.28223404
-0.050968472 -0.027532684 0.2825532
-0.050429877 -0.027553415 0.28276595
-0.049871661 -0.027563782 0.28287235
-0.049294468 -0.027563782 0.28287235
0.10223639 -0.027646713 0.28372341
0.1024298 -0.027543047 0.28265956
0.10261888 -0.027439388 0.28159574
0.10295957 -0.027377192 0.28095746
0.10345444 -0.027356457 0.28074467
0.10402729 -0.027356457 0.28074467
0.10456051 -0.027346093 0.28063831
0.10509329 -0.027335726 0.28053191
0.1056657 -0.027335726 0.28053191
0.10631869 -0.027356457 0.28074467
0.10697255 -0.027377192 0.28095746
0.10754584 -0.027377192 0.28095746
0.10807818 -0.027366824 0.28085107
0.10865125 -0.027366824 0.28085107
0.10926569 -0.027377192 0.28095746
0.10988056 -0.027387556 0.28106382
-0.056926116 -0.027047485 0.28351063
-0.056347623 -0.027047485 0.28351063
-0.055748206 -0.027037337 0.28340426
-0.055128511 -0.02701704 0.2831915
-0.054509681 -0.026996739 0.28297871
-0.053871445 -0.026966291 0.28265956
-0.053214457 -0.026925696 0.28223404
-0.052579045 -0.026895247 0.28191489
-0.051984187 -0.0268851 0.28180853
-0.051467381 -0.026915545 0.28212765
-0.050968472 -0.026956143 0.2825532
-0.05044885 -0.026986592 0.28287235
-0.049909171 -0.027006889 0.28308511
-0.049350087 -0.02701704 0.2831915
0.1029264 -0.027250469 0.2856383
0.10304662 -0.027128678 0.28436169
0.10316164 -0.027006889 0.28308511
0.10342738 -0.026925696 0.28223404
0.10380726 -0.02687495 0.28170213
0.10422438 -0.026834352 0.28127658
0.10467942 -0.026803907 0.28095746
0.10513314 -0.02677346 0.28063831
0.1056657 -0.026763309 0.28053191
0.10623812 -0.026763309 0.28053191
0.10685104 -0.02677346 0.28063831
0.10742367 -0.02677346 0.28063831
0.10803724 -0.026783606 0.28074467
0.10881586 -0.026834352 0.28127658
0.1095553 -0.02687495 0.28170213
0.11025488 -0.026905399 0.28202128
-0.057396725 -0.02641933 0.28297871
-0.056840677 -0.026429264 0.28308511
-0.056263052 -0.026429264 0.28308511
-0.055685427 -0.026429264 0.28308511
-0.055107802 -0.026429264 0.28308511
-0.054509681 -0.02641933 0.28297871
-0.053871445 -0.026389534 0.28265956
-0.053234518 -0.026359741 0.28234044
-0.052579045 -0.02632001 0.28191489
-0.051984187 -0.026310079 0.28180853
-0.051467381 -0.026339874 0.28212765
-0.050987657 -0.026389534 0.28265956
-0.050524741 -0.026449127 0.28329787
-0.050002947 -0.026478924 0.28361702
-0.049442779 -0.026488857 0.28372341
0.10314402 -0.026876207 0.28787234
0.10346308 -0.026806684 0.28712767
0.10358633 -0.026687497 0.28585106
0.10366562 -0.026558381 0.28446808
0.10385622 -0.026459061 0.28340426
0.10412088 -0.026379604 0.2825532
0.1044609 -0.02632001 0.28191489
0.10479832 -0.026260417 0.28127658
0.10513314 -0.026200827 0.28063831
0.10558556 -0.02617103 0.28031915
0.10611725 -0.026161097 0.28021276
0.10668901 -0.026161097 0.28021276
0.10730151 -0.02617103 0.28031915
0.10803724 -0.026210757 0.28074467
0.10889819 -0.026280284 0.28148937
0.10972079 -0.026339874 0.28212765
0.11042123 -0.02636967 0.2824468
-0.05733199 -0.025812777 0.28265956
-0.056755234 -0.025812777 0.28265956
-0.056199621 -0.025822492 0.28276595
-0.055643573 -0.025832208 0.28287235
-0.05508709 -0.025841922 0.28297871
-0.054509681 -0.025841922 0.28297871
-0.053891722 -0.025822492 0.28276595
-0.053234518 -0.025783634 0.28234044
-0.052579045 -0.025744772 0.28191489
-0.051984187 -0.025735058 0.28180853
-0.051467381 -0.025764201 0.28212765
-0.051026043 -0.025832208 0.28287235
-0.050562683 -0.025890496 0.28351063
-0.050040457 -0.025919642 0.28382978
0.10348706 -0.026376247 0.28882977
0.10384642 -0.026317958 0.2881915
0.10397184 -0.026201377 0.28691489
0.10401454 -0.026065368 0.28542554
0.1041681 -0.025958503 0.28425533
0.1043561 -0.025861355 0.2831915
0.10461859 -0.025783634 0.28234044
0.1048776 -0.025705913 0.28148937
0.10517299 -0.025637906 0.28074467
0.10550542 -0.025579618 0.2801064
0.10599639 -0.025560187 0.27989361
0.10660801 -0.025569903 0.28
0.10730151 -0.025599048 0.28031915
0.10803724 -0.025637906 0.28074467
0.10889819 -0.025705913 0.28148937
0.10967942 -0.025754489 0.28202128
0.11033805 -0.025773918 0.28223404
-0.057288837 -0.025217023 0.2824468
-0.056712512 -0.025217023 0.2824468
-0.056178477 -0.025236018 0.28265956
-0.055643573 -0.025255017 0.28287235
-0.05508709 -0.025264513 0.28297871
-0.054530177 -0.025274012 0.28308511
-0.053891722 -0.025245517 0.28276595
-0.053234518 -0.025207527 0.28234044
-0.052559208 -0.025160039 0.28180853
-0.051964559 -0.025150539 0.28170213
-0.051467381 -0.02518853 0.28212765
-0.051026043 -0.025255017 0.28287235
-0.05058166 -0.025321502 0.28361702
-0.050059218 -0.025349995 0.28393617
0.10384642 -0.025729913 0.2881915
0.1040104 -0.025625436 0.28702128
0.10409207 -0.025501963 0.2856383
0.10424607 -0.025397485 0.28446808
0.1044345 -0.025302507 0.28340426
0.10469742 -0.025226522 0.2825532
0.10499651 -0.025160039 0.28180853
0.10521284 -0.025074555 0.28085107
0.10554549 -0.025017567 0.28021276
0.10603668 -0.024998572 0.28
0.10660801 -0.024998572 0.28
0.10734222 -0.025036562 0.28042552
0.10807818 -0.025074555 0.28085107
0.10881586 -0.025112545 0.28127658
0.10947256 -0.025131544 0.28148937
0.11008851 -0.02514104 0.28159574
-0.057224102 -0.024612857 0.28212765
-0.056669794 -0.024622139 0.28223404
-0.056157336 -0.024649981 0.2825532
-0.055643573 -0.024677826 0.28287235
-0.055107802 -0.024696385 0.28308511
-0.054530177 -0.024696385 0.28308511
-0.053891722 -0.024668543 0.28276595
-0.053214457 -0.024622139 0.28223404
-0.052539364 -0.024575735 0.28170213
-0.051984187 -0.024585018 0.28180853
-0.05148679 -0.024622139 0.28223404
-0.051026043 -0.024677826 0.28287235
-0.050543714 -0.02472423 0.28340426
-0.050021708 -0.024752073 0.28372341
0.10357807 -0.025076902 0.2874468
0.10374054 -0.024974814 0.28627661
0.10385946 -0.024863441 0.285
0.10412911 -0.024789194 0.28414893
0.10439529 -0.024714947 0.28329787
0.10473683 -0.024659261 0.28265956
0.10503614 -0.024594296 0.28191489
0.1053324 -0.02452933 0.28117022
0.1056657 -0.024473645 0.28053191
0.10611725 -0.024445802 0.28021276
0.10672952 -0.024455084 0.28031915
0.10738295 -0.024473645 0.28053191
0.10803724 -0.024492206 0.28074467
0.10865125 -0.024501488 0.28085107
0.10922432 -0.024501488 0.28085107
0.10975579 -0.024492206 0.28074467
-0.057094641 -0.023982804 0.28148937
-0.056605712 -0.024019059 0.28191489
-0.05611505 -0.024055315 0.28234044
-0.055622645 -0.02409157 0.28276595
-0.05508709 -0.024109695 0.28297871
-0.054509681 -0.024109695 0.28297871
-0.053851172 -0.024073442 0.2825532
-0.053194396 -0.024037186 0.28212765
-0.052559208 -0.024009997 0.28180853
-0.052003808 -0.024019059 0.28191489
-0.051506199 -0.024055315 0.28234044
-0.051026043 -0.024100633 0.28287235
-0.050505772 -0.024127826 0.2831915
0.10327793 -0.024281908 0.285
0.10351055 -0.024200335 0.28404257
0.10385622 -0.024145951 0.28340426
0.10423849 -0.024100633 0.28287235
0.10461859 -0.024055315 0.28234044
0.10499651 -0.024009997 0.28180853
0.10537226 -0.023964675 0.28127658
0.10570578 -0.023910293 0.28063831
0.10615754 -0.023883102 0.28031915
0.10668901 -0.023874037 0.28021276
0.10730151 -0.023883102 0.28031915
0.10791442 -0.023892164 0.28042552
0.10848662 -0.023892164 0.28042552
0.10905882 -0.023892164 0.28042552
0.10958944 -0.023883102 0.28031915
-0.056965172 -0.023355354 0.28085107
-0.056520272 -0.023408435 0.28148937
-0.056051619 -0.023452668 0.28202128
-0.055559866 -0.023488054 0.2824468
-0.055024959 -0.023505747 0.28265956
-0.054427713 -0.023496902 0.2825532
-0.053810626 -0.023479208 0.28234044
-0.053194396 -0.023461513 0.28212765
-0.052579045 -0.02344382 0.28191489
-0.052043054 -0.023461513 0.28212765
-0.051506199 -0.023479208 0.28234044
-0.05100685 -0.023514595 0.28276595
-0.050467819 -0.023532288 0.28297871
0.10269967 -0.023567675 0.28340426
0.10316164 -0.023541136 0.28308511
0.10358331 -0.023505747 0.28265956
0.10400327 -0.023470361 0.28223404
0.1044609 -0.02344382 0.28191489
0.1048776 -0.023408435 0.28148937
0.10529255 -0.023373047 0.28106382
0.10562562 -0.023319965 0.28042552
0.10603668 -0.023284581 0.28
0.106527 -0.023266887 0.27978724
0.1070979 -0.023266887 0.27978724
0.10775067 -0.023284581 0.28
0.10840431 -0.023302272 0.28021276
0.10901745 -0.02331112 0.28031915
0.10958944 -0.02331112 0.28031915
-0.057429265 -0.022739138 0.28031915
-0.056943592 -0.022773655 0.28074467
-0.056477543 -0.022816803 0.28127658
-0.056009334 -0.022859955 0.28180853
-0.055476163 -0.022877213 0.28202128
-0.054921415 -0.022885842 0.28212765
-0.054325253 -0.022877213 0.28202128
-0.0537498 -0.022877213 0.28202128
-0.053154282 -0.022868583 0.28191489
-0.052579045 -0.022868583 0.28191489
-0.052043054 -0.022885842 0.28212765
-0.05148679 -0.022894472 0.28223404
-0.050949279 -0.022911731 0.2824468
-0.050391931 -0.022920361 0.2825532
0.10258401 -0.022963509 0.28308511
0.1029678 -0.022920361 0.2825532
0.10338839 -0.022885842 0.28212765
0.10384647 -0.022859955 0.28180853
0.10430323 -0.022834064 0.28148937
0.10471905 -0.022799546 0.28106382
0.10513314 -0.022765027 0.28063831
0.10546535 -0.02271325 0.28
0.10583524 -0.022670101 0.27946809
0.10632448 -0.022652842 0.27925533
0.10689429 -0.022652842 0.27925533
0.10762785 -0.022687361 0.27968085
0.10840431 -0.022730509 0.28021276
0.10914157 -0.022765027 0.28063831
0.10975579 -0.022773655 0.28074467
-0.057451058 -0.022175567 0.28042552
-0.056943592 -0.022200806 0.28074467
-0.056477543 -0.022242868 0.28127658
-0.055945899 -0.022259695 0.28148937
-0.055392455 -0.022268107 0.28159574
-0.054817867 -0.022268107 0.28159574
-0.054243281 -0.022268107 0.28159574
-0.053688973 -0.022276521 0.28170213
-0.053134229 -0.022284934 0.28180853
-0.052559208 -0.022284934 0.28180853
-0.052003808 -0.022293344 0.28191489
-0.051447976 -0.022301758 0.28202128
-0.050872523 -0.022301758 0.28202128
-0.050297067 -0.022301758 0.28202128
0.10215972 -0.022419533 0.28351063
0.10262257 -0.022394298 0.2831915
0.10292903 -0.022335408 0.2824468
0.10334942 -0.022301758 0.28202128
0.10376806 -0.022268107 0.28159574
0.10418497 -0.022234457 0.28117022
0.10456051 -0.022192394 0.28063831
0.10493387 -0.022150332 0.2801064
0.10534514 -0.02211668 0.27968085
0.10571438 -0.022074617 0.27914894
0.10620297 -0.022057794 0.27893618
0.10681284 -0.022066204 0.27904254
0.10758691 -0.022108268 0.27957445
0.10844547 -0.022167157 0.28031915
0.10926569 -0.022217633 0.28095746
0.10992216 -0.022234457 0.28117022
-0.057451058 -0.021603368 0.28042552
-0.056922019 -0.021619761 0.28063831
-0.056434825 -0.021652542 0.28106382
-0.05590361 -0.021668933 0.28127658
-0.055329673 -0.021668933 0.28127658
-0.05475574 -0.021668933 0.28127658
-0.054181803 -0.021668933 0.28127658
-0.053628143 -0.021677129 0.28138298
-0.053094108 -0.02169352 0.28159574
-0.052539364 -0.021701716 0.28170213
-0.051964559 -0.021701716 0.28170213
-0.051389758 -0.021701716 0.28170213
-0.050776575 -0.021685326 0.28148937
-0.050164256 -0.021668933 0.28127658
0.10238972 -0.021890212 0.28414893
0.10281532 -0.021857431 0.28372341
0.1030841 -0.021791868 0.28287235
0.10338839 -0.021734497 0.28212765
0.10372886 -0.021685326 0.28148937
0.10410614 -0.021644348 0.28095746
0.10440196 -0.021586979 0.28021276
0.10481431 -0.021554198 0.27978724
0.105265 -0.021529611 0.27946809
0.10571438 -0.021505024 0.27914894
0.10620297 -0.021488633 0.27893618
0.10677212 -0.021488633 0.27893618
0.10754598 -0.021529611 0.27946809
0.10844547 -0.021595174 0.28031915
0.10930706 -0.021652542 0.28106382
0.10996374 -0.021668933 0.28127658
-0.057385679 -0.021007236 0.2801064
-0.056857284 -0.021023193 0.28031915
-0.056370743 -0.021055106 0.28074467
-0.055840183 -0.021071063 0.28095746
-0.055287823 -0.021079041 0.28106382
-0.054714322 -0.021079041 0.28106382
-0.054161314 -0.021087021 0.28117022
-0.053607866 -0.021094998 0.28127658
-0.053074051 -0.021110956 0.28148937
-0.052519519 -0.021118933 0.28159574
-0.051925313 -0.021110956 0.28148937
-0.051331535 -0.021102976 0.28138298
-0.050699811 -0.021079041 0.28106382
-0.050088365 -0.021063086 0.28085107
0.10273473 -0.021382224 0.28510639
0.10312372 -0.021342332 0.28457448
0.10327794 -0.021254567 0.28340426
0.10346637 -0.021174785 0.28234044
0.10368966 -0.021102976 0.28138298
0.10390903 -0.021031169 0.28042552
0.10420378 -0.020975322 0.27968085
0.10461505 -0.020943409 0.27925533
0.10518486 -0.020943409 0.27925533
0.10575467 -0.020943409 0.27925533
0.10628397 -0.020935429 0.27914894
0.10681284 -0.02092745 0.27904254
0.10750504 -0.020951387 0.2793617
0.108322 -0.020999257 0.28
0.10918294 -0.021055106 0.28074467
0.10992216 -0.021087021 0.28117022
-0.057320293 -0.020412404 0.27978724
-0.05679255 -0.020427927 0.28
-0.056328021 -0.020466734 0.28053191
-0.055819038 -0.020490019 0.28085107
-0.055266898 -0.02049778 0.28095746
-0.054714322 -0.02050554 0.28106382
-0.054161314 -0.020513302 0.28117022
-0.053607866 -0.020521061 0.28127658
-0.053053994 -0.020528825 0.28138298
-0.052499682 -0.020536587 0.28148937
-0.051905688 -0.020528825 0.28138298
-0.051312126 -0.020521061 0.28127658
-0.050680626 -0.02049778 0.28095746
-0.050050423 -0.020474495 0.28063831
-0.049459029 -0.020466734 0.28053191
0.10319474 -0.020893609 0.28638297
0.10347068 -0.020831518 0.28553191
0.10347178 -0.020715097 0.28393617
0.10346637 -0.020598678 0.28234044
0.10353285 -0.02049778 0.28095746
0.10367252 -0.020412404 0.27978724
0.10396596 -0.020358073 0.27904254
0.10445563 -0.020342551 0.27882978
0.10510471 -0.020358073 0.27904254
0.10575467 -0.020373598 0.27925533
0.10632448 -0.020373598 0.27925533
0.10681284 -0.020358073 0.27904254
0.10742316 -0.020365836 0.27914894
0.10819853 -0.020404642 0.27968085
0.10901745 -0.02045121 0.28031915
0.10975579 -0.020482255 0.28074467
-0.057320293 -0.019841507 0.27978724
-0.05681413 -0.019864142 0.2801064
-0.056328021 -0.019894317 0.28053191
-0.055819038 -0.01991695 0.28085107
-0.055266898 -0.019924495 0.28095746
-0.054714322 -0.019932039 0.28106382
-0.054140821 -0.019932039 0.28106382
-0.053567316 -0.019932039 0.28106382
-0.053013876 -0.019939585 0.28117022
-0.052459996 -0.019947127 0.28127658
-0.051886059 -0.019947127 0.28127658
-0.051292721 -0.019939585 0.28117022
-0.050680626 -0.019924495 0.28095746
-0.050088365 -0.01991695 0.28085107
-0.049515299 -0.01991695 0.28085107
0.1035014 -0.020369608 0.28723404
0.10374054 -0.020301711 0.28627661
0.10358809 -0.020158369 0.28425533
0.10334942 -0.019999938 0.28202128
0.10329764 -0.019879229 0.28031915
0.103436 -0.019796241 0.27914894
0.10376777 -0.019750975 0.27851063
0.10433607 -0.019750975 0.27851063
0.10502458 -0.019773608 0.27882978
0.10571438 -0.019796241 0.27914894
0.10628397 -0.019796241 0.27914894
0.10681284 -0.019788697 0.27904254
0.10742316 -0.019796241 0.27914894
0.10815737 -0.019826418 0.27957445
0.10889333 -0.019856596 0.28
0.10958944 -0.019879229 0.28031915
-0.057407469 -0.019299919 0.28021276
-0.056878857 -0.019314574 0.28042552
-0.056392103 -0.019343883 0.28085107
-0.055861324 -0.019358538 0.28106382
-0.055287823 -0.019358538 0.28106382
-0.054693613 -0.01935121 0.28095746
-0.054120332 -0.01935121 0.28095746
-0.053547047 -0.01935121 0.28095746
-0.052993815 -0.019358538 0.28106382
-0.052440159 -0.019365866 0.28117022
-0.051886059 -0.019373192 0.28127658
-0.051292721 -0.019365866 0.28117022
-0.050719004 -0.019365866 0.28117022
-0.050164256 -0.019373192 0.28127658
-0.049609076 -0.019380519 0.28138298
0.10377908 -0.019724898 0.28638297
0.10347178 -0.019556373 0.28393617
0.10315449 -0.019387847 0.28148937
0.10310163 -0.019270612 0.27978724
0.10331775 -0.019204665 0.27882978
0.10380742 -0.019190012 0.27861702
0.10441578 -0.019197339 0.27872342
0.10506465 -0.019211994 0.27893618
0.10567409 -0.01921932 0.27904254
0.10628397 -0.019226648 0.27914894
0.10685357 -0.019226648 0.27914894
0.10750504 -0.019241301 0.2793617
0.10819853 -0.019263284 0.27968085
0.10893471 -0.019292593 0.2801064
0.10954784 -0.019299919 0.28021276
-0.057472855 -0.018749485 0.28053191
-0.056943592 -0.018763706 0.28074467
-0.056413468 -0.018777927 0.28095746
-0.055882469 -0.018792147 0.28117022
-0.055287823 -0.018785035 0.28106382
-0.054693613 -0.018777927 0.28095746
-0.054099835 -0.018770816 0.28085107
-0.05352677 -0.018770816 0.28085107
-0.052973762 -0.018777927 0.28095746
-0.052420314 -0.018785035 0.28106382
-0.051866442 -0.018792147 0.28117022
-0.051312126 -0.018799257 0.28127658
-0.050757382 -0.018806366 0.28138298
-0.050221175 -0.018820586 0.28159574
-0.049684104 -0.018834809 0.28180853
0.10350923 -0.019090774 0.2856383
0.10312287 -0.018913018 0.28297871
0.10292058 -0.018770816 0.28085107
0.10298402 -0.018678384 0.27946809
0.10339658 -0.018649943 0.27904254
0.1040056 -0.018657053 0.27914894
0.10461505 -0.018664164 0.27925533
0.10522492 -0.018671274 0.2793617
0.10579495 -0.018671274 0.2793617
0.10636498 -0.018671274 0.2793617
0.10697573 -0.018678384 0.27946809
0.10762785 -0.018692603 0.27968085
0.108322 -0.018713934 0.28
0.10897607 -0.018728154 0.28021276
0.10958944 -0.018735265 0.28031915
-0.057472855 -0.01817707 0.28053191
-0.056943592 -0.018190855 0.28074467
-0.056413468 -0.018204642 0.28095746
-0.055882469 -0.018218428 0.28117022
-0.055308752 -0.018218428 0.28117022
-0.054714322 -0.018211534 0.28106382
-0.054120332 -0.018204642 0.28095746
-0.053547047 -0.018204642 0.28095746
-0.052993815 -0.018211534 0.28106382
-0.052440159 -0.018218428 0.28117022
-0.051886059 -0.01822532 0.28127658
-0.051292721 -0.018218428 0.28117022
-0.050738189 -0.01822532 0.28127658
-0.050202206 -0.018239109 0.28148937
-0.049665347 -0.018252894 0.28170213
-0.049109083 -0.018259788 0.28180853
0.10269643 -0.018259788 0.28180853
0.10272565 -0.018163284 0.28031915
0.10298402 -0.018108139 0.27946809
0.10355426 -0.018108139 0.27946809
0.10420378 -0.018121924 0.27968085
0.10489402 -0.018142603 0.28
0.10546535 -0.018142603 0.28
0.10599639 -0.01813571 0.27989361
0.106527 -0.018128818 0.27978724
0.10705718 -0.018121924 0.27968085
0.10766879 -0.018128818 0.27978724
0.108322 -0.018142603 0.28
0.10897607 -0.018156391 0.28021276
0.10958944 -0.018163284 0.28031915
-0.057451058 -0.017597977 0.28042552
-0.056922019 -0.01761133 0.28063831
-0.056392103 -0.017624682 0.28085107
-0.055861324 -0.017638033 0.28106382
-0.055308752 -0.017644711 0.28117022
-0.054735031 -0.017644711 0.28117022
-0.054161314 -0.017644711 0.28117022
-0.053587597 -0.017644711 0.28117022
-0.053033933 -0.017651385 0.28127658
-0.052459996 -0.017651385 0.28127658
-0.051866442 -0.017644711 0.28117022
-0.051253907 -0.017631359 0.28095746
-0.050661433 -0.017624682 0.28085107
-0.050088365 -0.017624682 0.28085107
-0.049552809 -0.017638033 0.28106382
-0.048979308 -0.017638033 0.28106382
0.10253073 -0.017557923 0.27978724
0.10298402 -0.017537894 0.27946809
0.1036331 -0.017551245 0.27968085
0.10432269 -0.017571274 0.28
0.10501358 -0.017591301 0.28031915
0.1056657 -0.017604653 0.28053191
0.10623812 -0.017604653 0.28053191
0.10668901 -0.017584626 0.28021276
0.10713862 -0.017564597 0.27989361
0.10762785 -0.017551245 0.27968085
0.10819853 -0.017551245 0.27968085
0.10885195 -0.017564597 0.27989361
0.10946466 -0.017571274 0.28
-0.057472855 -0.017032238 0.28053191
-0.056922019 -0.017038697 0.28063831
-0.056392103 -0.017051615 0.28085107
-0.055861324 -0.017064532 0.28106382
-0.055329673 -0.01707745 0.28127658
-0.054776449 -0.017083909 0.28138298
-0.054222792 -0.017090369 0.28148937
-0.053648423 -0.017090369 0.28148937
-0.053074051 -0.017090369 0.28148937
-0.052479841 -0.017083909 0.28138298
-0.051846813 -0.017064532 0.28106382
-0.051195689 -0.017038697 0.28063831
-0.050546292 -0.017012861 0.28021276
-0.049936581 -0.016999943 0.28
-0.049402762 -0.017012861 0.28021276
0.10237478 -0.016961189 0.2793617
0.10298402 -0.016967649 0.27946809
0.10359368 -0.016974106 0.27957445
0.10428305 -0.016993484 0.27989361
0.10497373 -0.017012861 0.28021276
0.10570578 -0.017038697 0.28063831
0.10631869 -0.017045155 0.28074467
0.10681053 -0.017032238 0.28053191
0.10713862 -0.016993484 0.27989361
0.10754598 -0.016967649 0.27946809
0.10807507 -0.016961189 0.2793617
0.10868647 -0.016967649 0.27946809
0.1092983 -0.016974106 0.27957445
-0.057494652 -0.016466064 0.28063831
-0.056943592 -0.016472304 0.28074467
-0.056413468 -0.01648479 0.28095746
-0.055861324 -0.016491031 0.28106382
-0.055308752 -0.016497273 0.28117022
-0.054776449 -0.016509756 0.28138298
-0.054243281 -0.01652224 0.28159574
-0.053668693 -0.01652224 0.28159574
-0.053094108 -0.01652224 0.28159574
-0.052479841 -0.016509756 0.28138298
-0.051807567 -0.016478548 0.28085107
-0.051118057 -0.016441096 0.28021276
-0.050450344 -0.016409887 0.27968085
-0.049822744 -0.01639116 0.2793617
-0.049252715 -0.01639116 0.2793617
0.10241377 -0.016397404 0.27946809
0.10294481 -0.01639116 0.2793617
0.10355426 -0.016397404 0.27946809
0.10416414 -0.016403643 0.27957445
0.10489402 -0.016428612 0.28
0.10562562 -0.016453579 0.28042552
0.10631869 -0.016472304 0.28074467
0.10681053 -0.016459821 0.28053191
0.10713862 -0.01642237 0.27989361
0.10750504 -0.01639116 0.2793617
0.10799275 -0.016378677 0.27914894
0.10860373 -0.01638492 0.27925533
0.10921512 -0.01639116 0.2793617
-0.057538237 -0.015905481 0.28085107
-0.056986753 -0.015911506 0.28095746
-0.056413468 -0.015911506 0.28095746
-0.055861324 -0.01591753 0.28106382
-0.055287823 -0.01591753 0.28106382
-0.05475574 -0.015929578 0.28127658
-0.054202296 -0.015935604 0.28138298
-0.053668693 -0.015947653 0.28159574
-0.053074051 -0.015941629 0.28148937
-0.052440159 -0.015923554 0.28117022
-0.051768322 -0.015893431 0.28063831
-0.051079243 -0.015857281 0.28
-0.050392773 -0.015821133 0.2793617
-0.049765825 -0.015803058 0.27904254
0.1021149 -0.015869331 0.28021276
0.10245275 -0.015833182 0.27957445
0.10294481 -0.015821133 0.2793617
0.10347543 -0.015815109 0.27925533
0.10412451 -0.015827158 0.27946809
0.10481431 -0.015845232 0.27978724
0.10554549 -0.015869331 0.28021276
0.10619783 -0.01588138 0.28042552
0.10672952 -0.015875356 0.28031915
0.1070979 -0.015845232 0.27978724
0.1074641 -0.015815109 0.27925533
0.1079516 -0.015803058 0.27904254
0.10856235 -0.015809083 0.27914894
0.10917354 -0.015815109 0.27925533
0.10978515 -0.015821133 0.2793617
-0.057538237 -0.015332413 0.28085107
-0.056986753 -0.015338222 0.28095746
-0.056413468 -0.015338222 0.28095746
-0.055840183 -0.015338222 0.28095746
-0.055245969 -0.015332413 0.28085107
-0.054693613 -0.015338222 0.28095746
-0.054161314 -0.015349836 0.28117022
-0.053607866 -0.015355643 0.28127658
-0.053033933 -0.015355643 0.28127658
-0.052400477 -0.015338222 0.28095746
-0.051729068 -0.015309181 0.28042552
-0.05104043 -0.015274336 0.27978724
-0.050392773 -0.015251104 0.2793617
-0.049765825 -0.015233681 0.27904254
0.10207614 -0.01529176 0.2801064
0.10241377 -0.015256912 0.27946809
0.10286641 -0.015239489 0.27914894
0.103436 -0.015239489 0.27914894
0.10408486 -0.015251104 0.2793617
0.1047346 -0.015262719 0.27957445
0.10542528 -0.015280142 0.27989361
0.10603668 -0.015285951 0.28
0.1065675 -0.015280142 0.27989361
0.10697573 -0.015256912 0.27946809
0.10742316 -0.015239489 0.27914894
0.10791045 -0.015227874 0.27893618
0.10852097 -0.015233681 0.27904254
0.10913195 -0.015239489 0.27914894
0.10978515 -0.015251104 0.2793617
-0.057538237 -0.014759346 0.28085107
-0.056986753 -0.014764937 0.28095746
-0.056413468 -0.014764937 0.28095746
-0.055819038 -0.014759346 0.28085107
-0.05520412 -0.014748164 0.28063831
-0.054631487 -0.014748164 0.28063831
-0.054099835 -0.014759346 0.28085107
-0.053567316 -0.014770526 0.28106382
-0.052993815 -0.014770526 0.28106382
-0.052360792 -0.014753754 0.28074467
-0.051709447 -0.014731392 0.28031915
-0.05104043 -0.01470344 0.27978724
-0.050392773 -0.014681076 0.2793617
-0.049803775 -0.014675486 0.27925533
0.10192106 -0.014697848 0.27968085
0.10229681 -0.014669895 0.27914894
0.10278801 -0.014658714 0.27893618
0.10339658 -0.014664304 0.27904254
0.10404523 -0.014675486 0.27925533
0.10469475 -0.014686667 0.27946809
0.10530506 -0.014692257 0.27957445
0.10587552 -0.014692257 0.27957445
0.10640549 -0.014686667 0.27946809
0.10685357 -0.014669895 0.27914894
0.10730034 -0.014653123 0.27882978
0.10782814 -0.014647533 0.27872342
0.10843823 -0.014653123 0.27882978
0.10909035 -0.014664304 0.27904254
0.10978515 -0.014681076 0.2793617
0.1103972 -0.014686667 0.27946809
-0.057560038 -0.014191653 0.28095746
-0.057008326 -0.014197025 0.28106382
-0.056456186 -0.014202399 0.28117022
-0.055840183 -0.014191653 0.28095746
-0.05520412 -0.014175531 0.28063831
-0.054610774 -0.014170158 0.28053191
-0.054058854 -0.014175531 0.28063831
-0.05350649 -0.014180904 0.28074467
-0.052933641 -0.014180904 0.28074467
-0.05232111 -0.014170158 0.28053191
-0.051670201 -0.014148664 0.2801064
-0.05104043 -0.014132543 0.27978724
-0.050431151 -0.014121795 0.27957445
-0.049841717 -0.014116422 0.27946809
0.10180476 -0.014111048 0.2793617
0.10225783 -0.014094926 0.27904254
0.1027488 -0.01408418 0.27882978
0.10331775 -0.01408418 0.27882978
0.10396596 -0.014094926 0.27904254
0.10457519 -0.014100301 0.27914894
0.10518486 -0.014105675 0.27925533
0.10575467 -0.014105675 0.27925533
0.10628397 -0.014100301 0.27914894
0.10677212 -0.014089555 0.27893618
0.10721847 -0.014073433 0.27861702
0.10774582 -0.014068059 0.27851063
0.10835548 -0.014073433 0.27861702
0.10904877 -0.014089555 0.27893618
0.10970154 -0.014100301 0.27914894
0.11031316 -0.014105675 0.27925533
-0.057625417 -0.013633837 0.28127658
-0.05707306 -0.013638994 0.28138298
-0.056498908 -0.013638994 0.28138298
-0.055861324 -0.013623524 0.28106382
-0.055225041 -0.013608054 0.28074467
-0.054590061 -0.013592585 0.28042552
-0.053997375 -0.013587429 0.28031915
-0.053425394 -0.013587429 0.28031915
-0.052833352 -0.013582272 0.28021276
-0.05224175 -0.013577117 0.2801064
-0.051650573 -0.013571959 0.28
-0.051059835 -0.013566802 0.27989361
-0.050469536 -0.013561646 0.27978724
-0.049898639 -0.013561646 0.27978724
0.10188229 -0.013551332 0.27957445
0.10237478 -0.01354102 0.2793617
0.10282721 -0.01352555 0.27904254
0.10331775 -0.013515237 0.27882978
0.10384706 -0.013510082 0.27872342
0.10437593 -0.013504924 0.27861702
0.10502458 -0.013515237 0.27882978
0.10563381 -0.013520394 0.27893618
0.10620297 -0.013520394 0.27893618
0.10669069 -0.013510082 0.27872342
0.10717753 -0.013499768 0.27851063
0.10770467 -0.013494612 0.27840427
0.10835548 -0.013504924 0.27861702
0.10900717 -0.013515237 0.27882978
0.10961793 -0.013520394 0.27893618
0.11018708 -0.013520394 0.27893618
-0.05766901 -0.013069781 0.28148937
-0.057116214 -0.01307472 0.28159574
-0.056520272 -0.013069781 0.28148937
-0.055882469 -0.013054962 0.28117022
-0.055225041 -0.013035204 0.28074467
-0.054548644 -0.013010507 0.28021276
-0.053935897 -0.013000629 0.28
-0.053324018 -0.01299075 0.27978724
-0.05273306 -0.01298581 0.27968085
-0.052162379 -0.01298581 0.27968085
-0.051611327 -0.01299075 0.27978724
-0.051079243 -0.013000629 0.28
-0.050507914 -0.013000629 0.28
0.10234751 -0.013040144 0.28085107
0.10272565 -0.013015447 0.28031915
0.10306242 -0.01298581 0.27968085
0.10339658 -0.012956173 0.27904254
0.10380742 -0.012936416 0.27861702
0.10425636 -0.012921597 0.27829787
0.1048643 -0.012926538 0.27840427
0.10547265 -0.012931475 0.27851063
0.10612196 -0.012941356 0.27872342
0.10664996 -0.012936416 0.27861702
0.10717753 -0.012931475 0.27851063
0.10770467 -0.012926538 0.27840427
0.10835548 -0.012936416 0.27861702
0.10892399 -0.012936416 0.27861702
0.10940889 -0.012926538 0.27840427
0.10993494 -0.012921597 0.27829787
-0.057712596 -0.012504856 0.28170213
-0.057116214 -0.012500133 0.28159574
-0.056498908 -0.012490689 0.28138298
-0.055840183 -0.0124718 0.28095746
-0.055183191 -0.01245291 0.28053191
-0.054507226 -0.012429298 0.28
-0.053874418 -0.012415131 0.27968085
-0.053263191 -0.012405686 0.27946809
-0.052672885 -0.012400963 0.2793617
-0.052142538 -0.012410408 0.27957445
-0.051630948 -0.012424575 0.27989361
-0.051118057 -0.012438742 0.28021276
-0.050565485 -0.012443465 0.28031915
0.1021985 -0.012519023 0.28202128
0.10261888 -0.012500133 0.28159574
0.10295957 -0.0124718 0.28095746
0.10325843 -0.012438742 0.28021276
0.10355426 -0.012405686 0.27946809
0.10388669 -0.012377352 0.27882978
0.10429622 -0.012358462 0.27840427
0.10482422 -0.01235374 0.27829787
0.10539208 -0.01235374 0.27829787
0.10600045 -0.012358462 0.27840427
0.10656852 -0.012358462 0.27840427
0.10713659 -0.012358462 0.27840427
0.10770467 -0.012358462 0.27840427
0.10827275 -0.012358462 0.27840427
0.10879923 -0.01235374 0.27829787
0.10919986 -0.012334851 0.27787235
0.10959875 -0.012315961 0.27744681
-0.057712596 -0.011930052 0.28170213
-0.057094641 -0.011921042 0.28148937
-0.056456186 -0.011907526 0.28117022
-0.055797894 -0.011889504 0.28074467
-0.055141337 -0.011871483 0.28031915
-0.054486517 -0.011853461 0.27989361
-0.053853925 -0.011839946 0.27957445
-0.053242914 -0.011830935 0.2793617
-0.052692946 -0.011835441 0.27946809
-0.052182224 -0.011848957 0.27978724
-0.051689822 -0.011866977 0.28021276
-0.051156871 -0.011875988 0.28042552
-0.050603863 -0.011880494 0.28053191
0.10223705 -0.011948073 0.28212765
0.10261888 -0.011925546 0.28159574
0.10292058 -0.01189401 0.28085107
0.10325843 -0.011866977 0.28021276
0.1036331 -0.011844452 0.27968085
0.1040056 -0.011821925 0.27914894
0.10441578 -0.011803905 0.27872342
0.10482422 -0.011785883 0.27829787
0.10531151 -0.011776872 0.27808511
0.10587893 -0.011776872 0.27808511
0.10644636 -0.011776872 0.27808511
0.10705471 -0.011781377 0.27819148
0.10762235 -0.011781377 0.27819148
0.10814863 -0.011776872 0.27808511
0.10859127 -0.011763356 0.27776596
0.10894901 -0.01174083 0.27723405
0.1093466 -0.011722808 0.2768085
-0.057647213 -0.011342384 0.28138298
-0.05705148 -0.011338095 0.28127658
-0.056434825 -0.011329519 0.28106382
-0.055776753 -0.011312366 0.28063831
-0.055120409 -0.011295212 0.28021276
-0.054465812 -0.01127806 0.27978724
-0.053853925 -0.011269483 0.27957445
-0.053303741 -0.011273772 0.27968085
-0.052773174 -0.011282348 0.27989361
-0.052281428 -0.011299501 0.28031915
-0.051768322 -0.011312366 0.28063831
-0.051234499 -0.011320943 0.28085107
-0.050661433 -0.011320943 0.28085107
0.10212141 -0.011359537 0.28180853
0.10242505 -0.011329519 0.28106382
0.10268667 -0.011295212 0.28021276
0.10302322 -0.011269483 0.27957445
0.10347543 -0.011256619 0.27925533
0.10396596 -0.011248042 0.27904254
0.10441578 -0.011235178 0.27872342
0.10482422 -0.011218024 0.27829787
0.10523093 -0.011200872 0.27787235
0.10571691 -0.011192295 0.27765957
0.10628346 -0.011192295 0.27765957
0.10689096 -0.011196584 0.27776596
0.10745773 -0.011196584 0.27776596
0.10794176 -0.011188008 0.2775532
0.10838333 -0.011175143 0.27723405
0.10878178 -0.01115799 0.2768085
0.10917851 -0.011140836 0.27638298
-0.057560038 -0.010751947 0.28095746
-0.056986753 -0.010751947 0.28095746
-0.056370743 -0.010743803 0.28074467
-0.055734459 -0.01073159 0.28042552
-0.055078559 -0.010715306 0.28
-0.054445099 -0.010703092 0.27968085
-0.053874418 -0.010703092 0.27968085
-0.053344291 -0.010711234 0.27989361
-0.052853413 -0.01072752 0.28031915
-0.052340955 -0.010739733 0.28063831
-0.051827192 -0.010751947 0.28095746
-0.051273312 -0.010756018 0.28106382
-0.050699811 -0.010756018 0.28106382
0.10196719 -0.010768231 0.28138298
0.10226998 -0.010739733 0.28063831
0.10249174 -0.010703092 0.27968085
0.10282721 -0.010678665 0.27904254
0.10327833 -0.010666452 0.27872342
0.10376777 -0.010658309 0.27851063
0.10425636 -0.010650167 0.27829787
0.10466395 -0.010633883 0.27787235
0.10511007 -0.01062167 0.2775532
0.10555489 -0.010609455 0.27723405
0.10612058 -0.010609455 0.27723405
0.10668626 -0.010609455 0.27723405
0.10725196 -0.010609455 0.27723405
0.1077349 -0.010601314 0.27702129
0.10817538 -0.0105891 0.27670214
0.10861456 -0.010576886 0.27638298
0.10913648 -0.010572815 0.27627659
-0.058045272 -0.010163246 0.28053191
-0.057494652 -0.0101671 0.28063831
-0.056922019 -0.0101671 0.28063831
-0.05630666 -0.010159391 0.28042552
-0.055671036 -0.01014783 0.2801064
-0.055036705 -0.010136267 0.27978724
-0.054403681 -0.010124705 0.27946809
-0.053853925 -0.010128559 0.27957445
-0.053344291 -0.010140121 0.27989361
-0.052873466 -0.010159391 0.28042552
-0.052380633 -0.010174808 0.28085107
-0.051846813 -0.010182516 0.28106382
-0.051292721 -0.01018637 0.28117022
-0.050738189 -0.010190224 0.28127658
0.062242273 -0.011323328 0.3125532
0.062858619 -0.011319473 0.3124468
0.10185155 -0.010182516 0.28106382
0.10215367 -0.010155538 0.28031915
0.10241377 -0.010124705 0.27946809
0.1027488 -0.01010158 0.27882978
0.10316008 -0.010086164 0.27840427
0.10360923 -0.010074602 0.27808511
0.1040571 -0.010063039 0.27776596
0.10446358 -0.010047622 0.27734041
0.10486834 -0.010032207 0.27691489
0.10535237 -0.010024499 0.27670214
0.10587624 -0.010020644 0.27659574
0.10644063 -0.010020644 0.27659574
0.10700502 -0.010020644 0.27659574
0.10752802 -0.01001679 0.27648935
0.10805061 -0.010012936 0.27638298
0.10857274 -0.010009082 0.27627659
-0.057979234 -0.0095799183 0.28021276
-0.057407469 -0.0095799183 0.28021276
-0.056835704 -0.0095799183 0.28021276
-0.056242581 -0.0095762825 0.2801064
-0.055607602 -0.0095653711 0.27978724
-0.054952998 -0.009550822 0.2793617
-0.054362264 -0.0095471861 0.27925533
-0.053833436 -0.0095544597 0.27946809
-0.053344291 -0.009569007 0.27989361
-0.052873466 -0.009587192 0.28042552
-0.052380633 -0.0096017411 0.28085107
-0.051846813 -0.0096090147 0.28106382
-0.051292721 -0.0096126525 0.28117022
-0.050738189 -0.0096162884 0.28127658
0.062136348 -0.010667389 0.31202129
0.062730208 -0.010660114 0.3118085
0.1021149 -0.0095799183 0.28021276
0.10253073 -0.0095653711 0.27978724
0.10286641 -0.0095435483 0.27914894
0.10319948 -0.0095217265 0.27851063
0.10360923 -0.0095071783 0.27808511
0.10393754 -0.0094853565 0.27744681
0.10430331 -0.0094671715 0.27691489
0.1046669 -0.0094489865 0.27638298
0.10510934 -0.0094380751 0.27606383
0.10563192 -0.0094344374 0.27595744
0.106195 -0.0094344374 0.27595744
0.10679924 -0.0094380751 0.27606383
0.10740391 -0.0094417119 0.27617022
0.10800901 -0.0094453488 0.27627659
0.10857274 -0.0094453488 0.27627659
-0.05789119 -0.0089944741 0.27978724
-0.057342082 -0.0089978939 0.27989361
-0.056770969 -0.0089978939 0.27989361
-0.056178499 -0.0089944741 0.27978724
-0.055544171 -0.0089842146 0.27946809
-0.054911148 -0.0089739542 0.27914894
-0.054320842 -0.0089705344 0.27904254
-0.053833436 -0.0089842146 0.27946809
-0.053344291 -0.0089978939 0.27989361
-0.052873466 -0.0090149939 0.28042552
-0.052340955 -0.0090218345 0.28063831
-0.051807567 -0.0090286741 0.28085107
-0.051253907 -0.0090320939 0.28095746
-0.050699811 -0.0090355137 0.28106382
0.061988045 -0.01000678 0.31127658
0.062623195 -0.01000678 0.31127658
0.1026087 -0.0090013137 0.28
0.10298402 -0.0089842146 0.27946809
0.10331775 -0.0089636948 0.27882978
0.10364886 -0.008943174 0.27819148
0.10393754 -0.0089192353 0.27744681
0.10422317 -0.0088952957 0.27670214
0.10454604 -0.0088747758 0.27606383
0.10494733 -0.0088610966 0.27563831
0.10546903 -0.0088576758 0.27553192
0.10607219 -0.0088610966 0.27563831
0.10675808 -0.0088713551 0.27595744
0.10740391 -0.0088781966 0.27617022
0.10800901 -0.0088816155 0.27627659
-0.05778113 -0.0084075639 0.27925533
-0.05723311 -0.0084107658 0.2793617
-0.056706235 -0.0084171714 0.27957445
-0.056114417 -0.0084139695 0.27946809
-0.055501886 -0.0084075639 0.27925533
-0.054890215 -0.0084011573 0.27904254
-0.054341551 -0.0084043602 0.27914894
-0.053833436 -0.0084139695 0.27946809
-0.053344291 -0.0084267799 0.27989361
-0.052853413 -0.0084395921 0.28031915
-0.052301265 -0.0084427949 0.28042552
-0.051748693 -0.0084459977 0.28053191
-0.05117628 -0.0084459977 0.28053191
-0.050623056 -0.0084492005 0.28063831
0.061903309 -0.0093588186 0.31085107
0.062537588 -0.0093588186 0.31085107
0.10264768 -0.0084331864 0.2801064
0.10306242 -0.0084203742 0.27968085
0.10339658 -0.0084011573 0.27904254
0.10372815 -0.0083819404 0.27840427
0.1039774 -0.0083563179 0.2775532
0.10426323 -0.0083338963 0.2768085
0.10454604 -0.0083114766 0.27606383
0.10494733 -0.0082986653 0.27563831
0.10546903 -0.0082954625 0.27553192
0.10615406 -0.0083050709 0.27585107
0.1068404 -0.0083146803 0.27617022
0.10752802 -0.0083242878 0.27648935
0.10813379 -0.0083274916 0.27659574
-0.057693079 -0.0078258086 0.27882978
-0.057145935 -0.0078287954 0.27893618
-0.056641508 -0.0078377528 0.27925533
-0.056071699 -0.0078377528 0.27925533
-0.055480741 -0.0078347661 0.27914894
-0.054890215 -0.0078317802 0.27904254
-0.054362264 -0.0078377528 0.27925533
-0.053853925 -0.0078467093 0.27957445
-0.053344291 -0.0078556668 0.27989361
-0.052793235 -0.0078586526 0.28
-0.052221905 -0.0078586526 0.28
-0.051650573 -0.0078586526 0.28
-0.051079243 -0.0078586526 0.28
-0.050507914 -0.0078586526 0.28
0.061248057 -0.0087215519 0.31074467
0.06188212 -0.0087215519 0.31074467
0.062516183 -0.0087215519 0.31074467
0.10256971 -0.0078556668 0.27989361
0.10302322 -0.0078467093 0.27957445
0.10335717 -0.0078287954 0.27893618
0.10368851 -0.00781088 0.27829787
0.10393754 -0.0077869934 0.27744681
0.10422317 -0.0077660931 0.27670214
0.10454604 -0.0077481777 0.27606383
0.10502833 -0.0077422066 0.27585107
0.1055912 -0.0077422066 0.27585107
0.10627688 -0.007751164 0.27617022
0.10696386 -0.0077601206 0.27648935
0.10761078 -0.0077660931 0.27670214
0.10817538 -0.0077660931 0.27670214
-0.057649057 -0.0072513288 0.27861702
-0.057124138 -0.007256866 0.27882978
-0.056598347 -0.0072624031 0.27904254
-0.056071699 -0.0072679413 0.27925533
-0.055501886 -0.0072679413 0.27925533
-0.054932076 -0.0072679413 0.27925533
-0.054382969 -0.0072707096 0.2793617
-0.053853925 -0.0072762468 0.27957445
-0.053303741 -0.0072790161 0.27968085
-0.05273306 -0.0072790161 0.27968085
-0.052142538 -0.0072762468 0.27957445
-0.051572077 -0.0072762468 0.27957445
-0.050982211 -0.0072734784 0.27946809
-0.050431151 -0.0072762468 0.27957445
0.061310962 -0.0080957944 0.31106383
0.061966866 -0.0080985632 0.31117022
0.062601797 -0.0080985632 0.31117022
0.10237478 -0.0072707096 0.2793617
0.10290562 -0.0072679413 0.27925533
0.10327833 -0.0072540976 0.27872342
0.10360923 -0.0072374851 0.27808511
0.10385783 -0.007215335 0.27723405
0.10414302 -0.0071959533 0.27648935
0.10454604 -0.0071848789 0.27606383
0.10502833 -0.0071793417 0.27585107
0.10567264 -0.0071848789 0.27606383
0.10635876 -0.0071931849 0.27638298
0.10700502 -0.0071987226 0.27659574
0.10761078 -0.0072014914 0.27670214
0.10821696 -0.0072042597 0.2768085
-0.057693079 -0.0066879229 0.27882978
-0.057145935 -0.0066904752 0.27893618
-0.056641508 -0.0066981302 0.27925533
-0.056093056 -0.0067006815 0.2793617
-0.055523027 -0.0067006815 0.2793617
-0.054952998 -0.0067006815 0.2793617
-0.054403681 -0.0067032333 0.27946809
-0.053853925 -0.0067057847 0.27957445
-0.05328346 -0.0067057847 0.27957445
-0.052692946 -0.0067032333 0.27946809
-0.052083019 -0.0066981302 0.27925533
-0.051513206 -0.0066981302 0.27925533
-0.050943397 -0.0066981302 0.27925533
-0.050392773 -0.0067006815 0.2793617
0.061499678 -0.0074840439 0.31202129
0.062178716 -0.0074891471 0.31223404
0.062858619 -0.0074942503 0.3124468
0.10210189 -0.0066828202 0.27861702
0.1026312 -0.0066802679 0.27851063
0.10312065 -0.0066751647 0.27829787
0.10352997 -0.0066649583 0.27787235
0.10381798 -0.0066470965 0.27712765
0.10410295 -0.0066292351 0.27638298
0.10446547 -0.0066164765 0.27585107
0.10494733 -0.0066113733 0.27563831
0.1055912 -0.0066164765 0.27585107
0.10623594 -0.0066215796 0.27606383
0.10692271 -0.0066292351 0.27638298
0.10752802 -0.006631786 0.27648935
0.10813379 -0.0066343383 0.27659574
-0.057759117 -0.0061259842 0.27914894
-0.057211321 -0.0061283191 0.27925533
-0.056684662 -0.0061329878 0.27946809
-0.056114417 -0.0061329878 0.27946809
-0.055544171 -0.0061329878 0.27946809
-0.054952998 -0.006130653 0.2793617
-0.054403681 -0.0061329878 0.27946809
-0.053833436 -0.0061329878 0.27946809
-0.053242914 -0.006130653 0.2793617
-0.052652828 -0.0061283191 0.27925533
-0.052063175 -0.0061259842 0.27914894
-0.051493581 -0.0061259842 0.27914894
-0.050943397 -0.0061283191 0.27925533
-0.050392773 -0.006130653 0.2793617
0.061772265 -0.0068777245 0.31340426
0.062475313 -0.0068847286 0.31372342
0.063179657 -0.0068917316 0.31404254
0.10179001 -0.0060956343 0.27776596
0.10235678 -0.0060956343 0.27776596
0.10292356 -0.0060956343 0.27776596
0.10345069 -0.0060932995 0.27765957
0.10389768 -0.0060862955 0.27734041
0.10422317 -0.0060722884 0.27670214
0.10450575 -0.006055946 0.27595744
0.10490682 -0.0060466081 0.27553192
0.10542831 -0.0060442733 0.27542552
0.10603125 -0.0060466081 0.27553192
0.10671693 -0.0060536116 0.27585107
0.10736254 -0.0060582808 0.27606383
0.10796743 -0.0060606156 0.27617022
-0.05778113 -0.005558508 0.27925533
-0.057254907 -0.0055627427 0.27946809
-0.056727815 -0.0055669774 0.27968085
-0.056135774 -0.0055648601 0.27957445
-0.055544171 -0.0055627427 0.27946809
-0.054932076 -0.005558508 0.27925533
-0.054362264 -0.005558508 0.27925533
-0.053792451 -0.005558508 0.27925533
-0.053222641 -0.005558508 0.27925533
-0.052632771 -0.0055563902 0.27914894
-0.052043334 -0.0055542723 0.27904254
-0.051493581 -0.0055563902 0.27914894
-0.050923988 -0.0055563902 0.27914894
0.061940011 -0.0062551741 0.31425533
0.062665977 -0.006263644 0.31468084
0.063393682 -0.0062721143 0.31510639
0.10167305 -0.0055225096 0.27744681
0.10212157 -0.005516157 0.27712765
0.10268704 -0.005516157 0.27712765
0.10337142 -0.0055225096 0.27744681
0.1039774 -0.0055246274 0.2775532
0.10442352 -0.0055182748 0.27723405
0.1046669 -0.0055013346 0.27638298
0.10494733 -0.0054865121 0.27563831
0.10534687 -0.0054780417 0.27521276
0.10590843 -0.0054780417 0.27521276
0.1065523 -0.0054822764 0.27542552
0.10723842 -0.005488629 0.27574468
0.10784266 -0.0054907468 0.27585107
-0.057693079 -0.0049810945 0.27882978
-0.05723311 -0.0049905968 0.2793617
-0.056706235 -0.0049943975 0.27957445
-0.056135774 -0.0049943975 0.27957445
-0.055523027 -0.0049905968 0.2793617
-0.054911148 -0.0049867961 0.27914894
-0.054320842 -0.0049848952 0.27904254
-0.053751465 -0.0049848952 0.27904254
-0.053182088 -0.0049848952 0.27904254
-0.052612711 -0.0049848952 0.27904254
-0.052023496 -0.0049829953 0.27893618
-0.051454335 -0.0049829953 0.27893618
-0.050904579 -0.0049848952 0.27904254
0.061960973 -0.0056158467 0.31436169
0.062687166 -0.0056234486 0.31478724
0.101829 -0.0049639908 0.27787235
0.10200396 -0.0049449857 0.2768085
0.10248994 -0.004941185 0.27659574
0.10325251 -0.0049506873 0.27712765
0.1040571 -0.0049620899 0.27776596
0.10458379 -0.0049601896 0.27765957
0.10490864 -0.0049487869 0.27702129
0.10510934 -0.0049316827 0.27606383
0.10542831 -0.0049202801 0.27542552
0.10590843 -0.0049164793 0.27521276
0.10651115 -0.0049183797 0.27531916
0.10715567 -0.0049221804 0.27553192
0.10775948 -0.0049240813 0.27563831
-0.058039736 -0.0043953178 0.27776596
-0.057538997 -0.0044003683 0.27808511
-0.057124138 -0.0044121519 0.27882978
-0.056641508 -0.0044188853 0.27925533
-0.056093056 -0.0044205687 0.2793617
-0.055480741 -0.004417202 0.27914894
-0.054869294 -0.0044138352 0.27893618
-0.054279424 -0.0044121519 0.27882978
-0.053730976 -0.0044138352 0.27893618
-0.053182088 -0.0044155186 0.27904254
-0.052612711 -0.0044155186 0.27904254
-0.052023496 -0.0044138352 0.27893618
-0.051434707 -0.0044121519 0.27882978
-0.050865766 -0.0044121519 0.27882978
0.061856132 -0.0049659852 0.31382978
0.062560052 -0.0049710353 0.31414893
0.1022312 -0.0044390857 0.28053191
0.1020629 -0.0044071013 0.27851063
0.10200396 -0.0043801675 0.2768085
0.10233227 -0.0043700673 0.27617022
0.10309397 -0.0043784841 0.27670214
0.10393754 -0.0043902677 0.27744681
0.10454373 -0.0043919515 0.2775532
0.10494892 -0.0043852176 0.27712765
0.10523085 -0.004373434 0.27638298
0.10555048 -0.0043633333 0.27574468
0.10599031 -0.0043582832 0.27542552
0.1065523 -0.0043582832 0.27542552
0.10719705 -0.0043616504 0.27563831
0.10775948 -0.0043616504 0.27563831
-0.057861902 -0.0038168153 0.27691489
-0.057384912 -0.0038226803 0.27734041
-0.056993365 -0.0038344108 0.27819148
-0.056555193 -0.0038432088 0.27882978
-0.056050334 -0.0038476079 0.27914894
-0.055480741 -0.0038476079 0.27914894
-0.054869294 -0.0038446754 0.27893618
-0.054279424 -0.0038432088 0.27882978
-0.053730976 -0.0038446754 0.27893618
-0.053182088 -0.0038461415 0.27904254
-0.052612711 -0.0038461415 0.27904254
-0.052003652 -0.0038432088 0.27882978
-0.05141509 -0.0038417429 0.27872342
-0.050826952 -0.0038402763 0.27861702
0.061772265 -0.0043197609 0.31340426
0.062390566 -0.0043182946 0.31329787
0.10273518 -0.003885732 0.28191489
0.1023358 -0.0038490742 0.27925533
0.10212157 -0.0038197478 0.27712765
0.10233227 -0.0038065512 0.27617022
0.10297506 -0.0038094837 0.27638298
0.10369841 -0.0038153487 0.2768085
0.10434338 -0.0038182817 0.27702129
0.10478777 -0.0038138828 0.27670214
0.10519034 -0.0038080174 0.27627659
0.1055912 -0.0038021524 0.27585107
0.10611312 -0.0038006858 0.27574468
0.10667577 -0.0038006858 0.27574468
0.10723842 -0.0038006858 0.27574468
0.10780106 -0.0038006858 0.27574468
-0.057750758 -0.0032455334 0.27638298
-0.057274852 -0.0032505305 0.2768085
-0.05690619 -0.0032617736 0.27776596
-0.056512039 -0.0032717676 0.27861702
