# .PCD v0.7 - Point Cloud Data file format
VERSION 0.7
FIELDS x y z
SIZE 4 4 4
TYPE F F F
COUNT 1 1 1
WIDTH 1375
HEIGHT 1
VIEWPOINT 0 0 0 1 0 0 0
POINTS 1375
DATA ascii
0.10501265 0.03849373 0.26861703
-0.12999861 0.044438064 0.30574468
-0.12941982 0.044453528 0.30585107
-0.12884058 0.044468988 0.30595744
-0.059067883 0.039180949 0.26957446
-0.058540963 0.039196413 0.26968086
-0.05803648 0.039227337 0.26989362
-0.05753113 0.03925826 0.27010638
-0.057069801 0.039320111 0.27053192
-0.056584504 0.039366499 0.27085108
-0.056053888 0.039381959 0.27095744
-0.055501051 0.039381959 0.27095744
-0.054926641 0.039366499 0.27085108
-0.054374021 0.039366499 0.27085108
-0.053842537 0.039381959 0.27095744
-0.053352468 0.039428346 0.27127659
-0.052819684 0.03944381 0.27138299
-0.052265979 0.03944381 0.27138299
-0.051671728 0.039412878 0.2711702
-0.051098403 0.039397422 0.27106383
0.058956239 0.043927815 0.30223405
0.059551921 0.043912351 0.30212766
0.060147166 0.043896887 0.30202127
0.099961177 0.038995408 0.26829788
0.10046873 0.038979944 0.26819149
0.10101593 0.038979944 0.26819149
0.10156312 0.038979944 0.26819149
0.10215082 0.038995408 0.26829788
0.10277967 0.039026331 0.26851064
0.10340939 0.039057255 0.2687234
0.10399883 0.039072718 0.26882979
0.10458869 0.039088175 0.26893616
0.10509583 0.039072718 0.26882979
-0.12995337 0.045046195 0.30563828
-0.12941982 0.045077559 0.30585107
-0.12888539 0.045108914 0.30606383
-0.059044577 0.03971529 0.2694681
-0.05851787 0.039730966 0.26957446
-0.058013603 0.039762322 0.26978722
-0.057508476 0.039793685 0.27000001
-0.057024918 0.039840724 0.27031916
-0.056517828 0.03987208 0.27053192
-0.056009874 0.03990344 0.27074468
-0.055435676 0.039887756 0.27063829
-0.054861922 0.03987208 0.27053192
-0.054309949 0.03987208 0.27053192
-0.053779118 0.039887756 0.27063829
-0.053268779 0.039919119 0.27085108
-0.052757569 0.039950475 0.27106383
-0.052204512 0.039950475 0.27106383
-0.051610917 0.039919119 0.27085108
-0.051018182 0.039887756 0.27063829
0.058852479 0.044466071 0.30170214
0.059468046 0.044466071 0.30170214
0.060083613 0.044466071 0.30170214
0.099961177 0.03954282 0.26829788
0.10050859 0.03954282 0.26829788
0.10101593 0.039527137 0.26819149
0.10156312 0.039527137 0.26819149
0.10215082 0.03954282 0.26829788
0.10277967 0.039574176 0.26851064
0.10340939 0.039605532 0.2687234
0.10403997 0.039636891 0.26893616
0.10458869 0.039636891 0.26893616
0.10513741 0.039636891 0.26893616
-0.13048607 0.045638002 0.30542552
-0.12995337 0.045669794 0.30563828
-0.12941982 0.045701589 0.30585107
-0.12888539 0.045733381 0.30606383
-0.059594378 0.040265091 0.2694681
-0.059044577 0.040265091 0.2694681
-0.05851787 0.040280983 0.26957446
-0.058013603 0.040312774 0.26978722
-0.057508476 0.04034457 0.27000001
-0.057002474 0.040376361 0.27021277
-0.056495603 0.040408153 0.27042553
-0.055965859 0.040424049 0.27053192
-0.055413891 0.040424049 0.27053192
-0.054840345 0.040408153 0.27042553
-0.054267239 0.040392257 0.27031916
-0.053736839 0.040408153 0.27042553
-0.053226929 0.040439945 0.27063829
-0.05273686 0.040487632 0.27095744
-0.052184023 0.040487632 0.27095744
-0.051610917 0.04047174 0.27085108
-0.051038239 0.040455841 0.27074468
0.058852479 0.045081638 0.30170214
0.059468046 0.045081638 0.30170214
0.060083613 0.045081638 0.30170214
0.10000081 0.040106125 0.26840425
0.10054843 0.040106125 0.26840425
0.10105599 0.040090229 0.26829788
0.10160341 0.040090229 0.26829788
0.10215082 0.040090229 0.26829788
0.10277967 0.040122021 0.26851064
0.10340939 0.040153813 0.2687234
0.10399883 0.040169712 0.26882979
0.10458869 0.040185604 0.26893616
0.10513741 0.040185604 0.26893616
-0.13066788 0.04632562 0.30585107
-0.12999861 0.046309508 0.30574468
-0.12946482 0.046341732 0.30595744
-0.12897497 0.046390072 0.30627659
-0.059617899 0.040831 0.26957446
-0.059067883 0.040831 0.26957446
-0.058540963 0.040847115 0.26968086
-0.058013603 0.040863223 0.26978722
-0.057508476 0.040895455 0.27000001
-0.057002474 0.040927678 0.27021277
-0.056473382 0.040943794 0.27031916
-0.055921845 0.040943794 0.27031916
-0.055392098 0.040959906 0.27042553
-0.054840345 0.040959906 0.27042553
-0.054267239 0.040943794 0.27031916
-0.053736839 0.040959906 0.27042553
-0.053226929 0.04099213 0.27063829
-0.05273686 0.041040469 0.27095744
-0.052224997 0.041072696 0.2711702
-0.051692002 0.041088812 0.27127659
-0.051138513 0.041088812 0.27127659
0.058277983 0.045729432 0.3019149
0.058893982 0.045729432 0.3019149
0.059530947 0.04574554 0.30202127
0.060147166 0.04574554 0.30202127
0.10058829 0.040669866 0.26851064
0.10109606 0.04065375 0.26840425
0.10160341 0.040637642 0.26829788
0.10215082 0.040637642 0.26829788
0.10277967 0.040669866 0.26851064
0.10340939 0.040702093 0.2687234
0.10399883 0.040718209 0.26882979
0.10454733 0.040718209 0.26882979
0.10509583 0.040718209 0.26882979
-0.13084967 0.047014974 0.30627659
-0.13022478 0.047014974 0.30627659
-0.1296449 0.047031306 0.30638298
-0.12910937 0.047063965 0.30659574
-0.059664954 0.041413676 0.26978722
-0.059114501 0.041413676 0.26978722
-0.058564052 0.041413676 0.26978722
-0.05803648 0.041430008 0.26989362
-0.057508476 0.041446339 0.27000001
-0.056980029 0.041462667 0.27010638
-0.056428928 0.041462667 0.27010638
-0.055921845 0.041495331 0.27031916
-0.055370308 0.041495331 0.27031916
-0.054840345 0.041511659 0.27042553
-0.054267239 0.041495331 0.27031916
-0.053736839 0.041511659 0.27042553
-0.053226929 0.041544318 0.27063829
-0.052757569 0.041609641 0.27106383
-0.052265979 0.041658632 0.27138299
-0.051752817 0.041691292 0.27159575
-0.051198676 0.041691292 0.27159575
0.058380656 0.046427082 0.30244681
0.058997743 0.046427082 0.30244681
0.05961483 0.046427082 0.30244681
0.060231913 0.046427082 0.30244681
0.10054843 0.041201379 0.26840425
0.10105599 0.041185051 0.26829788
0.10156312 0.04116872 0.26819149
0.10211031 0.04116872 0.26819149
0.10273895 0.041201379 0.26840425
0.10332752 0.041217711 0.26851064
0.10391653 0.041234046 0.26861703
0.10442321 0.041217711 0.26851064
0.10497105 0.041217711 0.26851064
-0.13170291 0.047722608 0.3068085
-0.13107692 0.047722608 0.3068085
-0.13040571 0.047706064 0.30670214
-0.12982495 0.047722608 0.3068085
-0.12924378 0.047739159 0.3069149
-0.059688482 0.041980673 0.26989362
-0.059137814 0.041980673 0.26989362
-0.058610242 0.041997224 0.27000001
-0.058059361 0.041997224 0.27000001
-0.057508476 0.041997224 0.27000001
-0.056957591 0.041997224 0.27000001
-0.056406707 0.041997224 0.27000001
-0.055899836 0.042030316 0.27021277
-0.055370308 0.042046867 0.27031916
-0.054840345 0.042063411 0.27042553
-0.054267239 0.042046867 0.27031916
-0.053715702 0.042046867 0.27031916
-0.053206012 0.042079959 0.27053192
-0.052716158 0.042129602 0.27085108
-0.052204512 0.042162694 0.27106383
-0.051692002 0.04219579 0.27127659
-0.051138513 0.04219579 0.27127659
0.058483329 0.047126904 0.30297872
0.059080746 0.047110356 0.30287233
0.059656765 0.047077261 0.30265957
0.060253095 0.047060713 0.30255318
0.10038903 0.041682821 0.26797873
0.10093579 0.041682821 0.26797873
0.10148255 0.041682821 0.26797873
0.10202931 0.041682821 0.26797873
0.10261678 0.041699365 0.26808509
0.10316376 0.041699365 0.26808509
0.10371073 0.041699365 0.26808509
0.10421635 0.041682821 0.26797873
0.10476311 0.041682821 0.26797873
-0.13174859 0.048365362 0.3069149
-0.13112238 0.048365362 0.3069149
-0.13049617 0.048365362 0.3069149
-0.12986997 0.048365362 0.3069149
-0.12924378 0.048365362 0.3069149
-0.059712011 0.042548109 0.27000001
-0.059184436 0.042564869 0.27010638
-0.058656428 0.042581636 0.27021277
-0.058105111 0.042581636 0.27021277
-0.057508476 0.042548109 0.27000001
-0.056935146 0.042531341 0.26989362
-0.056384478 0.042531341 0.26989362
-0.055877827 0.042564869 0.27010638
-0.055348516 0.042581636 0.27021277
-0.054818776 0.0425984 0.27031916
-0.054267239 0.0425984 0.27031916
-0.053694561 0.042581636 0.27021277
-0.053143244 0.042581636 0.27021277
-0.052633334 0.042615164 0.27042553
-0.052081581 0.042615164 0.27042553
-0.051529828 0.042615164 0.27042553
-0.050958026 0.0425984 0.27031916
0.058544934 0.04779537 0.30329788
0.059122257 0.047761843 0.30308512
0.059656765 0.047694784 0.30265957
0.060210727 0.047644489 0.30234042
0.10011006 0.042112231 0.26723406
0.10073544 0.042145759 0.26744682
0.10136168 0.042179286 0.26765957
0.1019888 0.042212814 0.26787233
0.10253534 0.042212814 0.26787233
0.10300002 0.042179286 0.26765957
0.10350496 0.042162523 0.26755318
0.10396811 0.042128995 0.26734042
0.10451357 0.042128995 0.26734042
-0.13165724 0.048957601 0.30670214
-0.13103148 0.048957601 0.30670214
-0.13036047 0.048940618 0.30659574
-0.1296899 0.048923634 0.30648935
-0.12901978 0.048906654 0.30638298
-0.059735537 0.04311597 0.27010638
-0.059207745 0.043132953 0.27021277
-0.058679525 0.043149937 0.27031916
-0.058127988 0.043149937 0.27031916
-0.05753113 0.04311597 0.27010638
-0.056935146 0.04308201 0.26989362
-0.056362253 0.043065026 0.26978722
-0.055855822 0.04309899 0.27000001
-0.055348516 0.043132953 0.27021277
-0.054818776 0.043149937 0.27031916
-0.054245882 0.043132953 0.27021277
-0.05367342 0.04311597 0.27010638
-0.053101398 0.04309899 0.27000001
-0.052550513 0.04309899 0.27000001
-0.05195865 0.043065026 0.26978722
-0.05134739 0.043014083 0.2694681
-0.050777536 0.042997103 0.2693617
0.0585244 0.048397209 0.30319148
0.059080746 0.048346266 0.30287233
0.059593856 0.048261359 0.30234042
0.060147166 0.048210412 0.30202127
0.099870943 0.042555582 0.26659575
0.10057516 0.042623509 0.26702127
0.10128111 0.042691436 0.26744682
0.10194831 0.042742379 0.26776597
0.10249463 0.042742379 0.26776597
0.10295907 0.042708416 0.26755318
0.10342266 0.042674452 0.26734042
0.10388537 0.042640492 0.26712766
0.1043888 0.042623509 0.26702127
-0.13138324 0.049480177 0.30606383
-0.13075878 0.049480177 0.30606383
-0.13008907 0.049462978 0.30595744
-0.1293748 0.049428582 0.30574468
-0.12870619 0.049411379 0.30563828
-0.059782594 0.043701474 0.27031916
-0.059254367 0.04371867 0.27042553
-0.058702614 0.04371867 0.27042553
-0.058150861 0.04371867 0.27042553
-0.057553791 0.04368427 0.27021277
-0.056935146 0.043632675 0.26989362
-0.056362253 0.043615475 0.26978722
-0.055833813 0.043632675 0.26989362
-0.055326723 0.043667071 0.27010638
-0.054797199 0.04368427 0.27021277
-0.054224521 0.043667071 0.27010638
-0.053652283 0.043649875 0.27000001
-0.053080473 0.043632675 0.26989362
-0.052509099 0.043615475 0.26978722
-0.051897191 0.043563884 0.2694681
-0.051286574 0.043512288 0.26914895
-0.050697315 0.043477885 0.26893616
0.058483329 0.048981421 0.30297872
0.05906 0.048947025 0.30276597
0.05957289 0.04886103 0.30223405
0.060125984 0.048809435 0.3019149
0.099247731 0.043065127 0.26638299
0.099791236 0.043065127 0.26638299
0.10049502 0.043133918 0.26680851
0.10128111 0.043237112 0.26744682
0.1019888 0.043305904 0.26787233
0.10257607 0.043323103 0.26797873
0.10304096 0.043288708 0.26776597
0.10350496 0.043254305 0.26755318
0.10396811 0.043219909 0.26734042
0.10447199 0.043202713 0.26723406
-0.13097224 0.049947899 0.30510637
-0.13034973 0.049947899 0.30510637
-0.12977245 0.049965318 0.30521277
-0.1291047 0.049947899 0.30510637
-0.12848219 0.049947899 0.30510637
-0.059782594 0.044253007 0.27031916
-0.059254367 0.044270419 0.27042553
-0.058702614 0.044270419 0.27042553
-0.058150861 0.044270419 0.27042553
-0.05753113 0.044218171 0.27010638
-0.056935146 0.044183344 0.26989362
-0.056362253 0.044165924 0.26978722
-0.0558118 0.044165924 0.26978722
-0.055283144 0.044183344 0.26989362
-0.054754052 0.044200759 0.27000001
-0.054203168 0.044200759 0.27000001
-0.053631142 0.044183344 0.26989362
-0.053080473 0.044183344 0.26989362
-0.052509099 0.044165924 0.26978722
-0.051897191 0.044113684 0.2694681
-0.051306844 0.044078849 0.26925531
-0.050717372 0.044044018 0.26904255
0.058483329 0.049599592 0.30297872
0.05906 0.04956476 0.30276597
0.059593856 0.049495097 0.30234042
0.060168356 0.049460266 0.30212766
0.099334918 0.043887276 0.26808509
0.099406272 0.043678291 0.26680851
0.099831082 0.043626044 0.26648936
0.10049502 0.043678291 0.26680851
0.10124082 0.04376537 0.26734042
0.1019888 0.043852445 0.26787233
0.10261678 0.043887276 0.26808509
0.10312283 0.043869864 0.26797873
0.10362843 0.043852445 0.26787233
0.10413361 0.043835033 0.26776597
0.10467993 0.043835033 0.26776597
-0.13042425 0.050358824 0.30382979
-0.12984979 0.050376456 0.30393618
-0.12932013 0.050411724 0.30414894
-0.1287896 0.050446987 0.3043617
-0.12821341 0.050464619 0.3044681
-0.059759066 0.044786908 0.27021277
-0.059207745 0.044786908 0.27021277
-0.058656428 0.044786908 0.27021277
-0.058105111 0.044786908 0.27021277
-0.057508476 0.044751644 0.27000001
-0.056912702 0.044716377 0.26978722
-0.056340031 0.044698745 0.26968086
-0.055789798 0.044698745 0.26968086
-0.055261351 0.044716377 0.26978722
-0.054710902 0.044716377 0.26978722
-0.05416045 0.044716377 0.26978722
-0.053631142 0.044734009 0.26989362
-0.053080473 0.044734009 0.26989362
-0.052529808 0.044734009 0.26989362
-0.051938165 0.044698745 0.26968086
-0.051367659 0.044681113 0.26957446
0.0585244 0.050253026 0.30319148
0.0591015 0.050217763 0.30297872
0.059656765 0.050164863 0.30265957
0.060231913 0.0501296 0.30244681
0.099532776 0.044769276 0.27010638
0.099532023 0.04452242 0.26861703
0.099564821 0.044293195 0.26723406
0.099910788 0.044205029 0.26670212
0.10053509 0.0442403 0.2669149
0.10124082 0.044310827 0.26734042
0.10194831 0.044381358 0.26776597
0.10257607 0.044416625 0.26797873
0.10312283 0.044416625 0.26797873
0.10366959 0.044416625 0.26797873
0.10421635 0.044416625 0.26797873
0.10476311 0.044416625 0.26797873
-0.17563704 0.047141049 0.28095746
-0.17539522 0.047230296 0.28148937
-0.1752173 0.04733739 0.28212765
-0.1747734 0.047373094 0.28234044
-0.17400043 0.047319543 0.28202128
-0.17290166 0.047176745 0.28117022
-0.17187156 0.047051795 0.28042552
-0.17116944 0.047016095 0.28021276
-0.17092156 0.047105346 0.28074467
-0.17086515 0.047248144 0.28159574
-0.17080528 0.047390942 0.2824468
-0.17054959 0.047480188 0.28297871
-0.17003612 0.04749804 0.28308511
-0.16907644 0.047390942 0.2824468
-0.16799244 0.047248144 0.28159574
-0.16716491 0.047176745 0.28117022
-0.16678034 0.047230296 0.28148937
-0.16658288 0.04733739 0.28212765
-0.16632023 0.047426637 0.28265956
-0.16580591 0.047444489 0.28276595
-0.16516681 0.047426637 0.28265956
-0.16428037 0.04733739 0.28212765
-0.16333437 0.047230296 0.28148937
-0.16257551 0.047176745 0.28117022
-0.16194053 0.047158893 0.28106382
-0.16142815 0.047176745 0.28117022
-0.16085449 0.047176745 0.28117022
-0.16015953 0.047141049 0.28095746
-0.13004498 0.049193762 0.29319149
-0.12939981 0.049175911 0.2930851
-0.12891723 0.050389688 0.30031914
-0.12884989 0.050603889 0.30159575
-0.128325 0.050639585 0.30180851
-0.12743913 0.050532486 0.3011702
-0.059641428 0.045248978 0.26968086
-0.059114501 0.045266826 0.26978722
-0.058564052 0.045266826 0.26978722
-0.058013603 0.045266826 0.26978722
-0.057440497 0.045248978 0.26968086
-0.056867819 0.045231126 0.26957446
-0.056295581 0.045213282 0.2694681
-0.055767786 0.045231126 0.26957446
-0.055217773 0.045231126 0.26957446
-0.054689329 0.045248978 0.26968086
-0.054139096 0.045248978 0.26968086
-0.053610001 0.045266826 0.26978722
-0.053059548 0.045266826 0.26978722
-0.052509099 0.045266826 0.26978722
-0.05195865 0.045266826 0.26978722
-0.051387932 0.045248978 0.26968086
0.058544934 0.050889485 0.30329788
0.059122257 0.050853785 0.30308512
0.059677735 0.050800234 0.30276597
0.060253095 0.050764531 0.30255318
0.099527456 0.045570273 0.27159575
0.099728778 0.045409624 0.27063829
0.099650264 0.045124028 0.26893616
0.099683717 0.044891983 0.26755318
0.099990502 0.044784889 0.2669149
0.10057516 0.044802733 0.26702127
0.10124082 0.044856284 0.26734042
0.1019078 0.044909835 0.26765957
0.10249463 0.044927686 0.26776597
0.10304096 0.044927686 0.26776597
0.10358728 0.044927686 0.26776597
0.10413361 0.044927686 0.26776597
0.10467993 0.044927686 0.26776597
-0.17607681 0.04767815 0.28074467
-0.17570353 0.047732353 0.28106382
-0.1754615 0.047822688 0.28159574
-0.1752173 0.047913019 0.28212765
-0.1747734 0.047949158 0.28234044
-0.17400043 0.047894955 0.28202128
-0.17296708 0.047768485 0.28127658
-0.17200199 0.04766009 0.28063831
-0.17129941 0.047623951 0.28042552
-0.17098634 0.047696222 0.28085107
-0.17086515 0.047822688 0.28159574
-0.17080528 0.047967222 0.2824468
-0.17054959 0.048057552 0.28297871
-0.16997221 0.048057552 0.28297871
-0.16907644 0.047967222 0.2824468
-0.16805591 0.047840755 0.28170213
-0.1672914 0.047786552 0.28138298
-0.16690639 0.047840755 0.28170213
-0.16664571 0.047931086 0.28223404
-0.16632023 0.048003353 0.28265956
-0.16580591 0.048021421 0.28276595
-0.16504249 0.047967222 0.2824468
-0.16421843 0.047894955 0.28202128
-0.16327263 0.047786552 0.28138298
-0.16245249 0.047714289 0.28095746
-0.16187926 0.047714289 0.28095746
-0.16136707 0.047732353 0.28106382
-0.16079362 0.047732353 0.28106382
-0.16022016 0.047732353 0.28106382
-0.15970713 0.047750421 0.28117022
-0.1593141 0.047804624 0.28148937
-0.15891974 0.047858823 0.28180853
-0.15828499 0.047840755 0.28170213
-0.15741244 0.047750421 0.28117022
-0.15642336 0.047623951 0.28042552
-0.15561472 0.047551688 0.28
-0.15510234 0.047569755 0.2801064
-0.15482429 0.04766009 0.28063831
-0.154661 0.047786552 0.28138298
-0.15437818 0.047876887 0.28191489
-0.15380298 0.047876887 0.28191489
-0.1529965 0.047804624 0.28148937
-0.15213415 0.047714289 0.28095746
-0.15150352 0.047696222 0.28085107
-0.15104483 0.047732353 0.28106382
-0.14682192 0.047479417 0.27957445
-0.1461402 0.047443286 0.2793617
-0.14562567 0.047461353 0.27946809
-0.14522111 0.047515552 0.27978724
-0.14476025 0.047551688 0.28
-0.14424376 0.047569755 0.2801064
-0.14356311 0.047533616 0.27989361
-0.14282899 0.047479417 0.27957445
-0.14215031 0.047443286 0.2793617
-0.14158033 0.047443286 0.2793617
-0.14106405 0.047461353 0.27946809
-0.12783468 0.047208417 0.27797872
-0.12971754 0.049213827 0.28978723
-0.12964772 0.049412563 0.29095745
-0.12933719 0.049520966 0.29159576
-0.1286483 0.049484827 0.29138297
-0.12758628 0.049304161 0.29031914
-0.12634243 0.049051225 0.28882977
-0.12699923 0.050243631 0.29585105
-0.1272137 0.050568834 0.29776597
-0.12665139 0.050586898 0.29787233
-0.12527838 0.050279766 0.29606384
-0.059570849 0.045745011 0.2693617
-0.059021264 0.045745011 0.2693617
-0.05849478 0.045763079 0.2694681
-0.05794498 0.045763079 0.2694681
-0.057372518 0.045745011 0.2693617
-0.056822937 0.045745011 0.2693617
-0.056273356 0.045745011 0.2693617
-0.055723771 0.045745011 0.2693617
-0.055195983 0.045763079 0.2694681
-0.054667756 0.045781143 0.26957446
-0.054139096 0.045799214 0.26968086
-0.053610001 0.045817275 0.26978722
-0.053059548 0.045817275 0.26978722
-0.052509099 0.045817275 0.26978722
-0.05195865 0.045817275 0.26978722
-0.051408198 0.045817275 0.26978722
0.058462791 0.051436037 0.30287233
0.059039246 0.051399905 0.30265957
0.059593856 0.051345702 0.30234042
0.060189545 0.051327638 0.30223405
0.099527456 0.046124414 0.27159575
0.099767983 0.04597988 0.27074468
0.099729113 0.04570888 0.26914895
0.099842265 0.045510143 0.26797873
0.10014991 0.045401741 0.26734042
0.10069536 0.045401741 0.26734042
0.10132139 0.045437876 0.26755318
0.10194831 0.045474011 0.26776597
0.10249463 0.045474011 0.26776597
0.10295907 0.045437876 0.26755318
0.10346381 0.045419812 0.26744682
0.10396811 0.045401741 0.26734042
0.10447199 0.045383677 0.26723406
-0.17678352 0.048287529 0.28095746
-0.17621027 0.048287529 0.28095746
-0.17577004 0.048324097 0.28117022
-0.1754615 0.048397228 0.28159574
-0.17515124 0.048470367 0.28202128
-0.17470753 0.048506934 0.28223404
-0.17400043 0.048470367 0.28202128
-0.17309792 0.048378948 0.28148937
-0.17213237 0.048269246 0.28085107
-0.17149436 0.048250958 0.28074467
-0.17111586 0.048305809 0.28106382
-0.17092972 0.048415516 0.28170213
-0.17074096 0.048525218 0.28234044
-0.17048548 0.048616637 0.28287235
-0.16990833 0.048616637 0.28287235
-0.16907644 0.048543502 0.2824468
-0.16818283 0.048452083 0.28191489
-0.16748115 0.048415516 0.28170213
-0.16709548 0.048470367 0.28202128
-0.16670851 0.048525218 0.28234044
-0.16632023 0.048580065 0.28265956
-0.16568115 0.048561785 0.2825532
-0.16485599 0.048488647 0.28212765
-0.16397063 0.048397228 0.28159574
-0.16308746 0.048305809 0.28106382
-0.16239098 0.048269246 0.28085107
-0.16175665 0.048250958 0.28074467
-0.16130601 0.048287529 0.28095746
-0.16085449 0.048324097 0.28117022
-0.16034144 0.048342377 0.28127658
-0.15988842 0.048378948 0.28148937
-0.15949473 0.048433799 0.28180853
-0.15903972 0.048470367 0.28202128
-0.15828499 0.048415516 0.28170213
-0.15741244 0.048324097 0.28117022
-0.15648271 0.048214391 0.28053191
-0.15573296 0.04815954 0.28021276
-0.15522015 0.048177827 0.28031915
-0.15500036 0.048287529 0.28095746
-0.15477794 0.048397228 0.28159574
-0.15437818 0.048452083 0.28191489
-0.15374495 0.048433799 0.28180853
-0.15293868 0.048360664 0.28138298
-0.15213415 0.048287529 0.28095746
-0.15150352 0.048269246 0.28085107
-0.15110201 0.048324097 0.28117022
-0.1506992 0.048378948 0.28148937
-0.15023834 0.048415516 0.28170213
-0.14949402 0.048360664 0.28138298
-0.1485258 0.048232678 0.28063831
-0.14761668 0.048122972 0.28
-0.14682192 0.048049837 0.27957445
-0.1461402 0.04801327 0.2793617
-0.14568108 0.048049837 0.27957445
-0.14527632 0.048104689 0.27989361
-0.14481527 0.04814126 0.2801064
-0.14429852 0.04815954 0.28021276
-0.14361767 0.048122972 0.28
-0.14288335 0.048068121 0.27968085
-0.14225857 0.048049837 0.27957445
-0.14168815 0.048049837 0.27957445
-0.14117144 0.048068121 0.27968085
-0.14076124 0.048122972 0.28
-0.14034975 0.048177827 0.28031915
-0.13977781 0.048177827 0.28031915
-0.13899454 0.048104689 0.27989361
-0.13816041 0.04801327 0.2793617
-0.13769521 0.048049837 0.27957445
-0.13754222 0.048196107 0.28042552
-0.13743773 0.048360664 0.28138298
-0.13717408 0.048470367 0.28202128
-0.13665019 0.048488647 0.28212765
-0.13597195 0.048452083 0.28191489
-0.13529457 0.048415516 0.28170213
-0.13461806 0.048378948 0.28148937
-0.13399307 0.048360664 0.28138298
-0.1334694 0.048378948 0.28148937
-0.13304576 0.048433799 0.28180853
-0.13247079 0.048433799 0.28180853
-0.13174643 0.048378948 0.28148937
-0.13082507 0.048250958 0.28074467
-0.12970935 0.048049837 0.27957445
-0.1288441 0.047940139 0.27893618
-0.12812822 0.047885284 0.27861702
-0.12765716 0.047921851 0.27882978
-0.12747616 0.048068121 0.27968085
-0.12762959 0.048342377 0.28127658
-0.12796873 0.048689771 0.28329787
-0.12858666 0.049146868 0.28595746
-0.12876514 0.049439408 0.28765959
-0.12855744 0.049585681 0.28851065
-0.12801598 0.049603961 0.28861701
-0.12723924 0.049530827 0.2881915
-0.12632397 0.049402837 0.2874468
-0.1252256 0.049201719 0.28627661
-0.12427098 0.04905545 0.28542554
-0.12414962 0.049238287 0.28648937
-0.1246663 0.0496771 0.28904256
-0.12508123 0.050079338 0.29138297
-0.12507756 0.050317027 0.29276595
-0.12452547 0.050335314 0.29287234
-0.12329769 0.050079338 0.29138297
-0.12162802 0.049640529 0.28882977
-0.11974585 0.049110297 0.28574467
-0.11823118 0.048726339 0.28351063
-0.11782933 0.048799474 0.28393617
-0.11768931 0.048982311 0.285
-0.11715154 0.049000598 0.28510639
-0.060167916 0.04633116 0.26957446
-0.059570849 0.046294592 0.2693617
-0.058997951 0.046276309 0.26925531
-0.058448587 0.046276309 0.26925531
-0.057899222 0.046276309 0.26925531
-0.057349857 0.046276309 0.26925531
-0.056800492 0.046276309 0.26925531
-0.056251127 0.046276309 0.26925531
-0.055723771 0.046294592 0.2693617
-0.055195983 0.04631288 0.2694681
-0.054667756 0.04633116 0.26957446
-0.05416045 0.046367727 0.26978722
-0.053610001 0.046367727 0.26978722
-0.053059548 0.046367727 0.26978722
-0.052509099 0.046367727 0.26978722
-0.051979139 0.046386011 0.26989362
-0.051509563 0.04645915 0.27031916
0.058216378 0.051834587 0.30159575
0.058810972 0.0518163 0.30148935
0.059405141 0.05179802 0.30138299
0.059998866 0.051779736 0.30127659
0.099683389 0.046751685 0.27202126
0.099846385 0.046568848 0.27095744
0.099886782 0.04633116 0.26957446
0.10004044 0.046148323 0.26851064
0.10038903 0.046056904 0.26797873
0.10089571 0.04603862 0.26787233
0.10148255 0.046056904 0.26797873
0.10202931 0.046056904 0.26797873
0.10253534 0.04603862 0.26787233
0.10291814 0.045965485 0.26744682
0.10334035 0.045910634 0.26712766
0.10380263 0.045874067 0.2669149
0.10430562 0.045855783 0.26680851
-0.17691739 0.048897773 0.28117022
-0.17634371 0.048897773 0.28117022
-0.17583653 0.048916269 0.28127658
-0.1754615 0.048971772 0.28159574
-0.17508517 0.049027275 0.28191489
-0.17464168 0.049064275 0.28212765
-0.17400043 0.049045779 0.28202128
-0.17316332 0.048971772 0.28159574
-0.17232798 0.048897773 0.28117022
-0.17168932 0.04887927 0.28106382
-0.1712454 0.048916269 0.28127658
-0.17092972 0.048990276 0.28170213
-0.17067662 0.049082778 0.28223404
-0.17029312 0.049138281 0.2825532
-0.16971663 0.049138281 0.2825532
-0.16901277 0.049101282 0.28234044
-0.16824631 0.049045779 0.28202128
-0.16760765 0.049027275 0.28191489
-0.16709548 0.049045779 0.28202128
-0.16664571 0.049082778 0.28223404
-0.16613245 0.049101282 0.28234044
-0.16536926 0.049045779 0.28202128
-0.16460735 0.048990276 0.28170213
-0.1637848 0.048916269 0.28127658
-0.16302574 0.04886077 0.28095746
-0.16239098 0.04884227 0.28085107
-0.16187926 0.04886077 0.28095746
-0.16142815 0.048897773 0.28117022
-0.1609762 0.048934773 0.28138298
-0.16058403 0.048990276 0.28170213
-0.16019055 0.049045779 0.28202128
-0.15979576 0.049101282 0.28234044
-0.1592197 0.049101282 0.28234044
-0.15840453 0.049027275 0.28191489
-0.15741244 0.048897773 0.28117022
-0.15648271 0.048786767 0.28053191
-0.1558512 0.048768263 0.28042552
-0.15545577 0.048823766 0.28074467
-0.15517642 0.048916269 0.28127658
-0.1548949 0.049008779 0.28180853
-0.15437818 0.049027275 0.28191489
-0.1536869 0.048990276 0.28170213
-0.15288085 0.048916269 0.28127658
-0.15219174 0.04887927 0.28106382
-0.15161829 0.04887927 0.28106382
-0.15121634 0.048934773 0.28138298
-0.15075614 0.048971772 0.28159574
-0.15023834 0.048990276 0.28170213
-0.14949402 0.048934773 0.28138298
-0.1485258 0.048805267 0.28063831
-0.14761668 0.04869426 0.28
-0.14676607 0.048601758 0.27946809
-0.1461402 0.048583254 0.2793617
-0.14568108 0.048620254 0.27957445
-0.14533155 0.04869426 0.28
-0.14498025 0.048768263 0.28042552
-0.14440809 0.048768263 0.28042552
-0.14378138 0.048749764 0.28031915
-0.14304639 0.04869426 0.28
-0.14242096 0.048675757 0.27989361
-0.14190382 0.04869426 0.28
-0.14143991 0.048731264 0.28021276
-0.14102864 0.048786767 0.28053191
-0.14061606 0.04884227 0.28085107
-0.13993695 0.048805267 0.28063831
-0.13910021 0.048712764 0.2801064
-0.13831826 0.048638757 0.27968085
-0.1378524 0.048675757 0.27989361
-0.1375944 0.048786767 0.28053191
-0.13743773 0.048934773 0.28138298
-0.13712233 0.049027275 0.28191489
-0.13654715 0.049027275 0.28191489
-0.13592064 0.049008779 0.28180853
-0.13519238 0.048953276 0.28148937
-0.1345163 0.048916269 0.28127658
-0.13394241 0.048916269 0.28127658
-0.13341896 0.048934773 0.28138298
-0.13299553 0.048990276 0.28170213
-0.13247079 0.049008779 0.28180853
-0.13174643 0.048953276 0.28148937
-0.13092424 0.04886077 0.28095746
-0.13005485 0.048749764 0.28031915
-0.12928635 0.048675757 0.27989361
-0.12866636 0.048657261 0.27978724
-0.1281442 0.048675757 0.27989361
-0.1277671 0.048749764 0.28031915
-0.12767787 0.048934773 0.28138298
-0.12782457 0.049212284 0.28297871
-0.12796478 0.0494898 0.28457448
-0.12786035 0.049674809 0.2856383
-0.12737237 0.049711809 0.28585106
-0.12664758 0.049656305 0.28553191
-0.12583016 0.049563803 0.285
-0.12501492 0.049471296 0.28446808
-0.12424838 0.049397297 0.28404257
-0.12357619 0.04936029 0.28382978
-0.1232276 0.049452793 0.28436169
-0.12319802 0.049674809 0.2856383
-0.1232089 0.049915317 0.28702128
-0.12303232 0.050081823 0.28797871
-0.12244476 0.050081823 0.28797871
-0.12149708 0.049933821 0.28712767
-0.12019447 0.049637806 0.28542554
-0.11885422 0.049323291 0.28361702
-0.11796501 0.049193785 0.28287235
-0.1175203 0.049249288 0.2831915
-0.11729395 0.049397297 0.28404257
-0.11675812 0.049415793 0.28414893
-0.11596089 0.049323291 0.28361702
-0.11490615 0.049119778 0.2824468
-0.11385618 0.048916269 0.28127658
-0.11315376 0.04886077 0.28095746
-0.11249526 0.048823766 0.28074467
-0.11175282 0.048749764 0.28031915
-0.11092771 0.048638757 0.27968085
-0.11018917 0.048564758 0.27925533
-0.10957764 0.048546255 0.27914894
-0.10913271 0.048601758 0.27946809
-0.10872781 0.048675757 0.27989361
-0.10832118 0.048749764 0.28031915
-0.10787192 0.048805267 0.28063831
-0.10742135 0.04886077 0.28095746
-0.10684811 0.04886077 0.28095746
-0.10623462 0.04884227 0.28085107
-0.10558156 0.048805267 0.28063831
-0.10496916 0.048786767 0.28053191
-0.10435719 0.048768263 0.28042552
-0.060981508 0.047084685 0.27074468
-0.060262896 0.046955183 0.27000001
-0.059594378 0.046862677 0.2694681
-0.059021264 0.046844177 0.2693617
-0.058448587 0.046825673 0.26925531
-0.057899222 0.046825673 0.26925531
-0.057372518 0.046844177 0.2693617
-0.056822937 0.046844177 0.2693617
-0.056273356 0.046844177 0.2693617
-0.055723771 0.046844177 0.2693617
-0.055195983 0.046862677 0.2694681
-0.054689329 0.04689968 0.26968086
-0.05416045 0.046918176 0.26978722
-0.053610001 0.046918176 0.26978722
-0.053059548 0.046918176 0.26978722
-0.052529808 0.04693668 0.26989362
-0.052102074 0.047047686 0.27053192
-0.05173254 0.047214191 0.27148935
-0.051419273 0.047436204 0.27276596
0.057969954 0.052227922 0.30031914
0.058582701 0.052227922 0.30031914
0.059195444 0.052227922 0.30031914
0.059808191 0.052227922 0.30031914
0.09990374 0.047676716 0.27414894
0.0999173 0.0474177 0.27265957
0.1000032 0.047195692 0.27138299
0.10012329 0.046992183 0.27021277
0.10031789 0.046825673 0.26925531
0.10062815 0.046714671 0.26861703
0.10109606 0.046677668 0.26840425
0.10160341 0.046659168 0.26829788
0.10211031 0.046640664 0.26819149
0.10253534 0.046585161 0.26787233
0.1028772 0.046492659 0.26734042
0.10325804 0.046418656 0.2669149
0.10371988 0.046381652 0.26670212
0.10422245 0.046363153 0.26659575
-0.17698431 0.049490161 0.28127658
-0.17641042 0.049490161 0.28127658
-0.17590304 0.049508881 0.28138298
-0.17539522 0.0495276 0.28148937
-0.17495303 0.049565036 0.28170213
-0.17444414 0.049583755 0.28180853
-0.17380351 0.049565036 0.28170213
-0.17309792 0.0495276 0.28148937
-0.17245838 0.049508881 0.28138298
-0.17188428 0.049508881 0.28138298
-0.17137495 0.0495276 0.28148937
-0.17092972 0.049565036 0.28170213
-0.17048362 0.049602471 0.28191489
-0.17003664 0.049639907 0.28212765
-0.16946103 0.049639907 0.28212765
-0.16882172 0.049621191 0.28202128
-0.16818283 0.049602471 0.28191489
-0.16760765 0.049602471 0.28191489
-0.16709548 0.049621191 0.28202128
-0.16652007 0.049621191 0.28202128
-0.16588207 0.049602471 0.28191489
-0.16518211 0.049565036 0.28170213
-0.16435869 0.049490161 0.28127658
-0.16366091 0.049452726 0.28106382
-0.16308746 0.049452726 0.28106382
-0.16257551 0.049471445 0.28117022
-0.16212443 0.049508881 0.28138298
-0.16167246 0.049546316 0.28159574
-0.16121966 0.049583755 0.28180853
-0.16082659 0.049639907 0.28212765
-0.16043225 0.049696058 0.2824468
-0.15997638 0.049733493 0.28265956
-0.15927969 0.049696058 0.2824468
-0.15834476 0.049583755 0.28180853
-0.15741244 0.049471445 0.28117022
-0.15648271 0.049359139 0.28053191
-0.15591033 0.049359139 0.28053191
-0.15557361 0.049434014 0.28095746
-0.15529381 0.0495276 0.28148937
-0.1548949 0.049583755 0.28180853
-0.15431993 0.049583755 0.28180853
-0.15357083 0.0495276 0.28148937
-0.15282303 0.049471445 0.28117022
-0.15224937 0.049471445 0.28117022
-0.15179045 0.049508881 0.28138298
-0.15133068 0.049546316 0.28159574
-0.1508131 0.049565036 0.28170213
-0.15018159 0.049546316 0.28159574
-0.14943749 0.049490161 0.28127658
-0.1485258 0.049377859 0.28063831
-0.14761668 0.049265549 0.28
-0.14676607 0.049171958 0.27946809
-0.1461402 0.049153239 0.2793617
-0.14573653 0.049209394 0.27968085
-0.14549719 0.049321704 0.28031915
-0.14514525 0.049396571 0.28074467
-0.14462723 0.049415294 0.28085107
-0.14394508 0.049377859 0.28063831
-0.14326379 0.049340419 0.28042552
-0.14263751 0.049321704 0.28031915
-0.14211947 0.049340419 0.28042552
-0.1417084 0.049396571 0.28074467
-0.14129604 0.049452726 0.28106382
-0.14082912 0.049490161 0.28127658
-0.14014913 0.049452726 0.28106382
-0.13936436 0.049377859 0.28063831
-0.13858131 0.049302984 0.28021276
-0.13811438 0.049340419 0.28042552
-0.13780312 0.049434014 0.28095746
-0.13748969 0.0495276 0.28148937
-0.13701884 0.049565036 0.28170213
-0.13644409 0.049565036 0.28170213
-0.13576671 0.0495276 0.28148937
-0.13509019 0.049490161 0.28127658
-0.13446543 0.049471445 0.28117022
-0.1338411 0.049452726 0.28106382
-0.13331808 0.049471445 0.28117022
-0.13289508 0.0495276 0.28148937
-0.13237076 0.049546316 0.28159574
-0.13174643 0.0495276 0.28148937
-0.13107294 0.049490161 0.28127658
-0.13040034 0.049452726 0.28106382
-0.12977776 0.049434014 0.28095746
-0.12920451 0.049434014 0.28095746
-0.12858257 0.049415294 0.28085107
-0.12805803 0.049434014 0.28095746
-0.1277744 0.049546316 0.28159574
-0.12763236 0.049714778 0.2825532
-0.12748639 0.049883239 0.28351063
-0.12709843 0.049958114 0.28393617
-0.12642431 0.049920678 0.28372341
-0.12565666 0.049845804 0.28329787
-0.12484381 0.049752213 0.28276595
-0.12412662 0.049696058 0.2824468
-0.12345728 0.049658626 0.28223404
-0.12292776 0.049677346 0.28234044
-0.12253609 0.049752213 0.28276595
-0.12223446 0.049864523 0.28340426
-0.12193023 0.049976833 0.28404257
-0.12153249 0.0500517 0.28446808
-0.12099732 0.05007042 0.28457448
-0.12023664 0.049995545 0.28414893
-0.1192985 0.049845804 0.28329787
-0.11831925 0.049677346 0.28234044
-0.11752137 0.049583755 0.28180853
-0.11699053 0.049602471 0.28191489
-0.11659107 0.049677346 0.28234044
-0.11614613 0.049733493 0.28265956
-0.11548243 0.049696058 0.2824468
-0.11468975 0.049602471 0.28191489
-0.11389925 0.049508881 0.28138298
-0.1131966 0.049452726 0.28106382
-0.11258052 0.049434014 0.28095746
-0.11183763 0.049359139 0.28053191
-0.11101209 0.049246829 0.27989361
-0.11027312 0.049171958 0.27946809
-0.10966115 0.049153239 0.2793617
-0.1092158 0.049209394 0.27968085
-0.10876914 0.049265549 0.28
-0.10836228 0.049340419 0.28042552
-0.10787192 0.049377859 0.28063831
-0.10738067 0.049415294 0.28085107
-0.10680765 0.049415294 0.28085107
-0.10619438 0.049396571 0.28074467
-0.10558156 0.049377859 0.28063831
-0.10500897 0.049377859 0.28063831
-0.10439678 0.049359139 0.28053191
-0.10374567 0.049321704 0.28031915
-0.10301711 0.049246829 0.27989361
-0.10232922 0.049190674 0.27957445
-0.10179753 0.049209394 0.27968085
-0.1013424 0.049265549 0.28
-0.10092426 0.049340419 0.28042552
-0.10054246 0.049434014 0.28095746
-0.10012063 0.049508881 0.28138298
-0.099546514 0.049508881 0.28138298
-0.098897576 0.049471445 0.28117022
-0.098175086 0.049396571 0.28074467
-0.097565301 0.049377859 0.28063831
-0.097103015 0.049434014 0.28095746
-0.096749067 0.049546316 0.28159574
-0.096392527 0.049658626 0.28223404
-0.096033387 0.049770933 0.28287235
-0.095707528 0.049901959 0.28361702
-0.095414318 0.0500517 0.28446808
-0.095011242 0.050145291 0.285
-0.094570749 0.050220165 0.28542554
-0.093953356 0.050201446 0.28531915
-0.09326677 0.050145291 0.285
-0.092477702 0.050032981 0.28436169
-0.075324871 0.050201446 0.28531915
-0.061993301 0.047992732 0.27276596
-0.061149236 0.047768112 0.27148935
-0.060357869 0.047580935 0.27042553
-0.059664954 0.047468629 0.26978722
-0.059044577 0.047412477 0.2694681
-0.05849478 0.047412477 0.2694681
-0.05794498 0.047412477 0.2694681
-0.057417836 0.047431193 0.26957446
-0.056867819 0.047431193 0.26957446
-0.056317803 0.047431193 0.26957446
-0.055767786 0.047431193 0.26957446
-0.055217773 0.047431193 0.26957446
-0.054689329 0.047449913 0.26968086
-0.054139096 0.047449913 0.26968086
-0.053588863 0.047449913 0.26968086
-0.053038631 0.047449913 0.26968086
-0.052591924 0.0475435 0.27021277
-0.05224549 0.047730681 0.27127659
-0.052016344 0.048030168 0.27297872
-0.051800307 0.048348375 0.27478725
-0.051576886 0.048666574 0.27659574
0.057826214 0.052709643 0.29957446
0.058437437 0.052709643 0.29957446
0.059048664 0.052709643 0.29957446
0.059681077 0.052728362 0.29968086
0.10025264 0.048404522 0.27510637
0.10015121 0.048086319 0.27329788
0.10016 0.047824267 0.27180851
0.10028096 0.047618371 0.27063829
0.10051607 0.047468629 0.26978722
0.10078755 0.047337603 0.26904255
0.10117621 0.047262736 0.26861703
0.10160341 0.047206581 0.26829788
0.1020698 0.047169141 0.26808509
0.1024539 0.047094271 0.26765957
0.10283627 0.047019403 0.26723406
0.10325804 0.046963248 0.2669149
0.10376126 0.046944529 0.26680851
0.10426404 0.046925809 0.26670212
-0.17698431 0.050064053 0.28127658
-0.17641042 0.050064053 0.28127658
-0.17590304 0.050082989 0.28138298
-0.17539522 0.050101928 0.28148937
-0.17488696 0.05012086 0.28159574
-0.17431241 0.05012086 0.28159574
-0.17367224 0.050101928 0.28148937
-0.17303249 0.050082989 0.28138298
-0.17245838 0.050082989 0.28138298
-0.17194927 0.050101928 0.28148937
-0.17143969 0.05012086 0.28159574
-0.17092972 0.050139796 0.28170213
-0.17029062 0.05012086 0.28159574
-0.16971608 0.05012086 0.28159574
-0.16920543 0.050139796 0.28170213
-0.16863067 0.050139796 0.28170213
-0.16811939 0.050158732 0.28180853
-0.16760765 0.050177664 0.28191489
-0.16709548 0.050196603 0.28202128
-0.16652007 0.050196603 0.28202128
-0.16588207 0.050177664 0.28191489
-0.16511972 0.05012086 0.28159574
-0.16435869 0.050064053 0.28127658
-0.16372286 0.050045121 0.28117022
-0.1632109 0.050064053 0.28127658
-0.16282155 0.05012086 0.28159574
-0.16236961 0.050158732 0.28180853
-0.16191678 0.050196603 0.28202128
-0.16146308 0.050234471 0.28223404
-0.16100852 0.050272338 0.2824468
-0.1605531 0.050310209 0.28265956
-0.15997638 0.050310209 0.28265956
-0.15927969 0.050272338 0.2824468
-0.15828499 0.050139796 0.28170213
-0.15735286 0.050026186 0.28106382
-0.15648271 0.049931511 0.28053191
-0.15596947 0.049950447 0.28063831
-0.1556325 0.050026186 0.28106382
-0.15535249 0.05012086 0.28159574
-0.15483642 0.050139796 0.28170213
-0.1542034 0.05012086 0.28159574
-0.15345474 0.050064053 0.28127658
-0.15288085 0.050064053 0.28127658
-0.15236457 0.050082989 0.28138298
-0.15196262 0.050139796 0.28170213
-0.15150219 0.050177664 0.28191489
-0.15092701 0.050177664 0.28191489
-0.15023834 0.050139796 0.28170213
-0.14949402 0.050082989 0.28138298
-0.14858209 0.049969379 0.28074467
-0.14767279 0.049855772 0.2801064
-0.1468778 0.04978003 0.27968085
-0.1462515 0.049761094 0.27957445
-0.1458474 0.049817901 0.27989361
-0.1455524 0.049912572 0.28042552
-0.14520025 0.049988315 0.28085107
-0.1447368 0.050026186 0.28106382
-0.14416334 0.050026186 0.28106382
-0.14348118 0.049988315 0.28085107
-0.14285402 0.049969379 0.28074467
-0.14228122 0.049969379 0.28074467
-0.1418695 0.050026186 0.28106382
-0.14145648 0.050082989 0.28138298
-0.1409889 0.05012086 0.28159574
-0.14036132 0.050101928 0.28148937
-0.13957568 0.050026186 0.28106382
-0.13884437 0.049969379 0.28074467
-0.13832396 0.049988315 0.28085107
-0.13790748 0.050045121 0.28117022
-0.13748969 0.050101928 0.28148937
-0.13696711 0.05012086 0.28159574
-0.13634104 0.050101928 0.28148937
-0.1357154 0.050082989 0.28138298
-0.13509019 0.050064053 0.28127658
-0.13446543 0.050045121 0.28117022
-0.1338411 0.050026186 0.28106382
-0.13326763 0.050026186 0.28106382
-0.1327444 0.050045121 0.28117022
-0.13227074 0.050082989 0.28138298
-0.13169663 0.050082989 0.28138298
-0.13107294 0.050064053 0.28127658
-0.13054842 0.050082989 0.28138298
-0.12997431 0.050082989 0.28138298
-0.12944913 0.050101928 0.28148937
-0.12882608 0.050082989 0.28138298
-0.12820348 0.050064053 0.28127658
-0.1277744 0.05012086 0.28159574
-0.12744014 0.050215535 0.28212765
-0.12710369 0.050310209 0.28265956
-0.12657461 0.050329145 0.28276595
-0.12580806 0.050253406 0.28234044
-0.12504326 0.050177664 0.28191489
-0.12428018 0.050101928 0.28148937
-0.12361234 0.050064053 0.28127658
-0.12303846 0.050064053 0.28127658
-0.12251089 0.050082989 0.28138298
-0.12207508 0.050139796 0.28170213
-0.12163797 0.050196603 0.28202128
-0.12115389 0.050234471 0.28223404
-0.12066894 0.050272338 0.2824468
-0.1201379 0.050291277 0.2825532
-0.11947138 0.050253406 0.28234044
-0.11871611 0.050177664 0.28191489
-0.11791801 0.050082989 0.28138298
-0.11721081 0.050026186 0.28106382
-0.11663735 0.050026186 0.28106382
-0.11619569 0.050082989 0.28138298
-0.11575272 0.050139796 0.28170213
-0.11522146 0.050158732 0.28180853
-0.11455991 0.05012086 0.28159574
-0.11389925 0.050082989 0.28138298
-0.11328229 0.050064053 0.28127658
-0.11266577 0.050045121 0.28117022
-0.11192245 0.049969379 0.28074467
-0.11118087 0.049893644 0.28031915
-0.11044102 0.049817901 0.27989361
-0.1098282 0.049798969 0.27978724
-0.10929888 0.049817901 0.27989361
-0.10885179 0.049874704 0.28021276
-0.10836228 0.049912572 0.28042552
-0.10783102 0.049931511 0.28053191
-0.10729933 0.049950447 0.28063831
-0.10668628 0.049931511 0.28053191
-0.1061139 0.049931511 0.28053191
-0.10558156 0.049950447 0.28063831
-0.10500897 0.049950447 0.28063831
-0.10443638 0.049950447 0.28063831
-0.10378504 0.049912572 0.28042552
-0.10305627 0.049836837 0.28
-0.10240711 0.049798969 0.27978724
-0.10183625 0.049798969 0.27978724
-0.10138091 0.049855772 0.2801064
-0.10096255 0.049931511 0.28053191
-0.10054246 0.050007254 0.28095746
-0.10012063 0.050082989 0.28138298
-0.099546514 0.050082989 0.28138298
-0.098860152 0.050026186 0.28106382
-0.098137893 0.049950447 0.28063831
-0.097528316 0.049931511 0.28053191
-0.09702947 0.049969379 0.28074467
-0.096639417 0.050064053 0.28127658
-0.096210867 0.050139796 0.28170213
-0.095852807 0.050253406 0.28234044
-0.095492132 0.050367013 0.28297871
-0.095164545 0.050499562 0.28372341
-0.094762988 0.050594237 0.28425533
-0.094324008 0.050669972 0.28468084
-0.093708143 0.05065104 0.28457448
-0.093023077 0.050594237 0.28425533
-0.092270128 0.050499562 0.28372341
-0.091519341 0.050404888 0.2831915
-0.090770721 0.050310209 0.28265956
-0.090024278 0.050215535 0.28212765
-0.089347474 0.050158732 0.28180853
-0.088705465 0.05012086 0.28159574
-0.088097632 0.050101928 0.28148937
-0.087490223 0.050082989 0.28138298
-0.086916111 0.050082989 0.28138298
-0.086342007 0.050082989 0.28138298
-0.085800327 0.050101928 0.28148937
-0.085225999 0.050101928 0.28148937
-0.084683664 0.05012086 0.28159574
-0.08410912 0.05012086 0.28159574
-0.079905786 0.050007254 0.28095746
-0.079242423 0.049950447 0.28063831
-0.078580372 0.049893644 0.28031915
-0.078038029 0.049912572 0.28042552
-0.077583432 0.049988315 0.28085107
-0.077156261 0.050082989 0.28138298
-0.076640055 0.05012086 0.28159574
-0.076122992 0.050158732 0.28180853
-0.075804681 0.050329145 0.28276595
-0.075510778 0.050518494 0.28382978
-0.075128272 0.05065104 0.28457448
-0.074603386 0.050688911 0.28478724
-0.073939383 0.050632104 0.28446808
-0.073166937 0.050499562 0.28372341
-0.072424747 0.050385952 0.28308511
-0.071685165 0.050272338 0.2824468
-0.070948191 0.050158732 0.28180853
-0.063086525 0.048965827 0.27510637
-0.062235083 0.04873861 0.27382979
-0.061340924 0.048473518 0.27234042
-0.06047659 0.048227362 0.27095744
-0.059735537 0.048075885 0.27010638
-0.059091195 0.048000146 0.26968086
-0.05851787 0.04798121 0.26957446
-0.05799073 0.048000146 0.26968086
-0.05746315 0.048019078 0.26978722
-0.056912702 0.048019078 0.26978722
-0.056362253 0.048019078 0.26978722
-0.0558118 0.048019078 0.26978722
-0.055261351 0.048019078 0.26978722
-0.054710902 0.048019078 0.26978722
-0.054139096 0.048000146 0.26968086
-0.053567722 0.04798121 0.26957446
-0.053059548 0.048019078 0.26978722
-0.052674744 0.048170555 0.27063829
-0.052409396 0.048435647 0.27212766
-0.052239329 0.048795413 0.27414894
-0.052081063 0.049174111 0.27627659
-0.051795095 0.049439203 0.27776596
-0.051444191 0.049647488 0.27893618
-0.050991487 0.049761094 0.27957445
-0.050459445 0.049798969 0.27978724
0.057846751 0.053339805 0.29968086
0.058458194 0.053339805 0.29968086
0.059027694 0.053301934 0.29946807
0.059638701 0.053301934 0.29946807
0.10026816 0.048700739 0.27361703
0.1002384 0.048416711 0.27202126
0.10028096 0.048170555 0.27063829
0.10047644 0.048000146 0.26968086
0.1007477 0.047867596 0.26893616
0.10105599 0.04775399 0.26829788
0.10144226 0.047678247 0.26787233
0.1019078 0.04764038 0.26765957
0.10233174 0.047583573 0.26734042
0.10279533 0.047545705 0.26712766
0.10334035 0.047545705 0.26712766
0.10388537 0.047545705 0.26712766
0.10443039 0.047545705 0.26712766
-0.17698431 0.050637946 0.28127658
-0.17641042 0.050637946 0.28127658
-0.17590304 0.050657101 0.28138298
-0.17532893 0.050657101 0.28138298
-0.17475483 0.050657101 0.28138298
-0.17411485 0.050637946 0.28127658
-0.17347534 0.050618798 0.28117022
-0.17290166 0.050618798 0.28117022
-0.17245838 0.050657101 0.28138298
-0.17201424 0.050695404 0.28159574
-0.17150447 0.050714556 0.28170213
-0.17080061 0.050676253 0.28148937
-0.17016195 0.050657101 0.28138298
-0.16958784 0.050657101 0.28138298
-0.16901374 0.050657101 0.28138298
-0.16850331 0.050676253 0.28148937
-0.16805591 0.050714556 0.28170213
-0.16760765 0.05075286 0.28191489
-0.1671585 0.050791163 0.28212765
-0.16670851 0.05082947 0.28234044
-0.16613245 0.05082947 0.28234044
-0.16536926 0.050772015 0.28202128
-0.16454518 0.050695404 0.28159574
-0.16384675 0.050657101 0.28138298
-0.16333437 0.050676253 0.28148937
-0.16288307 0.050714556 0.28170213
-0.1624309 0.05075286 0.28191489
-0.16197784 0.050791163 0.28212765
-0.16146308 0.050810315 0.28223404
-0.16094789 0.05082947 0.28234044
-0.16043225 0.050848618 0.2824468
-0.15979576 0.05082947 0.28234044
-0.15909971 0.050791163 0.28212765
-0.15816544 0.050676253 0.28148937
-0.15723376 0.050561339 0.28085107
-0.15648271 0.050503884 0.28053191
-0.15602858 0.050542187 0.28074467
-0.15569142 0.050618798 0.28117022
-0.15535249 0.050695404 0.28159574
-0.15477794 0.050695404 0.28159574
-0.15414515 0.050676253 0.28148937
-0.15345474 0.050637946 0.28127658
-0.15288085 0.050637946 0.28127658
-0.15242217 0.050676253 0.28148937
-0.15202001 0.050733712 0.28180853
-0.15155937 0.050772015 0.28202128
-0.15098396 0.050772015 0.28202128
-0.15035181 0.05075286 0.28191489
-0.14960705 0.050695404 0.28159574
-0.14875101 0.050599642 0.28106382
-0.14789711 0.050503884 0.28053191
-0.14710128 0.050427277 0.2801064
-0.14647412 0.050408125 0.28
-0.14601369 0.050446428 0.28021276
-0.14566284 0.050523039 0.28063831
-0.14525527 0.050580494 0.28095746
-0.14479159 0.050618798 0.28117022
-0.14416334 0.050599642 0.28106382
-0.14353554 0.050580494 0.28095746
-0.14290816 0.050561339 0.28085107
-0.14233513 0.050561339 0.28085107
-0.1418695 0.050599642 0.28106382
-0.14145648 0.050657101 0.28138298
-0.1409889 0.050695404 0.28159574
-0.14036132 0.050676253 0.28148937
-0.1396285 0.050618798 0.28117022
-0.13900222 0.050599642 0.28106382
-0.13848116 0.050618798 0.28117022
-0.13801183 0.050657101 0.28138298
-0.13748969 0.050676253 0.28148937
-0.13691537 0.050676253 0.28148937
-0.13628951 0.050657101 0.28138298
-0.1357154 0.050657101 0.28138298
-0.13509019 0.050637946 0.28127658
-0.1345163 0.050637946 0.28127658
-0.1338411 0.050599642 0.28106382
-0.13326763 0.050599642 0.28106382
-0.13264395 0.050580494 0.28095746
-0.13207072 0.050580494 0.28095746
-0.13154726 0.050599642 0.28106382
-0.1309738 0.050599642 0.28106382
-0.1304497 0.050618798 0.28117022
-0.12997431 0.050657101 0.28138298
-0.12940019 0.050657101 0.28138298
-0.12882608 0.050657101 0.28138298
-0.12820348 0.050637946 0.28127658
-0.12772615 0.050676253 0.28148937
-0.12724793 0.050714556 0.28170213
-0.12676884 0.05075286 0.28191489
-0.12619364 0.05075286 0.28191489
-0.12547624 0.050695404 0.28159574
-0.12476013 0.050637946 0.28127658
-0.12404534 0.050580494 0.28095746
-0.12342534 0.050561339 0.28085107
-0.12285232 0.050561339 0.28085107
-0.12232562 0.050580494 0.28095746
-0.12184457 0.050618798 0.28117022
-0.12136266 0.050657101 0.28138298
-0.12083423 0.050676253 0.28148937
-0.12030534 0.050695404 0.28159574
-0.11977604 0.050714556 0.28170213
-0.11915626 0.050695404 0.28159574
-0.11844732 0.050637946 0.28127658
-0.11769511 0.050561339 0.28085107
-0.11698899 0.050503884 0.28053191
-0.11646076 0.050523039 0.28063831
-0.11601997 0.050580494 0.28095746
-0.11562157 0.050657101 0.28138298
