# .PCD v0.7 - Point Cloud Data file format
VERSION 0.7
FIELDS x y z
SIZE 4 4 4
TYPE F F F
COUNT 1 1 1
WIDTH 1381
HEIGHT 1
VIEWPOINT 0 0 0 1 0 0 0
POINTS 1381
DATA ascii
0.10440313 0.011826502 0.27572253
0.10429294 0.012205292 0.27517548
0.10431369 0.012304966 0.2749742
0.10433797 0.012381159 0.27489632
0.10435928 0.012357974 0.27488467
0.10437942 0.012347705 0.27483502
0.10441709 0.012370709 0.27473003
0.10444736 0.012349358 0.274692
0.10448913 0.012334696 0.27467012
0.10451186 0.012335177 0.2746602
0.10454384 0.012305954 0.27464452
0.10457694 0.012294034 0.27463543
0.104619 0.012229813 0.27462715
0.10467456 0.012170473 0.27462173
0.10474768 0.012068011 0.27461407
0.10483003 0.011979162 0.27463117
0.10494446 0.011800416 0.27463296
-0.1308953 0.011051863 0.31341866
-0.130565 0.010918606 0.31335437
-0.13015585 0.010935188 0.3133482
-0.12960343 0.010986199 0.31327993
-0.12914692 0.011122179 0.31316927
-0.055088434 0.012676946 0.27598527
-0.054986399 0.012702258 0.2759673
-0.054878797 0.012788722 0.27592567
-0.054778125 0.012866865 0.27588031
-0.054718178 0.012869006 0.27587363
-0.054685716 0.01279775 0.27592096
-0.05464834 0.012749118 0.275949
-0.054623216 0.012728935 0.2759549
-0.054588899 0.012692093 0.27596933
-0.054533508 0.012672214 0.27597007
-0.054482453 0.01263129 0.27597383
-0.054433897 0.012600549 0.27600944
-0.054378871 0.012603884 0.2760087
-0.054328538 0.01264267 0.27599898
-0.054279219 0.012653504 0.27598721
0.025474666 0.01227075 0.30978838
0.026283683 0.012311826 0.30979827
0.032495443 0.012503259 0.30954552
0.033117797 0.012519207 0.30955204
0.033669084 0.012524547 0.30956465
0.034404811 0.01252651 0.30961522
0.035006218 0.012527632 0.30966333
0.035727181 0.01253054 0.30973569
0.036257528 0.012540092 0.30976194
0.036924414 0.012566968 0.30979073
0.037459768 0.012580246 0.30979994
0.038164098 0.012605306 0.30979079
0.038808849 0.012636334 0.309778
0.03945091 0.012667302 0.30977106
0.040091343 0.012698406 0.30977491
0.0406674 0.012718731 0.30978748
0.041237511 0.012738416 0.30979684
0.041746929 0.012764116 0.30979186
0.042307112 0.012777705 0.30976844
0.042867128 0.012795034 0.30974749
0.043483082 0.012809257 0.30974218
0.044047181 0.012827768 0.3097508
0.044662777 0.012838897 0.30976313
0.045327585 0.012863523 0.30976763
0.045977641 0.012880428 0.30977091
0.046609789 0.012902976 0.30977994
0.047526531 0.012897584 0.30981788
0.048507839 0.012866039 0.30988744
0.049517013 0.012811008 0.30995426
0.050478213 0.012770168 0.31002602
0.051324613 0.01272825 0.31007177
0.052017797 0.012728835 0.31009379
0.05266026 0.012772008 0.31007972
0.053381827 0.012828644 0.31002861
0.054100949 0.012878187 0.30996102
0.05488218 0.012958662 0.30988407
0.055645544 0.013047989 0.30984315
0.056327801 0.013076911 0.3098456
0.056955207 0.013082167 0.30985224
0.057421543 0.013109063 0.3098484
0.057867404 0.013077985 0.30985203
0.05844298 0.013039836 0.30986354
0.058997057 0.012991807 0.30989772
0.059506889 0.012929616 0.30992466
0.059943222 0.012888673 0.30993125
0.060243972 0.01286516 0.30992714
0.060495723 0.01289959 0.30990174
0.06079109 0.012906021 0.30989617
0.06108734 0.012907727 0.30988711
0.061383449 0.012910648 0.30987981
0.061735965 0.012922783 0.30986366
0.062004343 0.012921952 0.30984432
0.062271588 0.01289695 0.30983695
0.062573396 0.012959083 0.30979282
0.062945753 0.013004651 0.30975565
0.06337209 0.01313785 0.30970734
0.063891396 0.013143747 0.30970678
0.064385578 0.01318558 0.30970249
0.064885885 0.01321537 0.3096956
0.06535612 0.013274994 0.3096543
0.065826841 0.013335337 0.30958694
0.066381007 0.013422615 0.3094902
0.067274541 0.013389495 0.30939943
0.068230987 0.013355154 0.30935347
0.069168232 0.013308972 0.30937985
0.069692269 0.013336615 0.30940926
0.07011161 0.013353593 0.30944166
0.070734523 0.013378047 0.30949271
0.071754359 0.013413923 0.3095381
0.072808325 0.013445312 0.30952546
0.073727943 0.013498343 0.30949134
0.074540347 0.013535171 0.30942667
0.075431138 0.013559311 0.309342
0.076133862 0.013588308 0.30925044
0.076913275 0.013608254 0.30916983
0.077717036 0.01362078 0.30910745
0.078615323 0.01364898 0.30903935
0.079329506 0.013656225 0.30897409
0.080109105 0.013690859 0.30890244
0.080830157 0.013715488 0.30883941
0.081627116 0.013725248 0.3087672
0.082366735 0.013738737 0.30872741
0.082768261 0.013728799 0.30870867
0.083443247 0.013759183 0.30872026
0.083986454 0.01378614 0.30872092
0.084249713 0.013802775 0.30873898
0.084656753 0.013820113 0.3087042
0.08532279 0.013858753 0.30863962
0.085858092 0.013885468 0.30858219
0.086462587 0.013898714 0.30856082
0.087242104 0.013981263 0.30861089
0.087892741 0.014059541 0.30864945
0.088417351 0.014093854 0.30868641
0.088811532 0.014132347 0.30870613
0.089327365 0.014158217 0.30872446
0.089967579 0.014209453 0.3087168
0.090716213 0.014236821 0.3087278
0.091084197 0.014246889 0.30870387
0.091324709 0.01426001 0.30866671
0.091624178 0.014288571 0.3086248
0.092107244 0.014317086 0.30858517
0.092663273 0.014338798 0.30858049
0.093154103 0.01436087 0.30856365
0.093678281 0.014371751 0.30852145
0.094474263 0.014397593 0.30852005
0.094880693 0.01441649 0.30859348
0.095608622 0.014462263 0.30852205
0.096212804 0.014539834 0.30863893
0.096554786 0.014569935 0.30868879
0.096835271 0.014582001 0.30871621
0.097112365 0.014602222 0.30874494
0.097437039 0.014606094 0.30851629
0.10082508 0.01455545 0.30612373
0.10131776 0.01451383 0.30558369
0.1022447 0.014493063 0.30440891
0.10391992 0.014433898 0.30122226
0.10462175 0.014272633 0.29887536
0.10481072 0.014143619 0.2979888
0.10473277 0.014107629 0.29647359
0.10463814 0.013999929 0.29366097
0.10448137 0.013999546 0.29193923
0.10418766 0.013994585 0.28924584
0.10371789 0.013994222 0.28605092
0.10324658 0.01338009 0.28032002
0.10437868 0.012265776 0.2758427
0.10428992 0.012688559 0.27514249
0.10428201 0.012773712 0.27491593
0.10430808 0.012880904 0.27482164
0.10432096 0.012947202 0.27479509
0.10434399 0.01294136 0.27475017
0.10438387 0.013004192 0.27464402
0.10441608 0.012984879 0.27460891
0.10443931 0.012988478 0.27459627
0.10449325 0.012934808 0.27458757
0.10453124 0.012905345 0.27460426
0.10457401 0.012823936 0.27463827
0.10460897 0.012759658 0.2746143
0.10465275 0.012731715 0.27455947
0.10471295 0.012714696 0.27454302
0.104826 0.012528807 0.27454415
0.10493749 0.012332514 0.27457359
-0.13070005 0.011763006 0.31331733
-0.1303484 0.011829305 0.31323907
-0.1298874 0.011754175 0.3131831
-0.12932394 0.011874039 0.31304589
-0.12890655 0.011874183 0.31294602
-0.05507556 0.013274596 0.27585015
-0.054980528 0.013350946 0.27581975
-0.054856591 0.013399015 0.27575415
-0.054764301 0.013421855 0.27575445
-0.054721754 0.013386003 0.27577457
-0.054700639 0.013350495 0.27578431
-0.054657299 0.013292212 0.27582777
-0.054617114 0.013275652 0.27583724
-0.05457129 0.013285398 0.27582827
-0.054533027 0.013233592 0.27584249
-0.054484714 0.013196267 0.27584594
-0.054446142 0.013152085 0.27586114
-0.054391004 0.013133574 0.27588657
-0.054319747 0.013186942 0.27586168
-0.054260731 0.013217914 0.27585649
0.046622731 0.012922479 0.30976078
0.047480602 0.012908078 0.30981353
0.048561938 0.012901307 0.30988362
0.049497858 0.01287803 0.30994642
0.050494831 0.01284017 0.31001449
0.05133003 0.01277476 0.31006089
0.051975235 0.012776406 0.31007835
0.052642874 0.012797822 0.31007177
0.053370927 0.012861962 0.31001899
0.054147497 0.012970397 0.30993563
0.054954857 0.01306701 0.30986291
0.055730794 0.013161271 0.3098326
0.056369916 0.013232149 0.30982721
0.056928203 0.013227194 0.30983457
0.05741635 0.013251403 0.30982023
0.057899248 0.013215719 0.30981886
0.058482096 0.013201167 0.30983186
0.059095502 0.013180654 0.30987462
0.059516918 0.013105328 0.30990386
0.059902277 0.013067623 0.30990425
0.060253803 0.013041314 0.30989954
0.060478024 0.013045376 0.30987987
0.060782637 0.013061761 0.30986938
0.061053179 0.01306157 0.3098641
0.061350267 0.01306795 0.30986494
0.061704412 0.013075124 0.30984208
0.061943479 0.013073456 0.3098256
0.062214721 0.01310773 0.30978885
0.062600434 0.013162417 0.30974013
0.062940963 0.013217022 0.30970222
0.063447013 0.013299211 0.30967537
0.063848868 0.013352809 0.30966553
0.064373106 0.013374149 0.30967095
0.064880811 0.013427995 0.30966645
0.065378882 0.013452744 0.30962151
0.065883465 0.013535079 0.30955634
0.066452496 0.013602064 0.30945826
0.067641832 0.013499631 0.30936038
0.068911925 0.013401113 0.30940634
0.069706552 0.013342951 0.30942664
0.069905221 0.013353051 0.30942997
0.070227347 0.013393028 0.30944684
0.070772707 0.013394762 0.30949
0.071750425 0.013434514 0.30953577
0.0727259 0.013460792 0.30953792
0.073774263 0.013513095 0.309486
0.074588694 0.013550509 0.30941892
0.075428091 0.013589332 0.30932778
0.079395451 0.013666991 0.30897447
0.080047973 0.013715579 0.30893579
0.080834165 0.013733903 0.30886415
0.081627116 0.013725248 0.30876717
0.082231276 0.013725489 0.30872083
0.082836278 0.01373982 0.30871004
0.083443254 0.013759185 0.3087202
0.084115878 0.013802498 0.30873314
0.084655732 0.01382929 0.30871513
0.084916443 0.01386206 0.30872312
0.085384808 0.013873635 0.30865631
0.085923359 0.013891072 0.30859062
0.086597018 0.013911601 0.30855265
0.087306306 0.014011987 0.30862394
0.088094659 0.014085797 0.3086569
0.088679202 0.014127739 0.30869699
0.089196756 0.014160865 0.30873558
0.089585602 0.014180091 0.30875459
0.090345785 0.014227074 0.30875179
0.090841427 0.014234712 0.30874515
0.091084182 0.014246888 0.30870387
0.091382265 0.014273882 0.30865574
0.091925733 0.01429724 0.30859193
0.092412852 0.014338433 0.30858719
0.092849657 0.014363082 0.30860922
0.093544409 0.014381687 0.30862468
0.094010539 0.014390142 0.30858305
0.094543792 0.014396266 0.30853266
0.09488067 0.01441649 0.30859342
0.095608622 0.014462263 0.30852208
0.096078865 0.014515799 0.30860645
0.096491292 0.014550141 0.30866504
0.096761264 0.014589584 0.30872089
0.097089827 0.014572677 0.30848351
0.097397827 0.014563888 0.30830207
0.10026374 0.014569161 0.30678216
0.10075883 0.01457536 0.30618495
0.10124732 0.014534653 0.30564451
0.10220857 0.014522968 0.30459765
0.10380749 0.014466042 0.30139229
0.10442112 0.014303613 0.29954231
0.10482774 0.014183248 0.29820961
0.10475005 0.014176406 0.2970953
0.10472555 0.014086663 0.29518211
0.10455778 0.014041605 0.29260284
0.10431803 0.013993032 0.29030368
0.10384107 0.013971345 0.28682598
0.10304138 0.013919261 0.28175607
0.10430239 0.012972686 0.27591547
0.10427397 0.013139225 0.27508372
0.10428443 0.013208282 0.27483338
0.10429801 0.013355721 0.27472818
0.10430017 0.013459351 0.27464831
0.10432941 0.013540224 0.27457529
0.10435123 0.013592538 0.27452266
0.10437923 0.013625847 0.27449295
0.10441846 0.013594779 0.27448699
0.10446314 0.013520789 0.27450618
0.10450675 0.013416018 0.27456307
0.10455401 0.013321563 0.27461308
0.10459501 0.013277455 0.27458072
0.10465278 0.013290923 0.27448848
0.1047067 0.013303818 0.27446491
0.10480168 0.013185395 0.27446026
0.10495812 0.012888132 0.27451661
0.10527326 0.012816383 0.27450892
-0.13026766 0.012608913 0.31315884
-0.12983094 0.01262001 0.31302509
-0.12946439 0.012725868 0.31290865
-0.12912694 0.012871744 0.31276351
-0.12888369 0.012855141 0.31271216
-0.055026378 0.01400696 0.27557528
-0.054915879 0.014038748 0.27556434
-0.054823432 0.014023741 0.27558133
-0.05476639 0.013999361 0.27559307
-0.054719858 0.013904037 0.2756373
-0.05467768 0.013869825 0.2756559
-0.054650791 0.013866421 0.27565643
-0.054608107 0.013845704 0.27569184
-0.054569263 0.013842213 0.27568725
-0.054534413 0.013796758 0.27571452
-0.054478142 0.013745906 0.27572206
-0.054440644 0.01373262 0.27572447
-0.054390792 0.013696079 0.27571991
-0.054320998 0.013710257 0.27571964
-0.054252651 0.013738374 0.27569407
0.056887675 0.01339629 0.30979452
0.057447869 0.013402046 0.30978763
0.058065515 0.013376975 0.3098062
0.05861412 0.013326096 0.30983669
0.05904508 0.013320758 0.30985028
0.059398007 0.013243034 0.30988652
0.059890702 0.013241143 0.30987439
0.060211934 0.013216474 0.30986857
0.060459476 0.013216927 0.30984801
0.060759559 0.013256103 0.30983248
0.061011959 0.01323101 0.30982801
0.061283637 0.013230889 0.30982369
0.061609235 0.013240789 0.30982193
0.061939213 0.013299229 0.30976814
0.062314786 0.01337282 0.30970448
0.062644519 0.0134083 0.30968046
0.063047968 0.013458642 0.30964512
0.063471906 0.013489483 0.30963433
0.063888364 0.013548989 0.30963224
0.064320751 0.01355962 0.30963641
0.064796023 0.013609271 0.30962682
0.065456703 0.01366632 0.30957291
0.065966986 0.013731842 0.30951327
0.066552795 0.013767992 0.30941224
0.067901738 0.013631044 0.30934525
0.069382153 0.013445342 0.30942786
0.083446994 0.013777412 0.30872092
0.084115878 0.013802495 0.30873317
0.084590338 0.013832509 0.30871728
0.084981844 0.013868962 0.30870643
0.085450239 0.01388073 0.30863813
0.085990138 0.013898575 0.3085762
0.086659044 0.013933935 0.30856642
0.087438174 0.014033964 0.30863196
0.088228315 0.014094588 0.30866265
0.088746786 0.014128483 0.30869538
0.089261808 0.01416166 0.30873072
0.089965135 0.014210323 0.30876163
0.090528056 0.014236233 0.30874658
0.090960458 0.014248652 0.30872169
0.091263011 0.014258687 0.30867481
0.0916242 0.014288571 0.3086248
0.092105411 0.01432664 0.30859521
0.092717014 0.014372835 0.30862257
0.093565106 0.014380468 0.3087129
0.09401048 0.014393078 0.30872402
0.094280399 0.014395323 0.30863869
0.094675697 0.014420316 0.30855849
0.094946407 0.014431891 0.30860731
0.09547127 0.014458803 0.30850476
0.09587118 0.014512199 0.30858573
0.096212812 0.014539835 0.30863893
0.096743435 0.014542239 0.30844548
0.096963048 0.014563623 0.30838355
0.097416446 0.014570806 0.30813852
0.1003936 0.014562856 0.30649346
0.10075882 0.014575362 0.30618495
0.10124732 0.014534653 0.30564451
0.10216108 0.014523479 0.30479276
0.1038075 0.014466041 0.30139226
0.10430543 0.014338258 0.30020261
0.10472651 0.014249172 0.29865077
0.10481072 0.014143622 0.29798883
0.10475017 0.014085646 0.29627204
0.10457006 0.014042165 0.29304442
0.10431801 0.013993029 0.29030362
0.10384107 0.013971345 0.28682598
0.10307673 0.014240495 0.28198978
0.10421668 0.01365045 0.27594292
0.10426534 0.013530666 0.27499479
0.10428014 0.013697318 0.27471191
0.10429848 0.013842755 0.27461874
0.10430063 0.01400221 0.27447435
0.10432567 0.014049907 0.27441433
0.10435469 0.014079539 0.27438489
0.10438043 0.01411596 0.2743766
0.10442311 0.014098677 0.27438667
0.10445767 0.014047927 0.27442223
0.10450847 0.013888521 0.27452889
0.10451365 0.013809733 0.27457982
0.10456157 0.013763542 0.27452636
0.10465521 0.013824302 0.27443039
0.10470321 0.013838695 0.27439177
0.10477743 0.01367604 0.27439001
0.10503361 0.013456422 0.27441195
0.10528291 0.013313146 0.27449578
-0.12963054 0.013813928 0.3126882
-0.12940639 0.013940854 0.3125959
-0.12923045 0.013899573 0.31255555
-0.12903056 0.013866227 0.31251356
-0.1288414 0.013801943 0.31247357
-0.054925404 0.014757412 0.2753652
-0.05487711 0.014721427 0.27537957
-0.054825999 0.014629524 0.27542281
-0.054775085 0.014532717 0.27547082
-0.054741312 0.01450936 0.27547854
-0.054686859 0.014429504 0.27551818
-0.054640897 0.014394942 0.27553695
-0.054599505 0.014410436 0.27553096
-0.054571476 0.01436626 0.27555755
-0.054533478 0.014355176 0.2755731
-0.054487832 0.014260295 0.27560848
-0.054440405 0.014256168 0.27559569
-0.054378886 0.014258077 0.27558377
-0.054306045 0.014287401 0.27555713
-0.054235041 0.014344746 0.27551776
0.057475392 0.013510685 0.30977404
0.058069322 0.013488722 0.30979681
0.05859353 0.013465743 0.3098183
0.059052993 0.013424675 0.30983999
0.059414875 0.013426453 0.30985019
0.059790298 0.013383192 0.30984801
0.060089499 0.013418694 0.30982482
0.060444519 0.013458191 0.30979899
0.060688738 0.013457661 0.30978444
0.060933549 0.013463218 0.30978408
0.061155535 0.013496188 0.30976865
0.061486699 0.013554283 0.30972943
0.061988417 0.013629367 0.30968338
0.062377125 0.01369308 0.309625
0.062723853 0.013637551 0.30961412
0.063115455 0.013650539 0.3095963
0.063516989 0.013691605 0.30958876
0.063942894 0.013732309 0.30958822
0.064318657 0.013780009 0.30958879
0.064853452 0.013855319 0.30956164
0.065564752 0.013870283 0.30950922
0.091624193 0.014288569 0.30862477
0.092285492 0.014348275 0.30860496
0.093031742 0.014388858 0.30864617
0.093762912 0.014392641 0.30876011
0.09395957 0.014411149 0.30880794
0.094389006 0.014429355 0.30870977
0.094724648 0.014428677 0.30861953
0.095013067 0.014441933 0.3086206
0.095467851 0.014470351 0.30851236
0.095871188 0.014512201 0.3085857
0.096382394 0.014541021 0.30850008
0.096675321 0.014529828 0.30842823
0.097044192 0.014560265 0.30830079
0.09742786 0.014560509 0.30803949
0.10462857 0.014257086 0.29910219
0.10482774 0.014183247 0.29820961
0.10473275 0.014107627 0.29647356
0.10455779 0.014041606 0.29260287
0.10419359 0.014035395 0.28947473
0.1037453 0.014074964 0.28626388
0.10301999 0.014293532 0.28065422
0.104181 0.014065129 0.27574813
0.10425572 0.013950508 0.27491647
0.10427177 0.014159841 0.27460843
0.10427344 0.01436357 0.27444926
0.10429452 0.014574666 0.27429152
0.10431633 0.014605516 0.27427894
0.10433953 0.01460085 0.2742559
0.10438089 0.014634858 0.27424869
0.10442981 0.014598907 0.27426112
0.10446694 0.014533466 0.27430686
0.10451465 0.014431852 0.27434796
0.10453464 0.014402784 0.27436239
0.10458654 0.014417207 0.27435935
0.10464962 0.014397608 0.27431387
0.10470793 0.014364129 0.27430499
0.10478362 0.014291852 0.27429691
0.10503358 0.01417119 0.27430418
0.10524136 0.013908381 0.27438116
-0.12952808 0.015315179 0.31227964
-0.12937446 0.015310333 0.31224352
-0.12925945 0.015184531 0.31225008
-0.12912135 0.015145344 0.31222928
-0.12899859 0.015059561 0.31223959
-0.054901913 0.015433589 0.27517349
-0.05482924 0.015401759 0.2752046
-0.054809853 0.015291265 0.27525419
-0.054769881 0.015180502 0.27529955
-0.054721147 0.015097503 0.27534339
-0.05469016 0.0150582 0.27535474
-0.054648664 0.014977368 0.27539507
-0.054621417 0.014927489 0.27541834
-0.054578684 0.014908573 0.27542186
-0.054533277 0.01484823 0.27545065
-0.054484833 0.014841901 0.27543771
-0.054441512 0.014814433 0.27544987
-0.054382052 0.014850518 0.27542615
-0.054317247 0.014938302 0.27535188
-0.054264773 0.015022992 0.27530482
0.058552355 0.013652368 0.3097907
0.060373694 0.013682969 0.30975398
0.060596611 0.013686373 0.30973443
0.060875885 0.013729471 0.30970013
0.061190851 0.013775088 0.30968088
0.061527207 0.013846902 0.3096453
0.061928991 0.013922476 0.30960605
0.10379411 0.014024183 0.28665963
0.10322482 0.014337089 0.28345564
0.10313728 0.014932255 0.27815974
0.10418183 0.014653183 0.27527738
0.10426087 0.014321501 0.27482536
0.10425513 0.014668819 0.27444607
0.10426546 0.014992625 0.27421972
0.10428994 0.01507391 0.27417216
0.10432938 0.015101686 0.2741392
0.10435188 0.015131079 0.27412581
0.10438985 0.015131182 0.27412802
0.10443058 0.015111892 0.2741347
0.10445594 0.015099021 0.27416143
0.10451227 0.015019763 0.27419588
0.10454676 0.014969957 0.27421805
0.10458659 0.014998328 0.27420512
0.10463178 0.014978741 0.27420503
0.10469624 0.014914739 0.27420941
0.10477675 0.014831237 0.27421036
0.10492692 0.014813359 0.27420717
0.10514499 0.014606476 0.27420986
-0.1295189 0.016456529 0.31203824
-0.12944724 0.016455751 0.31201082
-0.12935705 0.016569158 0.31197074
-0.12929177 0.01657239 0.31194028
-0.12910187 0.016767766 0.31184268
-0.054869369 0.016069308 0.27500632
-0.054825187 0.016001135 0.27504194
-0.054770477 0.015908629 0.27508658
-0.054752648 0.015772263 0.27513185
-0.054738916 0.015673673 0.27518916
-0.054704234 0.015591694 0.27523035
-0.054676812 0.015536649 0.27524772
-0.054631669 0.015542448 0.27525827
-0.054578338 0.015501135 0.27526146
-0.054550115 0.015481958 0.27526176
-0.054511156 0.01546693 0.2752645
-0.054452319 0.015435589 0.27527416
-0.054390199 0.015459125 0.27523351
-0.054341584 0.015564309 0.27519089
-0.054248739 0.015685245 0.27511898
0.060520623 0.013995768 0.30964968
0.060812745 0.014012049 0.30962786
0.061169766 0.014061844 0.30960247
0.061549656 0.014109226 0.30958688
0.10262424 0.015332942 0.2795009
0.10391478 0.014731849 0.27591935
0.10419368 0.014850101 0.27498415
0.1042397 0.014852325 0.27454478
0.10425229 0.015263627 0.27428424
0.10426077 0.015525726 0.27409694
0.10430236 0.015566545 0.27405477
0.10433371 0.015612724 0.27401784
0.10435795 0.015643237 0.274005
0.10438623 0.015659381 0.2739999
0.10440911 0.015660483 0.27400011
0.10444245 0.01566253 0.27400103
0.10448987 0.015648298 0.27400962
0.10450961 0.015617483 0.27402323
0.10456032 0.015589739 0.27403885
0.1046024 0.015516374 0.2740787
0.10467092 0.015486547 0.27409485
0.10476825 0.015396352 0.27412307
0.10486794 0.015397786 0.27411672
-0.12967721 0.017608719 0.31179532
-0.12958002 0.017560435 0.31180251
-0.12952407 0.017453102 0.31181517
-0.12941577 0.017748401 0.31170037
-0.1293381 0.017861376 0.31163704
-0.054877181 0.016555078 0.27489173
-0.054819405 0.01650738 0.27491301
-0.054775845 0.016452674 0.27493748
-0.054744173 0.016310781 0.27499998
-0.054724406 0.016302228 0.27500191
-0.054692343 0.016203633 0.27504718
-0.054661609 0.016168099 0.27506673
-0.054628391 0.016133113 0.27508777
-0.054593328 0.016096532 0.27509511
-0.054567624 0.016116928 0.27508971
-0.054517791 0.016110159 0.27507886
-0.054461792 0.016079679 0.27509126
-0.054423783 0.016136661 0.27505338
-0.054362666 0.016224144 0.27499378
-0.054285645 0.016403245 0.27489826
-0.054145385 0.016393602 0.27487156
0.060768489 0.01429837 0.30954453
0.061309088 0.014274875 0.30955699
0.061588969 0.014325156 0.30953717
0.1041381 0.015276641 0.27507898
0.10421545 0.015256086 0.27471632
0.10421807 0.015517879 0.27429378
0.10423511 0.015847024 0.2740601
0.10427815 0.015995473 0.27398333
0.104312 0.016054625 0.27393886
0.10434306 0.016101789 0.27390075
0.10436472 0.016136291 0.27388731
0.10439672 0.016242793 0.27385646
0.1044138 0.016223606 0.27386111
0.10443417 0.016260933 0.27385122
0.10445457 0.016227735 0.27386299
0.10449085 0.016238816 0.27382886
0.10453475 0.016158368 0.27385929
0.10458549 0.016091008 0.27392256
0.10463573 0.016036211 0.27396691
0.10475139 0.01594802 0.27401736
-0.12962981 0.018699562 0.31153128
-0.12959991 0.01870369 0.31152254
-0.12954694 0.018773893 0.31149563
-0.1294594 0.019030321 0.31136501
-0.054871269 0.017012749 0.27479157
-0.054824349 0.017009782 0.27480215
-0.05480117 0.016895855 0.27483711
-0.054764818 0.016836353 0.27486297
-0.054732453 0.016817886 0.27487898
-0.054701086 0.016779499 0.27489185
-0.054672036 0.016698116 0.27493048
-0.054644886 0.016677774 0.27493793
-0.054603379 0.016744021 0.27490711
-0.054568131 0.016741078 0.274903
-0.05453698 0.016765635 0.27489674
-0.054506052 0.016734859 0.27490017
-0.054459143 0.016781664 0.27488106
-0.054396842 0.016827628 0.2748332
-0.054260667 0.016889041 0.27478263
-0.054102339 0.016941315 0.27475119
0.060908079 0.014560025 0.30947939
0.061364371 0.01455337 0.30949789
0.061828718 0.014564287 0.30950084
0.10412969 0.015636113 0.27461883
0.10421067 0.015794022 0.27432504
0.10421434 0.016129408 0.27413344
0.10424251 0.016408572 0.27391145
0.10429144 0.016499288 0.273871
0.10432824 0.016541855 0.27382794
0.10435452 0.016609251 0.27379963
0.10437779 0.016662646 0.27376252
0.10438117 0.016754737 0.27373922
0.10440969 0.016827621 0.27367213
0.10443229 0.016839573 0.27363664
0.10445247 0.016732022 0.27366716
0.10449185 0.016732743 0.27366632
0.10451832 0.016721452 0.27367857
0.1045662 0.01669557 0.27369785
-0.1296272 0.019750128 0.31123638
-0.1296023 0.019890686 0.31119311
-0.1296023 0.019890686 0.31119308
-0.12957785 0.019896597 0.31118351
-0.054888558 0.017487351 0.27468434
-0.054847006 0.01746113 0.27469534
-0.054813057 0.01734704 0.27472854
-0.054783743 0.017325228 0.27474672
-0.054754063 0.01732726 0.27475911
-0.054712676 0.017287232 0.27476656
-0.054682821 0.017270287 0.27477843
-0.054627575 0.01730082 0.27475756
-0.05459914 0.017284412 0.27476281
-0.054572169 0.017271861 0.27477252
-0.05454357 0.017276471 0.27477041
-0.054517604 0.017248947 0.27477878
-0.054458577 0.017278843 0.27475062
-0.054389052 0.017384948 0.2747097
-0.054243416 0.017397894 0.27468169
-0.054094043 0.017463092 0.27464038
0.061055284 0.014889616 0.30939469
0.06149691 0.0149137 0.30940437
0.061932772 0.014933589 0.30941704
0.10408194 0.01631896 0.27425483
0.10417325 0.016504798 0.27413484
0.10421677 0.016731258 0.27395195
0.10424623 0.016935015 0.2737956
0.10431065 0.017001564 0.27374065
0.10433856 0.01706697 0.27371341
0.10435633 0.017085593 0.27368006
0.10436821 0.017138937 0.27366424
0.10437299 0.017251858 0.27359006
0.10440382 0.017301407 0.27354598
0.10443026 0.017306639 0.27352828
0.10445035 0.017232643 0.27354109
0.10447938 0.017253168 0.27354029
0.10451381 0.017224936 0.27355644
-0.12960275 0.020610949 0.31098834
-0.12960275 0.020610947 0.31098834
-0.12960275 0.020610949 0.31098834
-0.12959249 0.020678269 0.3109653
-0.054899003 0.017951505 0.27458417
-0.054867566 0.017884763 0.27460536
-0.054829367 0.017839393 0.27462491
-0.054792535 0.017814258 0.27463487
-0.054768063 0.017830446 0.27463818
-0.054710492 0.017810073 0.27464071
-0.054686561 0.017807724 0.27464211
-0.054648694 0.017844902 0.27462825
-0.054620441 0.017828567 0.27463341
-0.054589357 0.01774561 0.27466419
-0.054559007 0.017748019 0.27466097
-0.054518431 0.017751621 0.27465639
-0.054479055 0.017828716 0.27462414
-0.054385357 0.01790571 0.27460086
-0.054244649 0.017932277 0.2745738
-0.05408394 0.017902028 0.27456412
0.061146114 0.015391823 0.3092843
0.061613493 0.015321882 0.30931586
0.062061954 0.015329801 0.30933344
0.10400029 0.017030915 0.2740576
0.10411213 0.017110672 0.2739892
0.10420509 0.017326808 0.27376631
0.10425082 0.01747762 0.27368039
0.10430039 0.017563386 0.27359819
0.10433862 0.017545288 0.27360263
0.10435145 0.01756206 0.2735939
0.10437024 0.017659858 0.27355459
0.10437915 0.017704008 0.2735002
0.10440668 0.017732238 0.27345991
0.10443336 0.01773081 0.27345389
0.10444674 0.017732183 0.2734547
0.10447121 0.017735101 0.273458
0.10450159 0.017721482 0.27346516
-0.12960236 0.021254711 0.31082726
-0.12960236 0.021254715 0.31082729
-0.12960237 0.021254715 0.31082726
-0.12960236 0.021254716 0.31082726
-0.054896984 0.018429499 0.27446753
-0.054873038 0.01839827 0.27447757
-0.054828227 0.018373655 0.27449158
-0.054784384 0.018353652 0.27450705
-0.054758009 0.018367007 0.27450687
-0.054733984 0.018347763 0.27451634
-0.054697186 0.018316297 0.27453899
-0.054672267 0.018318819 0.27454039
-0.054649256 0.018283824 0.27454743
-0.054606706 0.018267145 0.27454892
-0.054578643 0.01822087 0.2745595
-0.054527096 0.018257216 0.27454722
-0.054485928 0.018279538 0.27453455
-0.054407526 0.018397827 0.27449372
-0.054261815 0.018445436 0.27448156
-0.054133657 0.018445395 0.27446398
0.061209206 0.016040076 0.30915624
0.061601564 0.015940985 0.30918303
0.061983261 0.015949327 0.30919081
0.1039528 0.01765809 0.27391142
0.10406467 0.017723091 0.27375972
0.10419232 0.017872354 0.27361938
0.10423313 0.018031541 0.27354604
0.10426847 0.018041473 0.27351436
0.10431337 0.018083334 0.27349037
0.1043456 0.018112659 0.27345586
0.10437201 0.01820063 0.27342394
0.10437895 0.018182183 0.27342674
0.10440668 0.018212341 0.2733874
0.10442808 0.018193549 0.2733866
0.10445422 0.018229371 0.27337873
0.10447835 0.018231701 0.27338073
0.1045021 0.018200723 0.27338949
-0.12957929 0.022084557 0.31060323
-0.12958474 0.02201728 0.31062767
-0.12960771 0.021890188 0.31068423
-0.12959193 0.021885585 0.31067771
-0.12956662 0.021887939 0.31065777
-0.054923151 0.019014748 0.27434856
-0.05488418 0.018870104 0.27439022
-0.054857899 0.018856708 0.27439889
-0.054813735 0.018838279 0.27441466
-0.054775398 0.01882045 0.27443075
-0.054744873 0.018819761 0.27443299
-0.054735787 0.018818866 0.27443427
-0.054703403 0.018802853 0.27444175
-0.054661509 0.018754132 0.2744633
-0.054634031 0.018740088 0.27446565
-0.054591596 0.018725192 0.27446616
-0.054537319 0.018692872 0.27446905
-0.054486733 0.018778125 0.27443415
-0.054420125 0.018870795 0.27440825
-0.054293189 0.01894119 0.27438742
-0.054150917 0.018958848 0.27436608
0.061130546 0.016729107 0.30905151
0.061489832 0.016764808 0.30904296
0.10391507 0.018262262 0.27365154
0.10406249 0.018320628 0.27358711
0.10412409 0.01850949 0.27348137
0.1041819 0.018562367 0.2734088
0.10424562 0.018601246 0.27336869
0.10426781 0.018637439 0.27334598
0.10431145 0.018647848 0.27334335
0.10435589 0.018692818 0.27330628
0.1043994 0.018706663 0.2733092
0.10441894 0.018687308 0.27330753
0.10444656 0.018688045 0.27330711
0.1044544 0.018706165 0.27330348
0.1044784 0.018707894 0.27330506
0.10449751 0.01869927 0.27329519
-0.12959936 0.022581274 0.31051072
-0.12959938 0.022581274 0.31051069
-0.12959476 0.022512356 0.31053224
-0.12959503 0.022444416 0.31055492
-0.1295677 0.022514198 0.31050545
-0.054960072 0.019608777 0.27421847
-0.054903895 0.019467045 0.27427521
-0.054869425 0.01936027 0.2743054
-0.05483235 0.019357126 0.27431595
-0.0548012 0.019324271 0.27433386
-0.054775801 0.019305633 0.27434298
-0.054752953 0.0193062 0.27434629
-0.054717522 0.019273218 0.27436045
-0.054693025 0.019273413 0.27435872
-0.054667637 0.019240674 0.27436462
-0.054619115 0.01924265 0.27436212
-0.054567114 0.019211903 0.27436525
-0.054491974 0.019248443 0.27435616
-0.054435376 0.019326353 0.27433041
-0.054358497 0.019449983 0.27429506
0.061068345 0.017404364 0.30897567
0.0613808 0.017393677 0.30897075
0.10389343 0.018765721 0.27352586
0.10404224 0.018914774 0.27342126
0.10411169 0.018989909 0.27335641
0.10414381 0.019137686 0.27327529
0.10419098 0.019169211 0.27324653
0.1042178 0.019225501 0.27319816
0.10426623 0.019209361 0.27320436
0.10432478 0.019205004 0.27320763
0.10438261 0.019166928 0.27321705
0.10442907 0.019127036 0.27323061
0.10444876 0.019126413 0.27323133
0.10445994 0.019126721 0.27323151
0.10449103 0.019199958 0.27318868
0.10451982 0.01917957 0.27318695
-0.12959623 0.023197981 0.31035417
-0.12959625 0.023197981 0.31035423
-0.12959316 0.023130277 0.31038007
-0.12959316 0.023130277 0.31038007
-0.12956125 0.023131656 0.31034943
-0.055029243 0.020097528 0.27410117
-0.05495958 0.020074913 0.27413818
-0.054923266 0.019961927 0.27418315
-0.054891016 0.019893356 0.27420691
-0.054855227 0.019861002 0.27422687
-0.054834671 0.019843871 0.2742379
-0.054801561 0.019809833 0.27425501
-0.054773912 0.019793227 0.2742627
-0.054740846 0.019776076 0.2742691
-0.054716721 0.019776898 0.27426717
-0.054673847 0.01976121 0.27427417
-0.054639228 0.019730194 0.27428076
-0.054582302 0.019715974 0.27428105
-0.05452342 0.019722577 0.2742784
-0.054462925 0.019751906 0.2742601
-0.054379981 0.019866871 0.27423218
0.061006293 0.018327769 0.30889505
0.061266366 0.018310353 0.30888122
0.10372997 0.019175963 0.27346244
0.10386314 0.019232869 0.27339342
0.10401047 0.019359376 0.27333742
0.10407045 0.019449379 0.27327323
0.10412475 0.019589078 0.27318963
0.10416146 0.019640557 0.27315512
0.10419659 0.01970637 0.27312097
0.10421775 0.019788137 0.27308342
0.10428032 0.019735072 0.27309814
0.10437933 0.019619484 0.27312815
0.10443621 0.019526379 0.27315345
0.1044495 0.019524081 0.27315354
0.10447263 0.019536966 0.27314073
0.10449152 0.019631211 0.27309468
0.10451955 0.019697538 0.27306956
-0.12958631 0.023805991 0.31019554
-0.12958632 0.023805995 0.3101956
-0.12958333 0.02373939 0.31022206
-0.12957045 0.023801422 0.31018782
-0.12957045 0.023801424 0.31018782
-0.055032171 0.020576091 0.2740294
-0.054986347 0.020550448 0.27405822
-0.054948516 0.020498941 0.2740868
-0.05490445 0.020396559 0.27411911
-0.054874647 0.020380121 0.27413419
-0.05485376 0.020363295 0.2741451
-0.0548134 0.020347346 0.27415562
-0.054791264 0.020312866 0.27416748
-0.05474605 0.02029678 0.27417654
-0.054729018 0.020280449 0.27417907
-0.05469178 0.020281088 0.27417719
-0.054646067 0.020248696 0.27418613
-0.054601382 0.02021867 0.27419195
-0.054546114 0.020242862 0.27418229
-0.05447134 0.020266283 0.27417749
-0.054410595 0.020283975 0.27416545
0.060948215 0.019321725 0.30878422
0.061158784 0.019427346 0.30874348
0.10370325 0.019576697 0.27334711
0.10387211 0.01969758 0.27329093
0.10397225 0.019802155 0.27324975
0.10405117 0.019803863 0.27324611
0.1041279 0.01988044 0.27317226
0.10416331 0.019958725 0.27311003
0.10421895 0.020050656 0.2730667
0.10426017 0.020076025 0.27302682
0.10429405 0.020169178 0.27298981
0.10436178 0.020115416 0.27300766
0.10441807 0.020034242 0.27302855
0.10446447 0.020003352 0.27303192
0.10447975 0.020028949 0.27301055
0.10449535 0.020061942 0.27299529
0.10452325 0.020170243 0.27294263
0.10455011 0.0201973 0.27292487
-0.1295678 0.02447217 0.31001562
-0.12956782 0.024472171 0.31001559
-0.12956326 0.024405651 0.31003898
-0.12956326 0.024405651 0.31003895
-0.055099834 0.021092946 0.27396944
-0.055011827 0.021005956 0.27398306
-0.054956581 0.020945687 0.27400628
-0.05492517 0.020914862 0.27402553
-0.054894801 0.020898815 0.27404007
-0.054869436 0.020882685 0.27404922
-0.054836124 0.020848809 0.27406266
-0.054808028 0.020832093 0.27406868
-0.054771133 0.020799005 0.27407971
-0.054744512 0.020799028 0.27407822
-0.05469748 0.020799313 0.27407905
-0.054657634 0.020784587 0.27408051
-0.054612752 0.020772697 0.27408117
-0.054550584 0.020776991 0.2740798
-0.054492131 0.02075048 0.27408314
-0.054418255 0.020751525 0.27407953
0.0608599 0.020704301 0.30853289
0.061086923 0.020576408 0.30852571
0.10385903 0.020196358 0.27315956
0.1039364 0.020192062 0.27315611
0.10402322 0.020264547 0.27311799
0.10409965 0.020277634 0.2731103
0.10415386 0.020262389 0.27304712
0.10420575 0.020397939 0.27299672
0.10425638 0.020538338 0.27292401
0.10427229 0.020617329 0.27287808
0.10432525 0.02062425 0.27287531
0.10437667 0.020564221 0.27289757
0.10442447 0.020556925 0.27287832
0.10444053 0.020560158 0.27287766
0.10447177 0.020599402 0.27284268
0.10452166 0.020616848 0.27283111
0.10455107 0.020627709 0.27281842
0.10456598 0.020645821 0.27281362
-0.12955153 0.025197092 0.30983752
-0.12955867 0.025134075 0.30986002
-0.12957045 0.025071943 0.30988359
-0.1295628 0.024941636 0.30992439
-0.055159841 0.021596359 0.27390701
-0.055067383 0.021531461 0.27390948
-0.054980282 0.021493109 0.27390984
-0.054937646 0.021450952 0.27392459
-0.054910313 0.021435427 0.27393654
-0.054881055 0.02141889 0.27394691
-0.05485082 0.021367423 0.27396253
-0.054823406 0.021350605 0.27396736
-0.054786831 0.021317206 0.273976
-0.054754816 0.021334708 0.27397013
-0.054715775 0.021318935 0.27397394
-0.054675192 0.021303687 0.27397424
-0.054624498 0.021325881 0.27396575
-0.054565232 0.02129687 0.27397239
-0.054508034 0.0212697 0.27397659
-0.054430332 0.021249892 0.27398226
0.060839262 0.022108583 0.30817881
0.061042577 0.022161087 0.30810207
0.10382318 0.020752179 0.27298796
0.10390353 0.020707775 0.27299392
0.10398273 0.02077597 0.27292445
0.10407019 0.020770166 0.27292097
0.10411656 0.020879747 0.27286205
0.10417095 0.020921711 0.27284482
0.10419603 0.021062814 0.27277917
0.10422865 0.021183994 0.27271637
0.10428135 0.02117021 0.272715
0.10431381 0.021138951 0.27272779
0.10434051 0.021155315 0.27271152
0.10437867 0.02110797 0.2727282
0.10442574 0.021168066 0.27268767
0.10444031 0.021182602 0.27267641
0.10450368 0.02110167 0.27270848
0.10453777 0.021109655 0.27269897
0.10458195 0.021041403 0.2727021
-0.12956984 0.025730206 0.3097513
-0.12956987 0.025730206 0.30975136
-0.12955837 0.025600011 0.30978411
-0.12955837 0.025600014 0.30978414
-0.055203211 0.022162322 0.273826
-0.055129081 0.022101687 0.27382866
-0.05502937 0.02201861 0.27382356
-0.054960422 0.02198635 0.27382106
-0.054936092 0.022008047 0.27382725
-0.054898854 0.021936145 0.27384239
-0.054860894 0.021902665 0.27385324
-0.054826375 0.021869367 0.27386403
-0.054796576 0.021852445 0.27386591
-0.054764803 0.021869823 0.27386028
-0.054725904 0.021853819 0.2738632
-0.05467733 0.021838361 0.27386513
-0.054626387 0.021865539 0.27385509
-0.054562796 0.021872714 0.27385089
-0.054510176 0.021842681 0.2738561
-0.054446664 0.021784604 0.27386957
0.060803372 0.023569701 0.30774397
0.060925014 0.023637824 0.3076641
0.10388739 0.021376211 0.27273008
0.10395857 0.021399504 0.27269244
0.10401328 0.02147512 0.27266565
0.10406173 0.021557331 0.27261347
0.10410481 0.021690475 0.27255622
0.10413095 0.021801582 0.27251729
0.10414188 0.021838089 0.27250683
0.10417751 0.021805672 0.27251977
0.1042258 0.021796819 0.27249348
0.10425883 0.021782992 0.27250341
0.10430948 0.021739257 0.27252468
0.10433403 0.021744041 0.27252841
0.10440709 0.021653367 0.27255023
0.10442374 0.02164661 0.27254683
0.10445914 0.02163491 0.27254078
0.10451581 0.021587944 0.27255216
0.10456377 0.021549266 0.27254882
-0.1295817 0.026385181 0.30965063
-0.1295817 0.026385183 0.30965063
-0.12956521 0.026191344 0.30968848
-0.12956867 0.026128452 0.30970293
-0.12956865 0.026128452 0.30970296
-0.055222705 0.022696061 0.27373362
-0.05515331 0.022660458 0.27372989
-0.055071607 0.022597622 0.27372393
-0.055006165 0.022582248 0.27371398
-0.054952342 0.022540286 0.27371609
-0.054910164 0.022471666 0.2737332
-0.054869764 0.022454888 0.27374122
-0.054837283 0.022403926 0.27375159
-0.054806106 0.022387136 0.27375469
-0.054774884 0.022404525 0.27375078
-0.05473629 0.022388346 0.27375376
-0.054688305 0.022372667 0.27375618
-0.054634634 0.022416972 0.27374452
-0.054586142 0.022445111 0.27373034
-0.054529078 0.022395158 0.27374402
-0.054474935 0.022346109 0.27375895
0.060695942 0.024772722 0.3074241
0.06074832 0.024945006 0.3073509
0.060780291 0.024853379 0.30736044
0.10389549 0.022195315 0.27241069
0.10391863 0.022319011 0.27235708
0.10395786 0.022386419 0.27233055
0.1039895 0.022474507 0.27227843
0.10400237 0.022585053 0.27225107
0.10401309 0.022655655 0.27221733
0.10408334 0.022554446 0.27224779
0.10411318 0.022540402 0.27225825
0.10416847 0.02241756 0.27230361
0.10423421 0.022300806 0.27235192
0.10424363 0.022245662 0.27237105
0.10432177 0.022201043 0.27237338
0.10434878 0.022142675 0.27238843
0.10439719 0.022135895 0.27238989
0.10444545 0.022095036 0.27238956
0.10450064 0.022116 0.27237952
0.1045858 0.022175921 0.27233166
-0.12959743 0.026780047 0.30960959
-0.12958544 0.026717765 0.30961594
-0.12958544 0.026717771 0.30961594
-0.12958546 0.026717775 0.30961597
-0.12958546 0.026717775 0.30961597
-0.055253066 0.023308605 0.2736243
-0.05517517 0.023253772 0.27361971
-0.055093274 0.023189927 0.27361032
-0.055020552 0.023134679 0.27360255
-0.054968093 0.023088783 0.27360907
-0.054928668 0.02302118 0.27361912
-0.054895367 0.022986954 0.27363107
-0.054856203 0.022953916 0.27363986
-0.054824028 0.022972465 0.27363676
-0.054785568 0.022938957 0.27364436
-0.054747604 0.022922749 0.27364874
-0.054687012 0.022964571 0.2736432
-0.054637387 0.022989893 0.27363536
-0.054604344 0.02295992 0.27363461
-0.0545533 0.022929542 0.27364039
0.060666755 0.025934255 0.30713749
0.060666755 0.025934255 0.30713746
0.060666759 0.025934255 0.30713743
0.10381644 0.023084441 0.27211687
0.10383943 0.02311003 0.27210766
0.10384531 0.023128243 0.27209949
0.10389128 0.023233082 0.27207291
0.1039246 0.023212606 0.2720663
0.10393928 0.023244953 0.27205902
0.10398827 0.023209296 0.27205518
0.1040181 0.023136579 0.27207321
0.10407344 0.023013294 0.27211207
0.10415825 0.022860058 0.27216545
0.10418755 0.022784134 0.27218556
0.10423253 0.022714648 0.27221623
0.10427568 0.022664851 0.2722201
0.10431692 0.022646027 0.27223122
0.10437074 0.02259567 0.27223918
0.1044263 0.022666207 0.27219936
0.10452562 0.022700399 0.27215382
-0.12962456 0.027373947 0.30953479
-0.129599 0.027364274 0.30952618
-0.129599 0.027364274 0.30952618
-0.129599 0.027364271 0.30952618
-0.129599 0.027364271 0.30952618
-0.055260636 0.023837967 0.27352858
-0.055187263 0.023800928 0.27351704
-0.055114839 0.023737889 0.27351293
-0.055056863 0.0236919 0.27351201
-0.054992002 0.023612928 0.27351275
-0.054961998 0.0235807 0.27352145
-0.054915227 0.023533426 0.27352592
-0.05486998 0.023520086 0.27352926
-0.054843981 0.023521185 0.27353051
-0.054809023 0.02348889 0.27353773
-0.054752324 0.023514427 0.27353287
-0.054699317 0.02349861 0.27354187
-0.054653756 0.023506436 0.27353784
-0.054613657 0.023513105 0.27353004
-0.054570977 0.023463272 0.27353597
0.060633719 0.026678063 0.30704007
0.060615472 0.026870439 0.30696014
0.060615472 0.026870443 0.30696017
0.1037857 0.023621429 0.27199793
0.10383312 0.023682656 0.27196419
0.10387086 0.023748429 0.27193829
0.10388622 0.023748789 0.27193499
0.10390624 0.023731066 0.27193305
0.10393718 0.023713691 0.27192929
0.10396594 0.023643592 0.27194721
0.10400391 0.02355234 0.27196732
0.10406189 0.023370394 0.27201235
0.10411873 0.02322999 0.27206507
0.10417914 0.023127645 0.27207804
0.10422195 0.023107801 0.27208725
0.10425854 0.023125386 0.27206743
0.10432793 0.023096062 0.2720755
0.10437758 0.023192719 0.27201435
0.10448694 0.023210412 0.27198753
-0.12964286 0.027962836 0.30945727
-0.12963288 0.027900854 0.30946064
-0.12962231 0.027952932 0.3094438
-0.12960728 0.028004153 0.30942526
-0.12960728 0.028004153 0.30942526
-0.055257455 0.024350546 0.27343413
-0.055195548 0.024353098 0.27342191
-0.05513953 0.024321055 0.27341858
-0.055069625 0.024246581 0.2734136
-0.055028494 0.024172939 0.27342585
-0.054984182 0.024128303 0.27342534
-0.054936498 0.024080884 0.27342737
-0.054898869 0.024084022 0.27342808
-0.054850068 0.024035512 0.27343461
-0.054823078 0.024038525 0.27343541
-0.054768641 0.024026826 0.27344036
-0.054709174 0.024069136 0.27343383
-0.054666765 0.024039725 0.27343744
-0.054623734 0.024027379 0.27343601
-0.054570064 0.023995094 0.27344224
0.060580052 0.027614532 0.30684483
0.060580052 0.027614532 0.30684483
0.060580052 0.027614532 0.30684483
0.10377092 0.024154132 0.27189574
0.10380425 0.024200842 0.27188304
0.10381883 0.024219919 0.27186728
0.10383587 0.024234829 0.27185172
0.10385588 0.024180293 0.27185982
0.10388626 0.024107711 0.27186748
0.10390519 0.024072438 0.27186182
0.10395323 0.024016183 0.27184913
0.10400295 0.023844253 0.27187818
0.10404494 0.023750361 0.2719028
0.10409702 0.02364728 0.27193224
0.10417698 0.023617696 0.27192038
0.10422464 0.023571357 0.27192906
0.10427502 0.023629881 0.27188876
0.10435918 0.023663681 0.27185297
-0.12964436 0.028496124 0.30936801
-0.12963511 0.028434489 0.30937392
-0.12961265 0.028535567 0.30933809
-0.12961267 0.028535569 0.30933809
-0.12961264 0.028535567 0.30933809
-0.12961262 0.028535567 0.30933809
-0.12959932 0.028586417 0.309315
-0.055269707 0.024903037 0.27335042
-0.055212632 0.024890691 0.27334023
-0.055151168 0.024875646 0.273332
-0.055095505 0.024795808 0.27333125
-0.055049773 0.024782455 0.27332485
-0.055004314 0.024694759 0.27333546
-0.054975767 0.024662038 0.27333733
-0.054927383 0.024614904 0.27333945
-0.054878775 0.024566051 0.27334273
-0.054835174 0.024570031 0.27333838
-0.054788645 0.024591582 0.27333748
-0.054732114 0.02459741 0.27334055
-0.054679524 0.024554634 0.27334526
-0.054629184 0.024556901 0.27334458
-0.054557383 0.024524642 0.27334991
0.06053194 0.028355287 0.30674621
0.060530633 0.028552176 0.30671319
0.060539614 0.028453669 0.30672029
0.10376889 0.024696793 0.27180308
0.103761 0.024716377 0.27182356
0.10377851 0.024681842 0.27180448
0.10379528 0.024683015 0.27179962
0.10381771 0.024664657 0.27177754
0.10384101 0.024608968 0.27177957
0.10385101 0.024589736 0.27177876
0.10389498 0.02448453 0.27177066
0.1039172 0.024461284 0.27175871
0.10398309 0.024322994 0.27174965
0.10400756 0.024247928 0.27176017
0.10409886 0.024184084 0.27174988
0.10415079 0.024162453 0.27174455
0.10422501 0.024146862 0.27172148
0.10430882 0.02414917 0.27169976
-0.12962517 0.029060578 0.3092387
-0.12960926 0.029052604 0.30922928
-0.12960926 0.029052602 0.30922931
-0.12959096 0.029099651 0.30920383
-0.12959096 0.029099649 0.3092038
-0.12959096 0.029099649 0.30920377
-0.12959096 0.029099645 0.30920377
-0.055297852 0.025460145 0.27327281
-0.055223454 0.025412194 0.27326053
-0.055173803 0.025393663 0.27325743
-0.055119969 0.025381707 0.27325195
-0.05507651 0.025332812 0.27324942
-0.055030134 0.025244787 0.27325684
-0.054995954 0.025229439 0.27325377
-0.054951679 0.025164425 0.27325547
-0.054911111 0.025131997 0.27325705
-0.054868083 0.025135918 0.2732521
-0.054819006 0.025104415 0.27325299
-0.054762274 0.025105558 0.27325463
-0.054711033 0.025062414 0.27326137
-0.054644812 0.025053581 0.27326089
-0.054578699 0.025024245 0.2732648
0.060473226 0.0291848 0.30662745
0.060475841 0.029279571 0.30660897
0.060483921 0.029183082 0.30661371
0.1037301 0.025178067 0.27175573
0.10373227 0.025124833 0.2717658
0.10373814 0.025125863 0.27176055
0.10374766 0.025146049 0.27175251
0.10376456 0.025109774 0.27175397
0.10378464 0.025124798 0.27173245
0.10379951 0.025122844 0.27172235
0.10384601 0.025039319 0.27167234
0.10386996 0.025016068 0.2716606
0.10391186 0.024994867 0.27161917
0.10396071 0.024850206 0.27161852
0.1040079 0.024830958 0.27159172
0.10410102 0.024700111 0.27158505
0.104196 0.024634788 0.27157956
-0.12958829 0.02961087 0.3090983
-0.12958831 0.029610876 0.3090983
-0.12958831 0.029610874 0.30909833
-0.12957537 0.029661844 0.30907714
-0.12957539 0.029661844 0.30907711
-0.12957539 0.02966184 0.30907711
-0.055392642 0.026007121 0.2732043
-0.055314064 0.026001625 0.27319661
-0.055251315 0.025968162 0.27318835
-0.055191044 0.025935968 0.27318215
-0.055144094 0.025919016 0.27318016
-0.055110529 0.025901938 0.27317533
-0.055048704 0.025819413 0.27317289
-0.055017572 0.025762644 0.27318329
-0.054977696 0.025715183 0.27317983
-0.054945257 0.025717258 0.2731804
-0.054893382 0.02568657 0.27317408
-0.054852769 0.025672762 0.27317461
-0.054799084 0.025656262 0.27317765
-0.054732684 0.025660271 0.27317399
-0.054670516 0.025587829 0.2731832
-0.054606061 0.02554033 0.27319178
0.060360637 0.030216955 0.30639985
0.060377147 0.030214632 0.30638152
0.060376346 0.030234573 0.30634409
0.10367602 0.025686795 0.27174985
0.10367391 0.025697367 0.27177349
0.10368761 0.025689647 0.27173758
0.10370927 0.025652839 0.27172509
0.10372327 0.02564973 0.27171278
0.10373569 0.025616316 0.27169919
0.10377622 0.025572969 0.27163374
0.10380659 0.025611334 0.27159408
0.10384684 0.025543036 0.27155387
0.10388011 0.025520423 0.27152362
0.10390634 0.02542679 0.27152416
0.10395836 0.025373476 0.27150244
0.10404605 0.025284437 0.27145186
-0.1295865 0.030174013 0.30900639
-0.12956719 0.030216554 0.30897906
-0.12956721 0.030216556 0.30897909
-0.12956722 0.03021656 0.30897909
-0.12956722 0.030216562 0.30897909
-0.12956722 0.030216562 0.30897909
-0.055418439 0.026578771 0.27311707
-0.055341218 0.026555646 0.27311713
-0.055278089 0.026503414 0.27311623
-0.055216361 0.026471676 0.27311099
-0.055160526 0.026458923 0.27310342
-0.055129763 0.026472479 0.27309763
-0.055084549 0.026406191 0.27309793
-0.055053484 0.026386453 0.27310172
-0.054996416 0.026322111 0.27310365
-0.054964766 0.026305607 0.27310631
-0.054916959 0.026257515 0.2731038
-0.054869831 0.026260464 0.27310196
-0.05482069 0.02622743 0.27310449
-0.054768279 0.026179466 0.27310765
-0.054709688 0.026134165 0.27311665
-0.054633737 0.026074998 0.27312937
0.060289972 0.030918313 0.30620947
0.060306933 0.030916417 0.30619481
0.06030573 0.03093856 0.30615947
0.10363096 0.026178725 0.27175614
0.10363933 0.026162494 0.27175292
0.10364708 0.026163833 0.27174556
0.10366517 0.026170058 0.27171257
0.10368379 0.026153468 0.27168822
0.10370752 0.026070088 0.27166232
0.10374571 0.02606402 0.27159283
0.10377666 0.02607646 0.27153251
0.1038144 0.026029687 0.27148658
0.10385542 0.026052523 0.27143732
0.10389438 0.025949577 0.27142736
0.10393826 0.025846671 0.271424
0.1040097 0.025793621 0.27139017
0.10410687 0.025716607 0.27132422
-0.12959769 0.030782582 0.30892777
-0.12958866 0.030725541 0.30893466
-0.12958866 0.030725542 0.30893466
-0.12958866 0.030725541 0.30893463
-0.12958866 0.030725542 0.30893466
-0.12958865 0.030725548 0.30893466
-0.055459354 0.027170533 0.27302164
-0.055372745 0.027086884 0.27303204
-0.055303302 0.027055571 0.27303281
-0.055244904 0.027029496 0.27303439
-0.055186089 0.027011722 0.27302787
-0.055161864 0.027009154 0.27302673
-0.055110354 0.026959475 0.27302629
-0.055079505 0.026939951 0.2730312
-0.055032991 0.02689073 0.27303648
-0.054998782 0.026893076 0.27303803
-0.054952797 0.026828684 0.27304047
-0.054898165 0.026813893 0.273038
-0.054852009 0.026761597 0.27304226
-0.054797634 0.026732948 0.27304435
-0.054748576 0.026698211 0.27305612
-0.054666739 0.026657281 0.27306703
