# .PCD v0.7 - Point Cloud Data file format
VERSION 0.7
FIELDS x y z
SIZE 4 4 4
TYPE F F F
COUNT 1 1 1
WIDTH 1391
HEIGHT 1
VIEWPOINT 0 0 0 1 0 0 0
POINTS 1391
DATA ascii
0.064005204 0.017946457 0.26365128
0.064048067 0.017849671 0.26366141
0.064094283 0.017788354 0.26366341
0.064126849 0.017739668 0.26366445
0.064170584 0.017695943 0.26366517
0.064219899 0.017635988 0.26366913
0.064278543 0.017561292 0.26367715
0.064339831 0.017485157 0.26369032
-0.085037917 0.027722297 0.31778601
-0.085007466 0.027692564 0.31777498
-0.084969983 0.0276276 0.31776556
0.063542791 0.018435264 0.2638568
0.063622184 0.018538361 0.26369706
0.063693576 0.018589294 0.2636342
0.063739434 0.01863935 0.26359856
0.063777827 0.018621096 0.26358461
0.063822836 0.018570712 0.26357836
0.063847743 0.018537315 0.26357475
0.063885994 0.018488754 0.26357046
0.063925028 0.018440664 0.26356816
0.063968554 0.01836109 0.2635729
0.064004712 0.018313307 0.26357409
0.064046584 0.018250778 0.26357791
0.064099953 0.018171677 0.2635859
0.064157344 0.018101556 0.26359373
0.064227983 0.017980793 0.26361588
0.064353868 0.017755443 0.26366696
-0.085106321 0.028066777 0.31778291
-0.085063659 0.028003048 0.31777439
-0.085027851 0.027903413 0.31778196
0.063455485 0.018999938 0.26378405
0.063553356 0.019118827 0.26357427
0.063618734 0.019160019 0.26352787
0.063663878 0.019194664 0.26350054
0.063703872 0.019130027 0.26350006
0.063734137 0.019113906 0.26349089
0.063769057 0.019047992 0.26349232
0.063809283 0.018999666 0.26348859
0.063845754 0.018934986 0.26349181
0.063889809 0.018855384 0.26349655
0.063926846 0.018807471 0.26349995
0.063969217 0.018744702 0.26350489
0.064021736 0.018682713 0.26351115
0.064078331 0.018612219 0.26352087
0.064194933 0.018411562 0.26356289
0.064382307 0.018075217 0.26366541
0.08232452 0.022645198 0.29405275
0.083084479 0.022758245 0.29400298
0.08364936 0.022883063 0.29400858
0.084015146 0.022965156 0.29398862
0.084237546 0.022994617 0.29395741
0.084468015 0.023022654 0.29393691
-0.085219726 0.028431121 0.31776705
-0.085154705 0.028434502 0.31775686
-0.08508762 0.028346702 0.31774625
-0.085057773 0.028248779 0.3177633
0.063395634 0.019511871 0.26365337
0.063492417 0.019706959 0.26346669
0.063546136 0.019735312 0.26343244
0.063586943 0.019722497 0.2634216
0.063621566 0.019675005 0.26341963
0.06364961 0.019640172 0.2634165
0.063693933 0.019559694 0.2634193
0.063734829 0.019511512 0.26341796
0.063771345 0.019446809 0.26342225
0.063815281 0.019367166 0.26342791
0.063852169 0.019319123 0.26343301
0.063890286 0.019239921 0.26344049
0.063943058 0.019177545 0.26344812
0.0640027 0.01910544 0.26345959
0.064137608 0.018889347 0.26350468
0.064382009 0.01836757 0.26366794
0.080079235 0.022382483 0.29373774
0.082480162 0.022681752 0.29406765
0.083185047 0.022783816 0.29401943
0.083801389 0.022934025 0.29403067
0.084070034 0.022969289 0.29397309
0.084350497 0.023014562 0.29395032
0.084584326 0.023041639 0.29393318
0.084820606 0.023066379 0.29391095
0.085187562 0.023095952 0.29391348
0.085434601 0.02311218 0.29391214
0.085491009 0.023118671 0.29389289
0.08566279 0.023122178 0.29381806
0.085835077 0.023124238 0.29373047
0.086192988 0.023127409 0.29355827
0.08643923 0.023138585 0.29346243
0.086628512 0.023153257 0.29340106
-0.085392103 0.028804671 0.31774536
-0.085274667 0.028844783 0.31770805
-0.085183702 0.028731506 0.31770247
-0.085145682 0.028672954 0.31770232
-0.085107423 0.02864491 0.31771937
0.063206382 0.019924184 0.26368362
0.063358642 0.020227794 0.26343203
0.063414551 0.020330634 0.2633636
0.063449599 0.020296475 0.26335466
0.063493431 0.020264544 0.26334813
0.063532427 0.020232644 0.26334298
0.063575245 0.020151608 0.26334831
0.063620172 0.020071339 0.26335225
0.063657448 0.020006167 0.26335478
0.063695177 0.019941572 0.26336122
0.063731149 0.019876512 0.26336735
0.063779317 0.019830888 0.26337346
0.063820846 0.019767767 0.26338038
0.063868895 0.019688863 0.26338917
0.063931555 0.019614307 0.26340142
0.064042792 0.019445676 0.2634328
0.064281769 0.018998833 0.26354289
0.080493115 0.022467351 0.29387435
0.082805753 0.022736976 0.29406038
0.083487771 0.022865506 0.2940478
0.083907075 0.022956368 0.29401746
0.084124371 0.022986162 0.29397768
0.084350497 0.023014562 0.29395038
0.084584326 0.023041641 0.29393321
0.084878936 0.023074592 0.2939032
0.085244253 0.023103237 0.29390079
0.085491024 0.023118667 0.29389289
0.085606784 0.023116484 0.29384372
0.085662805 0.023122178 0.29381806
0.086010799 0.023125701 0.29364052
0.086252317 0.023136556 0.29353267
0.086499795 0.023147523 0.29343975
0.086691305 0.023162099 0.29338148
0.086824737 0.023167981 0.29335007
0.08715529 0.0232093 0.2933425
0.087355003 0.023225309 0.29332155
0.087622806 0.023240369 0.29327232
0.091169044 0.023539379 0.29235521
-0.085510619 0.02925686 0.31769669
-0.085438065 0.029287832 0.31766954
-0.085300118 0.029128149 0.31766552
-0.085192136 0.028994765 0.31766248
-0.085180931 0.029028706 0.3176657
-0.085146539 0.029001215 0.31768531
-0.085101731 0.028885031 0.31770271
0.063245207 0.020873252 0.26333925
0.063302681 0.020875571 0.26331377
0.063332237 0.020842435 0.26329297
0.063373543 0.020808717 0.26328653
0.063412227 0.020806154 0.26327643
0.063448668 0.020758647 0.26327533
0.063491851 0.020677814 0.26328096
0.063530654 0.020614099 0.2632837
0.063577108 0.020533824 0.26328868
0.06360469 0.020503521 0.26329359
0.063648872 0.020422379 0.263302
0.063693054 0.020340776 0.2633107
0.063742921 0.020262608 0.26331946
0.063788444 0.020215081 0.26332548
0.063847132 0.020184303 0.26333037
0.063958287 0.019987442 0.26335803
0.06414365 0.019652018 0.2634182
0.083174229 0.02281503 0.29407322
0.083644167 0.022904906 0.29405203
0.08396174 0.022967322 0.29401261
0.084180541 0.022996437 0.29397339
0.084408298 0.023024293 0.2939474
0.084642984 0.023050729 0.29392961
0.084936596 0.023087682 0.29389641
0.085244261 0.023103237 0.29390079
0.085417494 0.023108903 0.29384634
0.085662797 0.02312218 0.29381803
0.085835092 0.023124238 0.29373053
0.086010799 0.023125703 0.29364052
0.086252317 0.023136556 0.2935327
0.086499795 0.023147527 0.29343981
0.086755626 0.023177894 0.29340261
0.087018706 0.0232039 0.29337218
0.087221988 0.023217829 0.29332733
0.087491117 0.023237843 0.29328978
0.087882027 0.023277767 0.29325062
0.088268399 0.023294702 0.29316872
0.088904798 0.023357289 0.29302034
0.089469463 0.023407478 0.29286501
0.09003415 0.023457523 0.29269686
0.090600811 0.023507947 0.29252288
0.091178961 0.023556555 0.29234582
0.091813549 0.023600727 0.29215571
0.092501856 0.023656573 0.2919367
0.093248405 0.023682289 0.29169807
0.093944371 0.023706242 0.29145795
0.094752274 0.023746695 0.29113829
0.095438525 0.023802591 0.29086527
-0.085603982 0.029614171 0.31765744
-0.085561745 0.029668782 0.31764731
-0.085485429 0.029642036 0.31764033
-0.08536464 0.029461533 0.3176277
-0.085257404 0.029302461 0.31763336
-0.085203327 0.029284365 0.31764069
-0.085193135 0.029318828 0.31764567
-0.085176602 0.029225871 0.31766671
0.063141599 0.021565743 0.26322833
0.063202605 0.021447413 0.26322335
0.063252009 0.021383561 0.26321948
0.063305356 0.021366484 0.26320767
0.063328192 0.021351272 0.2632027
0.063364677 0.021283189 0.26320559
0.063407861 0.02120246 0.2632103
0.063446768 0.021138852 0.26321265
0.063493125 0.021058692 0.26321715
0.063520424 0.021028461 0.26322222
0.063565075 0.02094912 0.26323152
0.063613549 0.020902026 0.26323599
0.063665137 0.020804057 0.26324606
0.063716814 0.020741234 0.26325178
0.063768327 0.020712212 0.26325279
0.06384784 0.020589339 0.26326427
0.083696365 0.022924159 0.29406053
0.083961755 0.022967322 0.29401258
0.084180549 0.022996435 0.29397339
0.084408298 0.023024293 0.29394737
0.084642991 0.023050729 0.29392961
0.084936582 0.023087682 0.29389641
0.085170403 0.023088424 0.29384914
0.085417494 0.023108903 0.29384634
0.085662797 0.02312218 0.29381803
0.085835092 0.023124238 0.2937305
0.086010806 0.023125704 0.29364052
0.086252317 0.023136556 0.2935327
0.086564131 0.02316355 0.2934618
0.086820044 0.023189571 0.29342109
0.087082312 0.023211036 0.2933836
0.087346025 0.023240091 0.29334852
0.087676376 0.02326658 0.29330963
0.087942652 0.023284415 0.29325101
0.088454485 0.023331145 0.29314464
0.088961996 0.023371775 0.2930108
0.089525618 0.023422087 0.29285008
0.090090021 0.023472464 0.29267928
0.090600826 0.023507949 0.29252291
0.091178954 0.023556557 0.29234582
0.091813549 0.023600729 0.29215562
0.092501864 0.023656573 0.29193667
0.093253866 0.023701817 0.29169595
0.09400887 0.023718145 0.2914362
0.094757982 0.023769563 0.29114667
0.095497876 0.023817156 0.29084206
0.096227325 0.023884812 0.29054588
0.096955024 0.023955159 0.29024607
0.09754543 0.024014302 0.28999054
0.09813688 0.024054432 0.28972143
0.098723009 0.024109967 0.28945369
0.099306665 0.024165193 0.28918454
0.099873401 0.024213068 0.28887948
0.10037773 0.024268106 0.28861251
0.1008383 0.024310803 0.28838578
0.10124033 0.024356391 0.28820091
0.10181395 0.024414584 0.2879647
0.10238667 0.02448811 0.28775418
0.10289415 0.024546444 0.28759614
0.10339809 0.024603803 0.28745896
0.10394855 0.024659136 0.28732109
0.10443326 0.024711564 0.28718862
0.10496502 0.024762737 0.28702587
0.10547704 0.024831859 0.28685588
-0.085701905 0.029912487 0.31763735
-0.08565104 0.029990481 0.31762534
-0.085624859 0.030017925 0.31761006
-0.085532889 0.029965265 0.31760469
-0.085439086 0.029809048 0.31760183
-0.085318141 0.029667264 0.31759882
-0.085306019 0.029668044 0.3176057
-0.085284278 0.029672701 0.31761608
-0.08527068 0.029581185 0.31763637
0.063053422 0.022049384 0.26315716
0.063121378 0.021955717 0.26315397
0.063172191 0.021925503 0.26314324
0.063220173 0.021909015 0.26312938
0.063259855 0.021843933 0.26312873
0.063293539 0.021777574 0.26313233
0.063326612 0.021711716 0.26313654
0.063368037 0.021645542 0.26313609
0.063419975 0.021582682 0.26313809
0.063439265 0.021568574 0.2631405
0.063488171 0.021505378 0.26314628
0.063540392 0.021445533 0.26314908
0.063588485 0.021414049 0.2631475
0.063636951 0.021333694 0.2631546
0.063694671 0.021253405 0.2631591
0.063755132 0.021177435 0.2631633
0.085113019 0.023095377 0.2938596
0.085417487 0.023108903 0.29384634
0.085662797 0.02312218 0.29381803
0.085835069 0.023124238 0.2937305
0.085894786 0.023129242 0.29370087
0.086198308 0.023156647 0.29361144
0.086506687 0.023178814 0.29352811
0.086943656 0.023212375 0.29344448
0.087266766 0.023240412 0.29340619
0.087470509 0.02325397 0.29335943
0.087736838 0.023273278 0.29331046
0.088121153 0.023299595 0.29323643
0.088513426 0.023337651 0.29313731
0.08907786 0.023389015 0.29298842
0.089640372 0.023439748 0.29282033
0.090204857 0.02349088 0.29264623
0.090657219 0.023519369 0.29250544
0.091234416 0.02356812 0.29232582
0.091868833 0.023612484 0.292133
0.092558295 0.023664767 0.29191309
0.093253873 0.023701815 0.29169595
0.094011404 0.023736956 0.29143614
0.094697893 0.023772651 0.29117346
0.095495835 0.023838226 0.29084927
0.096283361 0.023902252 0.29052311
0.09694849 0.023977896 0.29025894
0.097597174 0.024030009 0.28996471
0.098255016 0.024078157 0.28967845
0.098840721 0.024133619 0.28941074
0.099353112 0.024174809 0.28915006
0.099811643 0.024216762 0.28891629
0.10037774 0.024268104 0.28861251
0.1007774 0.024313543 0.28842205
0.10134643 0.024374293 0.28816232
0.10191985 0.024431743 0.28793234
0.10249162 0.024504164 0.28772557
0.10305076 0.024565255 0.28755686
0.10355256 0.024621069 0.28742096
0.10404725 0.024675168 0.28729358
0.10452989 0.024726385 0.28715953
0.10510376 0.024784723 0.28697836
0.10565817 0.024863187 0.28679442
0.10605448 0.024910914 0.28665215
0.10648859 0.024960389 0.28648904
0.10682389 0.025011163 0.28635901
-0.085770547 0.03031078 0.31759143
-0.085730538 0.030362627 0.31759056
-0.085671999 0.030391457 0.31756538
-0.08561293 0.030337218 0.31756747
-0.085499145 0.030186119 0.31756476
-0.085423566 0.030030163 0.31757101
-0.085389338 0.030045955 0.31756565
-0.085392229 0.030035399 0.31758824
-0.085355088 0.029928677 0.3176049
0.06294436 0.022631615 0.26306432
0.063033938 0.022531318 0.26306883
0.063083611 0.022497501 0.26305678
0.063131072 0.022450313 0.26304859
0.063175619 0.02238488 0.26304492
0.063219115 0.02231887 0.26304361
0.06325119 0.022252904 0.26304695
0.063291304 0.022186667 0.26304752
0.063337386 0.022121841 0.26304895
0.063372776 0.022091473 0.26304957
0.063414849 0.022045322 0.26305059
0.063457049 0.022017999 0.26304546
0.063508801 0.02195745 0.2630457
0.063562095 0.021892065 0.26304555
0.063620418 0.021841604 0.26303944
0.08566279 0.02312218 0.293818
0.085778691 0.02312812 0.29375976
0.085835069 0.023124237 0.29373053
0.086139984 0.023154907 0.29368725
0.086386137 0.023176629 0.29361844
0.086812072 0.023210013 0.293515
0.08720126 0.023239981 0.29342264
0.087587386 0.023275772 0.29336026
0.087854192 0.023290494 0.29330477
0.088180199 0.023310423 0.29323381
0.088746071 0.023363717 0.29309571
0.089185983 0.023406925 0.29297552
0.089681737 0.023457613 0.29283261
0.090258799 0.023496533 0.2926482
0.090714805 0.023526959 0.2924892
0.094760098 0.02378648 0.29115397
0.095561266 0.023852993 0.29083562
0.096350878 0.023917668 0.29051164
0.097015388 0.023989575 0.2902436
0.097664401 0.024042062 0.28994894
0.098303877 0.024092929 0.2896491
0.098840721 0.024133621 0.28941071
0.099353105 0.024174808 0.28915
0.099811643 0.024216762 0.28891626
0.10031702 0.024271417 0.28865081
0.10077739 0.024313543 0.28842205
0.10139979 0.024379207 0.28814211
0.10197339 0.024436411 0.28791577
0.10259631 0.024515923 0.28769436
0.10310153 0.024572253 0.28754061
0.1036024 0.024627497 0.28740457
0.10409595 0.024680991 0.28727636
0.10457733 0.024731589 0.28714094
0.10514954 0.024796663 0.2869671
0.10570288 0.024877617 0.28678322
0.10614362 0.024928289 0.28662175
0.10657855 0.024977108 0.28646258
0.10700921 0.025024476 0.28630972
0.10729349 0.025070356 0.28619376
0.10771481 0.025115514 0.28604966
0.11050058 0.025428487 0.28499654
0.11088855 0.02547605 0.28483316
0.11131797 0.025530005 0.28464988
0.11178771 0.025585029 0.28445098
0.11221336 0.025632227 0.2842671
0.11268289 0.025685662 0.28406495
0.11319965 0.025733514 0.28385192
-0.085833192 0.030675327 0.31753939
-0.085795105 0.030726749 0.31753951
-0.085740879 0.030755619 0.3175202
-0.08566238 0.030679222 0.31752259
-0.085566506 0.03049843 0.31752649
-0.08548934 0.030373342 0.31753296
-0.085481383 0.030405084 0.31753254
-0.085469976 0.030406792 0.3175472
-0.085465237 0.03031617 0.31756911
0.062839925 0.023264531 0.26293769
0.06292069 0.0231265 0.26296154
0.062997818 0.023052288 0.26295927
0.063046016 0.022986738 0.26295483
0.063091651 0.022937695 0.26294574
0.063134715 0.022855606 0.26294956
0.063171789 0.022788882 0.26295066
0.063221157 0.022725906 0.26295006
0.063266046 0.022661112 0.2629506
0.063297205 0.022613669 0.26295185
0.063338988 0.02256632 0.26295021
0.063376062 0.022587847 0.26293236
0.063424863 0.022527693 0.26293126
0.063473284 0.022485936 0.26292607
0.063532218 0.022477329 0.26289618
0.099422269 0.024184419 0.28913593
0.099811628 0.024216762 0.28891626
0.10031702 0.024271417 0.28865078
0.1007774 0.024313541 0.28842205
0.10145325 0.024387948 0.28812411
0.10202599 0.024444623 0.28789881
0.10264665 0.02452684 0.28767645
0.10309696 0.024585435 0.28752893
0.10359841 0.024640555 0.2873944
0.10414484 0.024690313 0.28726116
0.10467209 0.024756221 0.28711644
0.10524092 0.024819706 0.28694028
0.10574747 0.024884783 0.28676507
0.10618847 0.024935113 0.28660533
0.10662389 0.024983659 0.28644848
0.10705418 0.025030568 0.28629547
0.10729349 0.025070356 0.28619373
0.10771481 0.025115518 0.28604966
0.10813043 0.025177507 0.28588578
0.10863461 0.025235115 0.2857199
0.10917446 0.025304919 0.28552625
0.10978614 0.025353827 0.28531712
0.11011625 0.025398236 0.28516749
0.11054198 0.025447637 0.28498107
0.11097157 0.025499783 0.28479978
0.11135904 0.02554463 0.28463477
0.11178707 0.025596999 0.28445268
0.11221309 0.025643511 0.28426939
0.1126819 0.025693109 0.28406325
0.11323678 0.025751505 0.28383049
0.11379857 0.025811607 0.28360972
0.11436644 0.025873229 0.28339788
0.11488961 0.025921337 0.28320235
0.1155115 0.025982173 0.28299189
0.11619468 0.026033688 0.28280643
0.11657409 0.026061295 0.28273702
0.11697502 0.026092861 0.28263342
-0.085897669 0.031057436 0.31748706
-0.085844867 0.031111127 0.31746742
-0.0857981 0.031113578 0.31746519
-0.085721649 0.031017412 0.31746641
-0.085641876 0.030892104 0.31747696
-0.085584715 0.03079192 0.31748602
-0.085517168 0.030728329 0.31749326
-0.085515827 0.030697845 0.31750312
-0.085486934 0.030645115 0.31752506
0.062739462 0.023848839 0.262817
0.062813744 0.023724355 0.26282388
0.062893018 0.023609689 0.26284391
0.062961295 0.023553023 0.26284039
0.063005596 0.023471098 0.26284322
0.063050896 0.023405667 0.26284364
0.06309057 0.023340249 0.26284626
0.063144974 0.023259891 0.26284915
0.063192785 0.023198858 0.26284787
0.063230157 0.023150355 0.2628451
0.063265152 0.023103192 0.26284409
0.063307919 0.023073722 0.26283467
0.063342415 0.023082227 0.26281852
0.063405141 0.023096286 0.26276776
0.063477531 0.023053186 0.26273936
0.1020871 0.024473274 0.28786799
0.10259321 0.02452969 0.28768644
0.10314715 0.024599316 0.28751299
0.10371134 0.024666244 0.28736639
0.10420524 0.024719581 0.28724501
0.10472035 0.024768317 0.2871044
0.10528699 0.024830911 0.28692585
0.10579272 0.024895336 0.28675002
0.10623374 0.02494522 0.28659141
0.10662389 0.024983659 0.28644848
0.10700806 0.025033461 0.28630692
0.10733931 0.025076048 0.28617838
0.10771304 0.02512658 0.28603795
0.10813043 0.025177503 0.28588575
0.10867854 0.025242204 0.28570211
0.10926051 0.025315169 0.28549346
0.10982643 0.025362445 0.28529856
0.11020216 0.025417162 0.28513268
0.11062745 0.025466489 0.28494757
0.11105662 0.025518551 0.2847653
0.1114436 0.025562171 0.28460589
0.11187086 0.025613567 0.28442049
0.11229577 0.025664544 0.2842316
0.11276541 0.025714351 0.28402728
0.11327885 0.025776671 0.28381503
0.11384127 0.025836667 0.28359622
0.11436299 0.025883697 0.28339496
0.11488447 0.025930829 0.28319573
0.11550397 0.02598249 0.28298256
0.11618217 0.026038226 0.28278926
0.11668695 0.026075417 0.28266937
0.11703371 0.026099466 0.2825571
0.11738956 0.02614397 0.28238258
0.11779717 0.02617798 0.28219283
0.11804605 0.026200617 0.28208077
0.11838535 0.026220078 0.28195718
0.11876599 0.026247786 0.28181267
-0.08596617 0.031460539 0.31741893
-0.085910827 0.031514056 0.31741029
-0.085848659 0.031467665 0.31741372
-0.085821241 0.031416129 0.31742415
-0.085734144 0.031301018 0.31742981
-0.085679345 0.031201515 0.31744683
-0.085630223 0.031101134 0.31746218
-0.085570477 0.031036731 0.31747335
-0.085544325 0.030984439 0.31749651
0.062564015 0.024503855 0.26268634
0.062645286 0.024394894 0.26269105
0.062717333 0.024305589 0.26269418
0.062783346 0.024207151 0.26270068
0.062859163 0.024107222 0.26271918
0.06291911 0.024001973 0.26273695
0.062971517 0.023970412 0.26272997
0.063009053 0.023888232 0.26273918
0.063057713 0.023792438 0.26274481
0.063102275 0.023714622 0.2627483
0.063139051 0.023666171 0.26274499
0.063182615 0.023622444 0.26274025
0.063226461 0.023591833 0.26273033
0.063276649 0.023640914 0.262674
0.063325368 0.023667365 0.26263675
0.063394882 0.023614883 0.26261708
0.10426714 0.024728626 0.28723058
0.10473157 0.024785332 0.28710172
0.10534517 0.024863012 0.28690979
0.10583821 0.024909131 0.28673688
0.10627923 0.024958521 0.28657934
0.10666922 0.024993345 0.28643563
0.10701159 0.025042744 0.28629467
0.10734284 0.025080178 0.28617221
0.10767096 0.025129018 0.28604659
0.10821847 0.02519539 0.28584811
0.10880724 0.02526872 0.28564876
0.10938875 0.025322549 0.28547159
0.10986632 0.025373753 0.28528017
0.11024766 0.025422355 0.28511357
0.11067209 0.02547195 0.2849288
0.11105661 0.025518553 0.28476533
0.11148597 0.025570735 0.28458461
0.11191281 0.025622457 0.2843993
0.11233803 0.025673922 0.28421256
0.11284872 0.025735471 0.28399083
0.11331868 0.025787408 0.2837947
0.11388154 0.025847223 0.28357729
0.1144482 0.025905294 0.28336331
0.11496804 0.02595208 0.28316063
0.11549552 0.025988042 0.28297085
0.11616189 0.026046859 0.2827518
0.1166056 0.026079362 0.28262225
0.11703206 0.026117194 0.28246936
0.11745713 0.026156748 0.28231636
0.11770597 0.02617952 0.28220943
0.11808801 0.026200542 0.28206
0.1184723 0.026228253 0.28192341
0.11885484 0.026255691 0.28177962
0.11931949 0.02630426 0.28159991
0.11986866 0.026364056 0.28137431
0.12032407 0.026410345 0.28116348
0.12073136 0.026457656 0.28096014
0.12121685 0.026511798 0.28070503
0.12175049 0.026570017 0.28042823
0.12228522 0.026640022 0.28015593
0.12274797 0.026685996 0.27993825
0.12325244 0.026742082 0.27969536
0.12371716 0.026788523 0.27947083
0.1241357 0.026833788 0.27925962
0.12455069 0.026868727 0.27904585
-0.08605507 0.031756744 0.31739038
-0.086026944 0.031885348 0.31737158
-0.085977562 0.031886071 0.31737757
-0.08591973 0.031840302 0.3173826
-0.085886754 0.031793259 0.3173829
-0.085844927 0.031719092 0.31739604
-0.085784204 0.031651765 0.3174178
-0.085702538 0.031485751 0.31742728
-0.085646562 0.031361051 0.31744772
-0.085616961 0.031283971 0.31746173
-0.085535809 0.031144055 0.31749904
0.062485009 0.025038246 0.26256371
0.062548108 0.024951074 0.26256508
0.062631905 0.024849553 0.26257411
0.062691845 0.024768153 0.26257473
0.062760599 0.024646008 0.26260224
0.062825933 0.024538847 0.26261836
0.062885001 0.024483882 0.26262504
0.06292101 0.024419166 0.26263151
0.062968872 0.024323495 0.26263785
0.063001998 0.024243116 0.26264632
0.063048191 0.024180671 0.26264468
0.063091956 0.024120046 0.26264521
0.063148916 0.024131216 0.26260507
0.063193686 0.024199022 0.26255056
0.063233308 0.024234569 0.26252097
0.06330546 0.024190446 0.26250336
0.10535784 0.024874466 0.28690732
0.10584926 0.024920758 0.28673133
0.10628774 0.02497031 0.28656986
0.10672083 0.025018139 0.28641191
0.107107 0.02506745 0.28625458
0.10748721 0.025102025 0.28610873
0.10781858 0.025140898 0.28598303
0.10841238 0.025219202 0.28577074
0.10880725 0.025268717 0.2856487
0.10938873 0.025322547 0.28547156
0.10986632 0.025373753 0.2852802
0.11029323 0.025424683 0.28509322
0.11071697 0.025474623 0.28490928
0.11110047 0.025524257 0.28474566
0.11152909 0.025576685 0.28456405
0.11195534 0.025628693 0.28437841
0.11238068 0.025680607 0.28419331
0.11289227 0.025742745 0.28397399
0.11340724 0.025805796 0.2837663
0.11397158 0.025866561 0.28355026
0.11449323 0.025913881 0.28334904
0.11501316 0.025960969 0.28314635
0.11553151 0.026007896 0.28294316
0.11615026 0.026051207 0.28273669
0.11667961 0.02609385 0.28257325
0.11707013 0.026125703 0.28244698
0.11736462 0.02615468 0.28233358
0.11778537 0.026171984 0.28215596
0.11813072 0.02620328 0.28204182
0.1184723 0.026228255 0.28192341
0.11889858 0.026266402 0.281766
0.11940761 0.02631674 0.28156799
0.11994907 0.026378836 0.28133202
0.12036759 0.026414244 0.28114381
0.12081489 0.026472336 0.28091654
0.12129883 0.026525442 0.28065696
0.12178839 0.026580129 0.28040048
0.12236491 0.026654467 0.28010502
0.12282993 0.026700281 0.27989125
0.12329645 0.026746567 0.27967539
0.12376135 0.026792703 0.27945086
0.12422344 0.026838524 0.27921647
0.1246394 0.026880743 0.27899444
0.12518457 0.026925264 0.27870169
0.12573668 0.026973465 0.27841067
0.12612559 0.027002973 0.27822092
0.12647718 0.027041549 0.27806342
-0.086113699 0.032177988 0.317366
-0.086089499 0.032254729 0.3173601
-0.086042456 0.032255381 0.31736547
-0.085987464 0.032209687 0.3173683
-0.085977621 0.032183312 0.31737146
-0.085910045 0.032117214 0.31738144
-0.085870348 0.032046564 0.31738582
-0.085815415 0.031978894 0.31740803
-0.085717499 0.03182742 0.317422
-0.085672073 0.031671658 0.31744266
-0.085589148 0.031510212 0.31747028
0.062404647 0.025514854 0.26245838
0.062475041 0.025432218 0.26246008
0.062535271 0.025368987 0.26246256
0.062604465 0.025297454 0.26246861
0.062657595 0.025168438 0.26249215
0.062723726 0.02506119 0.26251084
0.062795378 0.024961969 0.26253104
0.06283439 0.024914622 0.26253128
0.062877201 0.024819557 0.26254117
0.062921263 0.024742089 0.26254612
0.062957585 0.024693806 0.2625443
0.063003801 0.024643699 0.26253369
0.063056774 0.024652822 0.26249421
0.063084759 0.024770323 0.26244235
0.063147359 0.024740174 0.26242414
0.063213788 0.024684379 0.26241568
0.10991195 0.025384769 0.28526396
0.11033694 0.025435673 0.2850742
0.11080463 0.025485564 0.28486824
0.11123125 0.025538757 0.284684
0.11161358 0.025591522 0.28452188
0.11203972 0.025644353 0.28433853
0.11246589 0.025697302 0.28415826
0.1130226 0.025771214 0.2839303
0.11349507 0.025824599 0.28373837
0.11401623 0.025871953 0.28353369
0.11453813 0.025919631 0.28333306
0.11510444 0.025970574 0.28311694
0.11567187 0.026019724 0.28290585
0.11619837 0.026055627 0.28272632
0.11667307 0.026090018 0.28256351
0.11705597 0.026127269 0.28241864
0.11744282 0.026158512 0.2822822
0.11778536 0.026171986 0.28215596
0.11813073 0.02620328 0.28204185
0.11851603 0.026230879 0.28190577
0.11894275 0.026268801 0.28174859
0.11948959 0.026331849 0.28153023
0.11999267 0.026385713 0.2813141
0.12044673 0.026431389 0.28109899
0.12089403 0.026489509 0.28087151
0.12134046 0.026530832 0.280633
0.12186673 0.026597628 0.28034776
0.1223649 0.026654467 0.28010502
0.12287191 0.026707377 0.27986854
0.12333956 0.026753584 0.27965468
0.12380486 0.026799476 0.2794306
0.12426667 0.026844902 0.27919519
0.12476122 0.026901159 0.27891827
0.12526247 0.026949508 0.27864453
0.12573661 0.026980201 0.27841064
0.12608317 0.027007604 0.27824146
0.12652692 0.027050279 0.27804801
0.12697747 0.027091071 0.27786574
0.12756316 0.027160894 0.27763215
0.12806161 0.027216902 0.27744284
0.12856677 0.02726925 0.27726609
0.12907176 0.027321571 0.27709576
0.12952796 0.027374046 0.27693981
-0.086178504 0.032582242 0.31735709
-0.086148493 0.032620847 0.31735834
-0.086103208 0.032621261 0.31736171
-0.086070083 0.032597721 0.31736469
-0.086034134 0.03257611 0.3173666
-0.085976228 0.032482948 0.31736881
-0.085930511 0.03244083 0.31737715
-0.085865021 0.032327734 0.31738496
-0.085811578 0.032209352 0.31740251
-0.085730277 0.032052275 0.31742233
0.062323116 0.026024524 0.2623522
0.062397081 0.025945328 0.26235676
0.062452525 0.025869478 0.26236439
0.06251125 0.025788983 0.26237339
0.062567048 0.0256267 0.26240548
0.062623054 0.025550276 0.26241186
0.062681407 0.02547775 0.26242211
0.062743247 0.025409497 0.26243785
0.062787972 0.025331439 0.26244184
0.06283173 0.025254114 0.26244742
0.062864058 0.025173752 0.26245719
0.062910058 0.025216969 0.26241124
0.062969014 0.025177166 0.26238555
0.063009799 0.025211956 0.26235199
0.063054711 0.0252271 0.26233259
0.06312146 0.02517035 0.26232198
0.11268426 0.025728125 0.28407443
0.11320042 0.025794029 0.28386736
0.11358404 0.025838014 0.2837083
0.11410549 0.025886042 0.28350422
0.11462756 0.025934357 0.28330374
0.11519545 0.02598336 0.28308895
0.11567187 0.026019724 0.28290585
0.11614933 0.026056534 0.28273413
0.11675915 0.026103044 0.28252867
0.11709587 0.026140865 0.28239748
0.11748854 0.026163612 0.28227404
0.11783184 0.026188033 0.28215218
0.11817332 0.02621107 0.28203118
0.11856025 0.026236264 0.28189027
0.11907068 0.026291963 0.28170082
0.11953363 0.026339155 0.28151393
0.12007304 0.026403019 0.28127289
0.12052637 0.026448557 0.28105569
0.12093499 0.02649772 0.28084779
0.12141933 0.026550589 0.28058729
0.12194617 0.026617534 0.28030285
0.12240573 0.026661644 0.28008044
0.122913 0.026716949 0.27984509
0.12338202 0.026763141 0.27963361
0.12388684 0.026819972 0.2793878
0.12441953 0.026884783 0.27909234
0.12487448 0.02692979 0.27883568
0.12529817 0.026960993 0.27861199
0.12572862 0.026990335 0.27839819
0.12612814 0.027030045 0.27822056
0.1265727 0.027071884 0.27802795
0.12706713 0.027120104 0.27782738
0.12765417 0.027188459 0.27760085
0.12820143 0.027252225 0.27740219
0.12861583 0.027287947 0.27725816
0.12907684 0.027330196 0.27710581
0.12957378 0.027380226 0.2769264
0.13006078 0.027438976 0.27673498
0.13054149 0.027501751 0.27653924
0.13106668 0.027561568 0.27633208
0.1315936 0.02762185 0.27612996
0.13212368 0.027682841 0.2759349
0.13270494 0.0277439 0.27573836
0.13315912 0.027798267 0.2755954
0.1334786 0.027844841 0.27548891
0.13388467 0.027917102 0.27534348
0.13435419 0.027962551 0.27523169
0.13490686 0.028033236 0.27510399
-0.086271957 0.033076975 0.31734198
-0.086222105 0.033066034 0.3173365
-0.086167514 0.033056568 0.3173421
-0.086146787 0.033019602 0.31734869
-0.086077131 0.032913305 0.31735504
-0.086035557 0.032844406 0.31735456
-0.085992269 0.032802317 0.31736204
-0.085950144 0.032706752 0.31737024
-0.08585912 0.032555655 0.31737712
-0.085801154 0.032414958 0.31739655
0.062262017 0.026507599 0.26225719
0.062319901 0.026416529 0.26226568
0.06236859 0.026349647 0.26227617
0.062417217 0.026247593 0.2622937
0.062487837 0.026126586 0.26231253
0.062524438 0.026076887 0.26231354
0.062593542 0.02599019 0.26232773
0.062644184 0.025930962 0.26233381
0.062697969 0.02582575 0.26235244
0.062747732 0.025775155 0.26233619
0.062787145 0.025740204 0.26232329
0.062822849 0.025725057 0.26230735
0.062884502 0.025699947 0.26227382
0.062940016 0.025657002 0.26226279
0.06298019 0.025632169 0.26224643
0.063057996 0.02559224 0.26223272
0.11667615 0.026106168 0.28255951
0.11715186 0.026140101 0.28240579
0.11748987 0.026171783 0.28227699
0.11779267 0.026187547 0.2821807
0.11817435 0.026216324 0.28204015
0.11855874 0.026244225 0.28189591
0.11911212 0.026310531 0.28168765
0.1195731 0.026357654 0.28149587
0.12003004 0.026404126 0.2812911
0.12056737 0.026459767 0.28103361
0.12101273 0.026517093 0.280801
0.12149762 0.026570119 0.28054053
0.12202503 0.026637213 0.2802569
0.12248573 0.026681615 0.28003627
0.12295319 0.026727652 0.27982619
0.12342165 0.026774073 0.27961311
0.1239263 0.026828449 0.27936539
0.12448607 0.026904503 0.27903181
0.12494908 0.026945017 0.27878019
0.12529819 0.026960993 0.27861202
0.12572798 0.0269958 0.27839664
0.12612812 0.02703004 0.27822056
0.12670422 0.027076161 0.27797106
0.1272895 0.027138552 0.27773458
0.1277436 0.027204359 0.27756587
0.12829211 0.027268404 0.27736983
0.12870672 0.027304264 0.27722755
0.12916607 0.027348975 0.27707395
0.12970561 0.0274099 0.276878
0.13014653 0.027459726 0.27669886
0.13062665 0.027522374 0.27650326
0.13110942 0.027571406 0.27631566
0.13163649 0.027631408 0.27611452
0.13216692 0.027692169 0.27592093
0.13270324 0.02775421 0.27573991
0.13301663 0.027798675 0.275621
0.13360815 0.02787794 0.27544394
0.13388468 0.0279171 0.27534345
0.13444164 0.02798813 0.27521351
0.13504221 0.028058371 0.27508527
0.13559601 0.028132923 0.27497235
0.13623857 0.028215116 0.27485031
0.13685864 0.028295644 0.27469695
0.13728517 0.028352823 0.27455938
0.13777976 0.028418209 0.27436727
0.13822971 0.028473742 0.27417779
0.1386824 0.028532231 0.27399972
0.13918723 0.028590912 0.27383193
-0.086410441 0.03358667 0.31730434
-0.086361051 0.033533417 0.31731585
-0.086306453 0.033547502 0.31731072
-0.086249955 0.033540867 0.31731135
-0.0861912 0.033423673 0.31731945
-0.086119585 0.033323344 0.31732339
-0.086087391 0.033251077 0.31732726
-0.086028159 0.033190284 0.31733406
-0.085998632 0.033121631 0.31733814
-0.085931212 0.032988686 0.31734577
0.062185183 0.027041217 0.26212883
0.062240276 0.026975904 0.26213413
0.06229407 0.026875872 0.26214981
0.062343605 0.026791956 0.26216388
0.062387034 0.026709184 0.26217419
0.062444154 0.026634382 0.26218581
0.062494062 0.026587605 0.2621817
0.062542863 0.026511677 0.26219466
0.062595986 0.026402498 0.26220903
0.062650904 0.026312422 0.26222154
0.062689349 0.026276352 0.26220629
0.062735282 0.026257928 0.26218361
0.062789455 0.026209185 0.26216775
0.062841542 0.026153054 0.26216441
0.062896915 0.026111837 0.26215118
0.062975407 0.025986286 0.2621657
0.12161418 0.026602132 0.28047666
0.12206671 0.026644845 0.28024101
0.12252744 0.02668958 0.28002033
0.12299418 0.026735792 0.2798081
0.12341671 0.026783081 0.27960837
0.12401902 0.026868777 0.2792733
0.12456026 0.026919603 0.27897847
0.12494908 0.026945015 0.27878019
0.1253721 0.026979549 0.27855644
0.12572798 0.0269958 0.27839664
0.12625436 0.027041253 0.27815604
0.12674929 0.027075797 0.27795264
0.12733331 0.027150216 0.27771804
0.12787746 0.027214285 0.27751002
0.1282921 0.027268408 0.27736983
0.12879744 0.027320478 0.27719638
0.12925501 0.027367629 0.27704158
0.12974854 0.027416963 0.27685788
0.13018951 0.027467171 0.2766794
0.13066964 0.027530225 0.27648449
0.1311954 0.0275905 0.27627835
0.13167927 0.027642598 0.27609551
0.13220978 0.027703697 0.2759015
0.1327457 0.027765987 0.27571911
0.13305883 0.027810955 0.27559912
0.13360815 0.027877938 0.27544397
0.13411441 0.027946975 0.27529094
0.13444167 0.02798813 0.27521351
0.13508882 0.028061248 0.27508017
0.13564247 0.028138164 0.27496836
0.13637409 0.028238986 0.2748253
0.13694261 0.028313242 0.27468002
0.13740611 0.028371207 0.27451971
0.13785881 0.028427249 0.27433485
0.13826674 0.02848519 0.27415934
0.13871969 0.028543361 0.27398214
0.13922526 0.028601883 0.27381602
0.13974874 0.028649241 0.27368379
0.14005962 0.028688343 0.2736074
0.14045693 0.02873663 0.27352029
0.14106144 0.028812513 0.27337423
0.14157288 0.028870972 0.27323252
0.14206868 0.028930116 0.27306378
0.14260574 0.028993884 0.27287439
0.14319022 0.02908127 0.27269274
0.14360474 0.029131284 0.27255976
-0.086698368 0.034327876 0.31727675
-0.086612858 0.034256656 0.31726283
-0.086498894 0.034103155 0.31726637
-0.086435951 0.034025513 0.3172785
-0.086379692 0.03404085 0.31727645
-0.086308077 0.033955034 0.31728736
-0.086252779 0.033878718 0.31728694
-0.086185612 0.033766225 0.31728747
-0.086124599 0.033668514 0.31729573
-0.08608 0.033579879 0.31729919
-0.086059384 0.033558052 0.31730905
-0.086005978 0.033448961 0.31731302
0.062093388 0.027568372 0.26201713
0.062149379 0.027503127 0.26202121
0.062205579 0.027440332 0.2620239
0.062247328 0.027353985 0.2620407
0.062290721 0.027256846 0.26206428
0.062348261 0.027177343 0.26207185
0.062410414 0.027115958 0.26206985
0.062444601 0.027035199 0.262079
0.062484942 0.02695532 0.26208305
0.062540732 0.026864706 0.26209491
0.062587604 0.026797011 0.26209137
0.062634274 0.02676348 0.26207307
0.062679112 0.026706006 0.26207167
0.06273257 0.026663406 0.26205969
0.062787853 0.026603043 0.2620492
0.062858343 0.026502395 0.26204818
0.12792201 0.027223615 0.2774933
0.12837984 0.027278503 0.27733114
0.12884128 0.027321365 0.27717483
0.12929851 0.027371673 0.27702099
0.1297919 0.02742132 0.27683756
0.13027613 0.027485285 0.27664408
0.13075565 0.02754822 0.27644935
0.13123922 0.027596105 0.27625993
0.13176633 0.02765711 0.27605748
0.13225301 0.0277126 0.27588189
0.13283218 0.027786875 0.27568665
0.13314869 0.027827188 0.27556852
0.13365114 0.027887965 0.27542213
0.13424848 0.027970223 0.27526695
0.13471659 0.028014658 0.27516162
0.13513523 0.028066861 0.27507564
0.13577926 0.028168473 0.2749455
0.13637251 0.028249782 0.2748273
0.13694261 0.028313244 0.27468002
0.13748498 0.02838352 0.27448943
0.13793865 0.028433595 0.27430251
0.13839102 0.028490772 0.27411911
0.13871969 0.028543355 0.27398211
0.13918112 0.028603138 0.27382711
0.13969514 0.028663164 0.27367908
0.14013425 0.028710864 0.27357373
0.14054041 0.028750513 0.27349517
0.14105518 0.028819557 0.2733663
0.14160781 0.02888188 0.27321154
0.14206353 0.028933091 0.27305499
0.14264315 0.028997036 0.27285367
0.14318359 0.029077042 0.27267975
0.14364408 0.029134018 0.27254161
0.14401697 0.029172257 0.27241656
0.14443412 0.029221745 0.27229139
0.14484499 0.02927004 0.27215505
0.14504354 0.029294124 0.27206877
0.14532316 0.029336751 0.27194983
-0.086788334 0.034853298 0.31724605
-0.086684741 0.034751277 0.31723925
-0.086574331 0.034666032 0.31723598
-0.086517774 0.034621257 0.31723782
-0.086451389 0.034499485 0.31725204
-0.086390853 0.034394126 0.31725919
-0.08629664 0.034304604 0.31726253
-0.086242564 0.034140628 0.31726727
-0.086164601 0.033928521 0.31727085
-0.086137287 0.033927176 0.31728336
-0.086091243 0.033897571 0.31728077
-0.086077817 0.033900842 0.31729019
-0.086011156 0.033780303 0.31728929
0.062010359 0.028100187 0.26190507
0.062066823 0.028000275 0.26192066
0.062113486 0.027953807 0.26192129
0.062156096 0.027864363 0.26193637
0.062201675 0.02778201 0.26194635
0.062254686 0.027687728 0.26195768
0.062291015 0.027622448 0.26196226
0.062351808 0.027548939 0.26197067
0.062399745 0.027437111 0.26198488
0.062446851 0.027370503 0.26197577
0.062472597 0.027335599 0.26196679
0.062513061 0.027306447 0.26195461
0.062559411 0.027231777 0.26195768
0.062608816 0.027202828 0.26193997
0.062668376 0.027095884 0.26194587
0.12978522 0.027434396 0.2768198
0.1303179 0.027497925 0.27661985
0.13071351 0.027539274 0.27646399
0.13110857 0.027587708 0.27630803
0.13181014 0.027673317 0.27603561
0.13229635 0.027732175 0.27586162
0.13283178 0.02779506 0.27567741
0.13328473 0.027855234 0.27552959
0.13373603 0.02790842 0.27537888
0.13429414 0.027978394 0.27524951
0.13480528 0.028039394 0.27514824
0.13527043 0.028097253 0.27504751
0.13582551 0.028177921 0.27493134
0.13637422 0.028260911 0.27482259
0.13702983 0.028331652 0.27465683
0.137485 0.02838352 0.2744894
0.13802029 0.028450361 0.27426943
0.13851041 0.028516179 0.27406937
0.13884495 0.028564563 0.27393973
0.1392239 0.028614363 0.27381313
0.13965213 0.028664093 0.27368563
0.14013425 0.028710866 0.27357373
0.14066157 0.028776856 0.27345616
0.14109485 0.028829508 0.27335304
0.14164755 0.028886149 0.27319583
0.14210168 0.02893918 0.27303675
0.14272323 0.029013555 0.27281949
0.14322093 0.029082282 0.27265924
0.14372145 0.029146869 0.27250525
0.14409938 0.029189724 0.27239141
0.144474 0.029228982 0.27227479
0.14484499 0.02927004 0.27215502
0.14516391 0.029315671 0.27202395
0.14536184 0.029342584 0.2719284
0.1458066 0.029394716 0.27175748
0.14601073 0.029413221 0.27167457
0.14642161 0.029457891 0.2715221
0.14691059 0.029512571 0.2713308
0.14740171 0.029569266 0.27113187
0.14803237 0.029633194 0.27091771
-0.086885296 0.035394114 0.31722552
-0.086784266 0.03535191 0.31721792
-0.086681835 0.035252254 0.31721631
-0.08659973 0.035127211 0.3172169
-0.086533159 0.035010446 0.31722644
-0.086464696 0.034880102 0.31723973
-0.086420476 0.034783509 0.31724399
-0.08631555 0.034476526 0.31724811
-0.086239606 0.034348935 0.31725061
-0.086178854 0.034293495 0.31725532
-0.086164057 0.034377519 0.31725997
-0.086141467 0.034337889 0.31726038
-0.086107612 0.03432155 0.31726542
0.061937965 0.028572623 0.26179636
0.061979011 0.028553782 0.26178935
0.062036563 0.028490456 0.26178971
0.06207538 0.028391922 0.26180738
0.062106468 0.028275846 0.26184523
0.062164083 0.028210705 0.2618317
0.062210348 0.028131178 0.26184043
0.062246479 0.028067898 0.26184198
0.062301684 0.027959652 0.26186201
0.062337741 0.027896518 0.26186138
0.062382579 0.02780089 0.26187107
0.062420052 0.027756384 0.26186687
0.062461074 0.027710561 0.26185694
0.062506393 0.027651332 0.26185349
0.062568501 0.027590336 0.26184395
0.13062562 0.027532814 0.27649435
0.13559489 0.028152512 0.27495393
0.13623932 0.028255494 0.27483597
0.13698795 0.028323147 0.27466664
0.13760738 0.028405214 0.2744424
0.13805801 0.028459338 0.27425122
0.13854972 0.028535716 0.27404657
0.13892736 0.028581439 0.27390856
0.13926707 0.028623121 0.27379906
0.13965213 0.028664093 0.2736856
0.14013425 0.028710866 0.2735737
0.14066158 0.028776856 0.27345616
0.14109486 0.028829508 0.27335307
0.14168718 0.028892869 0.27318075
0.14213946 0.028947638 0.27301872
0.14267153 0.029016778 0.27282074
0.14325817 0.029090021 0.27263942
0.14372145 0.029146872 0.27250525
0.14418176 0.029207146 0.27236634
0.1445547 0.029248605 0.27224734
0.14488408 0.029276779 0.27213657
0.14524338 0.029332016 0.27199087
0.1453999 0.029350724 0.2719067
0.14580658 0.029394716 0.27175745
0.1460916 0.029429372 0.27164242
0.14646469 0.029476022 0.27150583
0.14683259 0.029513106 0.27136257
0.14744763 0.029577317 0.27111781
0.14795448 0.029633973 0.27093837
0.14868677 0.029717498 0.27071446
0.1491617 0.029765006 0.27055529
0.14937738 0.029783109 0.27045184
0.14984709 0.029828181 0.27027822
0.15002371 0.029846156 0.2702001
0.15027285 0.029875299 0.27011767
0.15070248 0.029923549 0.26995522
0.15113325 0.029972414 0.26978591
0.15170383 0.030020334 0.26955703
0.15226576 0.030076221 0.26929829
-0.087015048 0.03602938 0.31719139
-0.08687938 0.035919227 0.31719047
-0.086796902 0.035815518 0.31720179
-0.086718515 0.035676073 0.31719029
-0.086628966 0.035577103 0.31720668
-0.086584732 0.035463717 0.31721371
-0.086518869 0.035319045 0.31721714
-0.086416408 0.035072785 0.31722304
-0.086338036 0.034920275 0.3172327
-0.086306013 0.034848388 0.31724083
-0.086248502 0.034823023 0.31724775
-0.086248741 0.034916215 0.31725892
-0.086200736 0.034909472 0.31726885
0.061857272 0.029063648 0.26169929
0.061898924 0.029016344 0.26169616
0.061941054 0.028964315 0.26169848
0.061996989 0.028817903 0.26172215
0.062037852 0.028738784 0.26173151
0.062072199 0.028673436 0.26173696
0.062112097 0.028610775 0.26174405
0.062148008 0.028547565 0.26174626
0.062191855 0.028452372 0.2617591
0.062225424 0.028373536 0.26176634
0.062283482 0.028313465 0.26176122
0.06233136 0.028219961 0.26177087
0.062372398 0.028157227 0.26176652
0.062418841 0.028112404 0.26175523
0.062472191 0.028067546 0.2617439
0.13699034 0.028324282 0.2746605
0.13761157 0.028420396 0.27444166
0.13809888 0.028478865 0.2742306
0.13859257 0.028541066 0.27402931
0.13900927 0.028598154 0.27387643
0.1393481 0.02864241 0.27376962
0.13969582 0.028673306 0.27367336
0.14022651 0.028720602 0.27355811
0.14070606 0.028786864 0.27344519
0.1411377 0.028839523 0.27334034
0.14176798 0.028911928 0.2731511
0.14218053 0.028957859 0.27300382
0.14275834 0.029031835 0.27280107
0.14325817 0.029090021 0.27263942
0.14372145 0.029146874 0.27250525
0.14422485 0.029212054 0.27235672
0.14459629 0.029256128 0.27223626
0.14488097 0.029285518 0.2721265
0.14524338 0.029332016 0.27199087
0.14548104 0.029359322 0.27188572
0.1458066 0.029394712 0.27175748
0.1461325 0.029440206 0.27163029
0.14646471 0.029476026 0.2715058
0.14683257 0.029513106 0.27136254
0.14732796 0.029573018 0.27116516
0.14791369 0.029636804 0.27094933
0.14847368 0.029702861 0.27076688
0.14899011 0.029757317 0.27059856
0.14937739 0.029783113 0.27045184
0.14984709 0.029828181 0.27027825
0.15006399 0.029857326 0.27018619
0.15036663 0.029884536 0.27008396
0.15070249 0.029923549 0.26995522
0.15113328 0.029972414 0.26978588
0.15179966 0.030033227 0.26952431
0.15235946 0.030085033 0.26925969
0.15291554 0.030128418 0.26897284
0.15336947 0.03016443 0.2687071
-0.087101318 0.036627021 0.31714845
-0.086971968 0.036502909 0.31715998
-0.086898796 0.036397099 0.31716716
-0.086828724 0.036289804 0.31716558
-0.086768106 0.036160175 0.31716982
-0.086669713 0.035996594 0.31718406
-0.086637177 0.035931412 0.31719643
-0.086553328 0.035744697 0.31719694
-0.086456493 0.035535019 0.31720951
-0.08640366 0.035473138 0.31721437
-0.086372733 0.035539236 0.31722477
-0.086343341 0.035527661 0.3172462
0.061725713 0.029603176 0.26160812
0.061774183 0.029555865 0.26159909
0.061814155 0.029492103 0.26160359
0.061859146 0.029375978 0.2616218
0.061898984 0.029295001 0.26162985
0.061948109 0.029184122 0.26164815
0.061974764 0.029151544 0.26164404
0.06201487 0.029089322 0.26165029
0.062051963 0.029025104 0.26165083
0.06209692 0.028946757 0.26165804
0.062130265 0.028867925 0.26166606
0.062183037 0.028741946 0.26168242
0.062234689 0.028697968 0.26167071
0.06227373 0.028652245 0.26166204
0.062319867 0.028606588 0.26165095
0.062393967 0.028518258 0.26165214
0.13978381 0.028693762 0.27364308
0.14031862 0.028732702 0.27353838
0.14084603 0.028802654 0.27342016
0.141322 0.028856505 0.27330735
0.14190066 0.02892847 0.27311862
0.14226648 0.028971598 0.27297935
0.14275832 0.029031834 0.27280104
0.14334571 0.029109418 0.27262604
0.1438075 0.029164115 0.27248868
0.14422487 0.029212052 0.27235669
0.14459631 0.02925613 0.27223626
0.14492066 0.029295569 0.27211401
0.14524336 0.029332012 0.2719909
0.14560501 0.029373651 0.27185258
0.14584644 0.029405441 0.2717458
0.1461325 0.029440198 0.27163026
0.14650473 0.029482055 0.27149254
0.14687178 0.029519288 0.27134749
0.14732797 0.029573018 0.27116516
0.14791368 0.029636806 0.27094933
0.14843282 0.029692357 0.27077824
0.14899172 0.029752506 0.27058747
0.1494213 0.029786533 0.27043086
0.14984706 0.029828189 0.27027828
0.15010469 0.029865995 0.27017218
0.15049779 0.029904898 0.27003413
0.15073983 0.029935062 0.26993495
0.15117034 0.029984277 0.26976463
0.15183736 0.030045383 0.2695024
0.15240662 0.030086702 0.26924014
0.15295957 0.03013452 0.26895019
0.15341191 0.030169964 0.26868197
0.15389717 0.030211644 0.26837051
0.15437995 0.030255677 0.2680586
0.15486835 0.030301055 0.26776001
0.1553254 0.030337151 0.26750687
0.15579717 0.030376207 0.26728567
0.15624359 0.030404137 0.26711455
0.15663899 0.030446077 0.26695064
0.15717226 0.030486137 0.26673838
0.1578353 0.030536674 0.26647472
0.15831262 0.030565497 0.26626766
0.15874282 0.030592183 0.26606157
0.15900353 0.030610723 0.26592726
-0.087295681 0.037243851 0.31712961
-0.087197192 0.037191115 0.31710714
-0.087042369 0.037021689 0.3171193
-0.08698947 0.036956154 0.31712499
-0.086915471 0.036805268 0.31712729
-0.086876035 0.03674531 0.31713119
-0.086797312 0.03658329 0.31714508
-0.086713664 0.036461949 0.31714824
-0.086665027 0.036368895 0.31715435
-0.086589061 0.036226969 0.31717783
-0.086506754 0.0361191 0.31718016
-0.086484231 0.036137514 0.31720114
-0.086443268 0.036092129 0.31722587
0.061622482 0.030103354 0.26152319
0.061685994 0.030015785 0.26151752
0.061727688 0.029952016 0.2615163
0.061772116 0.029837256 0.26153257
0.061813574 0.029773051 0.26153457
0.061853245 0.029677493 0.26154771
0.061888132 0.029614 0.26155245
0.061924439 0.029550025 0.26155809
0.061965037 0.029488664 0.26156256
0.062002525 0.029424271 0.26156524
0.06203974 0.029377442 0.26156205
0.062089887 0.029268542 0.26157594
0.062143672 0.02920733 0.26156965
0.062191933 0.029149074 0.26156321
0.062236309 0.029086694 0.26155776
0.06229613 0.029013293 0.2615521
0.14334571 0.029109418 0.27262601
0.1438075 0.029164108 0.27248868
0.14426836 0.029214436 0.27234703
0.1446811 0.029263768 0.27221477
0.14496094 0.029303219 0.27210194
0.14528279 0.029342417 0.27197871
0.14568704 0.029387698 0.27183014
0.14588663 0.02941375 0.27173403
0.1462134 0.029452179 0.27160662
0.14654486 0.029485559 0.27147862
0.14687175 0.029519282 0.27134749
0.14736724 0.029576957 0.27114907
0.14787191 0.029637298 0.27096272
0.14847368 0.029702865 0.27076691
0.14903411 0.029758463 0.27056494
0.1495049 0.029803338 0.27039653
0.14993595 0.029837204 0.2702384
0.15014599 0.029872185 0.2701585
0.15053721 0.029913675 0.27001724
0.15077807 0.029944079 0.26991552
0.15120806 0.029993571 0.26974365
0.15187542 0.030054927 0.26948026
0.15245238 0.030093374 0.26921922
0.15300196 0.030142905 0.26892567
0.15345272 0.030177783 0.26865509
0.15393661 0.030221529 0.26834252
0.15441903 0.030265229 0.26803112
0.15490733 0.030310322 0.26773345
0.15536489 0.030346265 0.26748219
0.1558377 0.030385276 0.26726362
0.15632913 0.030415013 0.267077
0.15672846 0.030456947 0.26691622
0.15730359 0.030505255 0.26668647
0.15787674 0.03054506 0.2664564
0.15835382 0.03057364 0.2662499
0.1587428 0.030592185 0.26606157
0.15900356 0.030610723 0.26592726
0.1592216 0.030628141 0.26581305
0.15953857 0.030666372 0.26567611
0.15992208 0.030698981 0.26554927
0.16016164 0.030727379 0.26547047
0.16016164 0.030727388 0.26547045
0.16039327 0.03075628 0.26537654
0.16052674 0.030764233 0.2653133
0.16070971 0.030778764 0.26522675
0.16093925 0.030794526 0.26512012
0.16112649 0.0308157 0.26503727
0.16132033 0.030825816 0.26496974
0.16151574 0.03083761 0.26490849
0.16170864 0.030850403 0.26484686
0.16189609 0.030863749 0.26478016
0.16207664 0.030877514 0.26470643
0.16245538 0.030899059 0.26450807
0.16265701 0.030907309 0.26438406
-0.087354839 0.037820674 0.31704646
-0.087262638 0.037755057 0.31706318
-0.087144092 0.037591215 0.31707123
-0.087074444 0.037491102 0.31707436
-0.08703395 0.037414145 0.31707326
-0.086958624 0.037284568 0.31708524
-0.086907201 0.03716905 0.31710032
-0.086786181 0.036988359 0.31710064
-0.086745173 0.036899801 0.31711546
-0.086713709 0.03678938 0.31713268
-0.086643152 0.036692381 0.31715468
-0.086590394 0.036676619 0.3171739
-0.086524658 0.036635809 0.31719959
0.06152945 0.030613385 0.26142725
