# .PCD v0.7 - Point Cloud Data file format
VERSION 0.7
FIELDS x y z
SIZE 4 4 4
TYPE F F F
COUNT 1 1 1
WIDTH 1346
HEIGHT 1
VIEWPOINT 0 0 0 1 0 0 0
POINTS 1346
DATA ascii
0.13922779 -0.023986956 0.28840426
0.13966151 -0.023960412 0.2880851
0.14009392 -0.023933867 0.28776595
0.14068104 -0.023933867 0.28776595
0.14132041 -0.023942716 0.28787234
0.14201264 -0.023960412 0.2880851
0.14260042 -0.023960412 0.2880851
0.14302957 -0.023933867 0.28776595
0.14340435 -0.023898477 0.28734043
0.14372405 -0.023854237 0.28680852
0.14420217 -0.02383654 0.28659573
0.14473319 -0.023827692 0.28648937
0.14531772 -0.023827692 0.28648937
0.14590225 -0.023827692 0.28648937
0.14648677 -0.023827692 0.28648937
0.1470713 -0.023827692 0.28648937
0.14754617 -0.023809997 0.28627661
0.14796512 -0.023783453 0.28595746
0.1483275 -0.023748059 0.28553191
0.14857718 -0.023694972 0.2848936
0.14876857 -0.023633035 0.28414893
0.14895694 -0.0235711 0.28340426
0.14942291 -0.023553405 0.2831915
0.15005705 -0.023562251 0.28329787
0.15074819 -0.023579948 0.28351063
0.15138343 -0.023588795 0.28361702
0.1517911 -0.023562251 0.28329787
0.15208302 -0.023518011 0.28276595
0.15248765 -0.023491466 0.2824468
0.15306394 -0.023491466 0.2824468
0.1538717 -0.02352686 0.28287235
0.15473926 -0.0235711 0.28340426
0.15549241 -0.023597645 0.28372341
0.15601277 -0.023588795 0.28361702
0.15629776 -0.023544556 0.28308511
0.1565216 -0.023491466 0.2824468
0.15680204 -0.023447227 0.28191489
0.15713969 -0.023411836 0.28148937
0.15747559 -0.023376442 0.28106382
0.15804905 -0.023376442 0.28106382
0.15904279 -0.023438381 0.28180853
0.16016006 -0.023518011 0.28276595
0.16103935 -0.023562251 0.28329787
0.16173874 -0.023579948 0.28351063
0.16213448 -0.023553405 0.2831915
0.16240665 -0.023509163 0.28265956
0.16255398 -0.023447227 0.28191489
0.16263671 -0.023376442 0.28106382
0.16253065 -0.023279116 0.27989361
0.16235781 -0.023172939 0.27861702
0.16261522 -0.0231287 0.27808511
0.067572095 -0.022095246 0.27234042
0.068101145 -0.022086617 0.27223405
0.068629757 -0.022077985 0.27212766
0.069157928 -0.022069354 0.27202126
0.069740206 -0.022077985 0.27212766
0.070295431 -0.022077985 0.27212766
0.07079526 -0.022060724 0.2719149
0.071210481 -0.02201757 0.27138299
0.071595393 -0.021965783 0.27074468
0.072006054 -0.021922629 0.27021277
0.072500244 -0.021905366 0.27000001
0.073051125 -0.021905366 0.27000001
0.073660009 -0.021922629 0.27021277
0.12477678 -0.023899117 0.29457447
0.12519668 -0.023864591 0.29414892
0.12556936 -0.023821438 0.29361701
0.12584844 -0.023761021 0.29287234
0.12603262 -0.023683341 0.29191488
0.12635134 -0.023631558 0.2912766
0.1268529 -0.023614295 0.29106382
0.12753993 -0.023631558 0.2912766
0.12827462 -0.02365745 0.29159576
0.12896359 -0.023674713 0.29180852
0.13142458 -0.023476202 0.28936172
0.13225764 -0.023519356 0.28989363
0.13294661 -0.023536617 0.29010639
0.1333916 -0.023510724 0.28978723
0.13368775 -0.023458937 0.28914893
0.13403068 -0.023415783 0.28861701
0.13456994 -0.023407154 0.28851065
0.13520843 -0.023415783 0.28861701
0.13584734 -0.023424415 0.28872341
0.13643643 -0.023424415 0.28872341
0.13702552 -0.023424415 0.28872341
0.13776673 -0.023450308 0.28904256
0.13845831 -0.023467569 0.28925532
0.13904847 -0.023467569 0.28925532
0.13943322 -0.023433045 0.28882977
0.13971308 -0.023381261 0.2881915
0.14009392 -0.023346735 0.28776595
0.14052503 -0.023320843 0.2874468
0.14105929 -0.023312213 0.28734043
0.14164555 -0.023312213 0.28734043
0.14223182 -0.023312213 0.28734043
0.14276519 -0.023303581 0.28723404
0.14329816 -0.023294952 0.28712767
0.14377736 -0.023277687 0.28691489
0.14425571 -0.023260426 0.28670213
0.14462569 -0.023225904 0.28627661
0.14510186 -0.023208641 0.28606382
0.14557716 -0.023191379 0.28585106
0.14610599 -0.023182746 0.28574467
0.1466344 -0.023174116 0.2856383
0.14710753 -0.023156855 0.28542554
0.14757979 -0.023139592 0.28521276
0.14799592 -0.0231137 0.2848936
0.14829978 -0.023070544 0.28436169
0.14865719 -0.023036022 0.28393617
0.14895694 -0.022992868 0.28340426
0.14936677 -0.022966973 0.28308511
0.14994435 -0.022966973 0.28308511
0.15063506 -0.022984235 0.28329787
0.15132664 -0.023001496 0.28351063
0.15190509 -0.023001496 0.28351063
0.15236911 -0.022984235 0.28329787
0.15283225 -0.022966973 0.28308511
0.15335219 -0.022958342 0.28297871
0.15392955 -0.022958342 0.28297871
0.15456501 -0.022966973 0.28308511
0.15508428 -0.022958342 0.28297871
0.15560314 -0.022949712 0.28287235
0.15600407 -0.02292382 0.2825532
0.15640371 -0.022897927 0.28223404
0.15674289 -0.022863403 0.28180853
0.15708029 -0.022828879 0.28138298
0.157416 -0.022794357 0.28095746
0.15792941 -0.022785723 0.28085107
0.1586225 -0.022802984 0.28106382
0.15955751 -0.022854771 0.28170213
0.1604951 -0.022906559 0.28234044
0.16137461 -0.022949712 0.28287235
0.16189085 -0.022941081 0.28276595
0.16216217 -0.022897927 0.28223404
0.16236995 -0.02284614 0.28159574
0.16245204 -0.022777092 0.28074467
0.1624071 -0.022690782 0.27968085
0.16241981 -0.022613106 0.27872342
0.16267744 -0.022569949 0.27819148
0.16330746 -0.02257858 0.27829787
0.16400056 -0.022595841 0.27851063
0.16469455 -0.022613106 0.27872342
0.16545244 -0.022638997 0.27904254
0.16633825 -0.022682151 0.27957445
0.16716272 -0.022716677 0.28
0.16798891 -0.022751199 0.28042552
0.16816027 -0.022544058 0.27787235
0.16859803 -0.022526795 0.27765957
0.16903491 -0.022509532 0.27744681
0.16934088 -0.02247501 0.27702129
0.17183632 -0.022431854 0.27648935
0.1718698 -0.022362808 0.27563831
0.17183323 -0.022285128 0.27468085
0.17199305 -0.022233343 0.27404255
0.17255218 -0.022233343 0.27404255
0.067492902 -0.021514345 0.27202126
0.067994691 -0.021497518 0.27180851
0.068495609 -0.021480691 0.27159575
0.0690227 -0.021472275 0.27148935
0.06960389 -0.021480691 0.27159575
0.070158027 -0.021480691 0.27159575
0.07068447 -0.021472275 0.27148935
0.071126737 -0.021438621 0.27106383
0.071539134 -0.021396551 0.27053192
0.071949355 -0.021354483 0.27000001
0.072414547 -0.021329241 0.26968086
0.072935991 -0.021320825 0.26957446
0.073486008 -0.021320825 0.26957446
0.13925304 -0.022911053 0.28968084
0.13958728 -0.022868983 0.28914893
0.13981622 -0.022810087 0.28840426
0.14009392 -0.022759603 0.28776595
0.14042102 -0.022717534 0.28723404
0.14095484 -0.022709122 0.28712767
0.14148822 -0.022700706 0.28702128
0.14207384 -0.022700706 0.28702128
0.14271234 -0.022709122 0.28712767
0.14329816 -0.022709122 0.28712767
0.14647056 -0.022566084 0.28531915
0.14699785 -0.022557668 0.28521276
0.1474697 -0.022540841 0.285
0.1478854 -0.022515601 0.28468084
0.14824431 -0.022481944 0.28425533
0.14860149 -0.022448288 0.28382978
0.14901283 -0.022423046 0.28351063
0.14942291 -0.022397807 0.2831915
0.14988799 -0.022380978 0.28297871
0.1505785 -0.022397807 0.2831915
0.15138343 -0.022431461 0.28361702
0.15213309 -0.022456704 0.28393617
0.15271242 -0.022456704 0.28393617
0.1532343 -0.022448288 0.28382978
0.1536981 -0.022431461 0.28361702
0.15410316 -0.022406219 0.28329787
0.15444884 -0.022372564 0.28287235
0.15479277 -0.022338908 0.2824468
0.15525201 -0.022322081 0.28223404
0.15576912 -0.022313666 0.28212765
0.15628581 -0.022305254 0.28202128
0.1566837 -0.022280011 0.28170213
0.1570209 -0.022246355 0.28127658
0.15729678 -0.022204285 0.28074467
0.15769011 -0.022179043 0.28042552
0.15826227 -0.022179043 0.28042552
0.15907545 -0.022212699 0.28085107
0.16001132 -0.022263184 0.28148937
0.16094978 -0.022313666 0.28212765
0.16158631 -0.022322081 0.28223404
0.16210103 -0.022313666 0.28212765
0.16236995 -0.022271596 0.28159574
0.16257517 -0.022221114 0.28095746
0.16259243 -0.022145389 0.28
0.16260578 -0.022069663 0.27904254
0.16280186 -0.022019181 0.27840427
0.16336989 -0.022019181 0.27840427
0.16400056 -0.022027593 0.27851063
0.16463168 -0.022036009 0.27861702
0.16526322 -0.022044422 0.27872342
0.16614838 -0.022086492 0.27925533
0.16709921 -0.022136973 0.27989361
0.16779774 -0.022153804 0.2801064
0.16817741 -0.022128562 0.27978724
0.16810665 -0.022044422 0.27872342
0.16828904 -0.021993939 0.27808511
0.16866262 -0.021968696 0.27776596
0.16897009 -0.02193504 0.27734041
0.16921079 -0.02189297 0.2768085
0.16938409 -0.021842489 0.27617022
0.16975117 -0.021817246 0.27585107
0.17044535 -0.021834074 0.27606383
0.17120631 -0.021859316 0.27638298
0.1717041 -0.021850901 0.27627659
0.1718698 -0.021800419 0.27563831
0.17196633 -0.021741521 0.27489361
0.17232689 -0.021716278 0.27457446
0.1728871 -0.021716278 0.27457446
0.17385054 -0.021766763 0.27521276
0.067466512 -0.020951141 0.2719149
0.067968085 -0.020934748 0.27170214
0.06844195 -0.020910157 0.27138299
0.068914518 -0.020885566 0.27106383
0.069467567 -0.020885566 0.27106383
0.070020624 -0.020885566 0.27106383
0.070545979 -0.020877369 0.27095744
0.071042992 -0.020860976 0.27074468
0.071482867 -0.020828189 0.27031916
0.071921006 -0.020795401 0.26989362
0.072385974 -0.020770811 0.26957446
0.072878428 -0.020754417 0.2693617
0.073399007 -0.020746218 0.26925531
0.14947903 -0.021828203 0.28329787
0.14988799 -0.021803612 0.28297871
0.15052193 -0.021811809 0.28308511
0.15149699 -0.021869186 0.28382978
0.15236109 -0.02191017 0.28436169
0.15305573 -0.021926567 0.28457448
0.15357891 -0.021918369 0.28446808
0.15392871 -0.021885583 0.28404257
0.15427676 -0.021852793 0.28361702
0.15444884 -0.021795416 0.28287235
0.15461786 -0.021738037 0.28212765
0.15501794 -0.021713449 0.28180853
0.15559292 -0.021713449 0.28180853
0.15610895 -0.021705251 0.28170213
0.15662453 -0.021697054 0.28159574
0.1570209 -0.021672463 0.28127658
0.15723717 -0.021623284 0.28063831
0.15757047 -0.021590494 0.28021276
0.15808217 -0.021582298 0.2801064
0.15889469 -0.021615084 0.28053191
0.1598299 -0.021664267 0.28117022
0.16076772 -0.021713449 0.28180853
0.16158631 -0.021746235 0.28223404
0.16222329 -0.021754432 0.28234044
0.16255398 -0.021721644 0.28191489
0.16275983 -0.021672463 0.28127658
0.16283952 -0.021606887 0.28042552
0.16291574 -0.021541312 0.27957445
0.16311291 -0.021492133 0.27893618
0.16349474 -0.021467542 0.27861702
0.16400056 -0.021459345 0.27851063
0.16456881 -0.021459345 0.27851063
0.16520014 -0.021467542 0.27861702
0.16602178 -0.021500329 0.27904254
0.16697219 -0.02154951 0.27968085
0.16773401 -0.0215741 0.28
0.16798557 -0.021533117 0.27946809
0.16810665 -0.02147574 0.27872342
0.1684178 -0.021442952 0.27829787
0.16872723 -0.021410165 0.27787235
0.16903491 -0.021377377 0.27744681
0.16914578 -0.02132 0.27670214
0.16925359 -0.02126262 0.27595744
0.16962025 -0.021238031 0.27563831
0.1702483 -0.021246227 0.27574468
0.17100862 -0.021270817 0.27606383
0.17157187 -0.021270817 0.27606383
0.17200246 -0.021254424 0.27585107
0.17236564 -0.021229833 0.27553192
0.1729278 -0.021229833 0.27553192
0.17362393 -0.021246227 0.27574468
0.17432094 -0.02126262 0.27595744
0.0675193 -0.020412309 0.27212766
0.067994691 -0.020388369 0.27180851
0.06844195 -0.02035645 0.27138299
0.068887465 -0.02032453 0.27095744
0.069385782 -0.020308571 0.27074468
0.069910698 -0.020300591 0.27063829
0.070435196 -0.020292612 0.27053192
0.070959248 -0.020284632 0.27042553
0.071454734 -0.020268673 0.27021277
0.071892656 -0.020236753 0.26978722
0.072357416 -0.020212816 0.2694681
0.072878428 -0.020204835 0.2693617
0.073399007 -0.020196853 0.26925531
0.15322736 -0.021369884 0.2848936
0.15375121 -0.021361904 0.28478724
0.15410165 -0.021329984 0.28436169
0.16076772 -0.021138471 0.28180853
0.16164723 -0.02117837 0.28234044
0.16234554 -0.021194329 0.2825532
0.16273801 -0.021170389 0.28223404
0.16288295 -0.021114532 0.28148937
0.16302484 -0.021058671 0.28074467
0.16322571 -0.021010794 0.2801064
0.16342396 -0.020962914 0.27946809
0.16374443 -0.020930994 0.27904254
0.16412586 -0.020907057 0.27872342
0.16456881 -0.020891096 0.27851063
0.16520014 -0.020899076 0.27861702
0.16602178 -0.020930994 0.27904254
0.16804247 -0.020899076 0.27861702
0.16848218 -0.020883117 0.27840427
0.16892101 -0.020867156 0.27819148
0.16916454 -0.020827258 0.27765957
0.16921079 -0.02076342 0.2768085
0.16925359 -0.020699581 0.27595744
0.16955477 -0.020667663 0.27553192
0.17018263 -0.020675642 0.27563831
0.17100862 -0.020707561 0.27606383
0.17177022 -0.020731501 0.27638298
0.17240044 -0.020739479 0.27648935
0.17296457 -0.020739479 0.27648935
0.17359547 -0.02074746 0.27659574
0.17436077 -0.020771399 0.27691489
0.17492576 -0.020771399 0.27691489
0.067598492 -0.019880371 0.27244681
0.068074524 -0.019857083 0.27212766
0.068522438 -0.019826034 0.27170214
0.068914518 -0.019779457 0.27106383
0.069331251 -0.019740643 0.27053192
0.069828264 -0.019725118 0.27031916
0.070379801 -0.019725118 0.27031916
0.07090342 -0.019717354 0.27021277
0.0714266 -0.019709591 0.27010638
0.071892656 -0.019686302 0.26978722
0.072357416 -0.019663015 0.2694681
0.072878428 -0.019655252 0.2693617
0.16341168 -0.020462576 0.28042552
0.16361058 -0.020416001 0.27978724
0.16854654 -0.020322846 0.27851063
0.16905022 -0.020315086 0.27840427
0.1694238 -0.020291798 0.27808511
0.16953595 -0.020237457 0.27734041
0.16957982 -0.020175355 0.27648935
0.16975117 -0.020128779 0.27585107
0.1702483 -0.020121016 0.27574468
0.17133811 -0.020183118 0.27659574
0.17223303 -0.020221932 0.27712765
0.17286479 -0.020229695 0.27723405
0.17349698 -0.020237457 0.27734041
0.17406283 -0.020237457 0.27734041
0.17469569 -0.020245221 0.27744681
0.067598492 -0.019324495 0.27244681
0.068127751 -0.019316949 0.27234042
0.068576097 -0.019286767 0.2719149
0.068968609 -0.019241493 0.27127659
0.069358513 -0.019196218 0.27063829
0.069828264 -0.019173583 0.27031916
0.0703521 -0.019166036 0.27021277
0.070875496 -0.01915849 0.27010638
0.071398474 -0.019150944 0.27000001
0.071864307 -0.019128308 0.26968086
0.072385974 -0.019120762 0.26957446
0.072907209 -0.019113217 0.2694681
0.16955343 -0.019739507 0.27829787
0.16966602 -0.019686688 0.2775532
0.17319646 -0.019701779 0.27776596
0.17369664 -0.019694233 0.27765957
0.17426315 -0.019694233 0.27765957
0.0675193 -0.018746633 0.27212766
0.068101145 -0.018753963 0.27223405
0.06860292 -0.018739304 0.27202126
0.0690227 -0.01870266 0.27148935
0.069413044 -0.01865869 0.27085108
0.069855742 -0.018629374 0.27042553
0.0703521 -0.018614717 0.27021277
0.070875496 -0.018607387 0.27010638
0.071370341 -0.018592732 0.26989362
0.071864307 -0.018578075 0.26968086
0.072357416 -0.018563418 0.2694681
0.072907209 -0.018563418 0.2694681
0.066780828 -0.018141627 0.27138299
0.067387328 -0.018155849 0.27159575
0.067994691 -0.018170072 0.27180851
0.068576097 -0.018177185 0.2719149
0.069049746 -0.018155849 0.27159575
0.069467567 -0.018120293 0.27106383
0.069938183 -0.018098956 0.27074468
0.070407495 -0.018077621 0.27042553
0.070875496 -0.018056286 0.27010638
0.071370341 -0.018042063 0.26989362
0.071864307 -0.018027842 0.26968086
0.072385974 -0.018020729 0.26957446
0.072907209 -0.018013619 0.2694681
0.066649944 -0.017553449 0.27085108
0.067281738 -0.01757413 0.2711702
0.067914851 -0.017594814 0.27148935
0.068522438 -0.017608603 0.27170214
0.0690227 -0.017594814 0.27148935
0.069494829 -0.01757413 0.2711702
0.069965668 -0.017553449 0.27085108
0.070407495 -0.017525868 0.27042553
0.07090342 -0.017512081 0.27021277
0.071370341 -0.017491397 0.26989362
0.071864307 -0.017477607 0.26968086
0.072385974 -0.017470714 0.26957446
0.072907209 -0.01746382 0.2694681
0.066649944 -0.017000828 0.27085108
0.067228951 -0.017007504 0.27095744
0.067861632 -0.017027536 0.27127659
0.06844195 -0.017034214 0.27138299
0.068968609 -0.017027536 0.27127659
0.069467567 -0.017014181 0.27106383
0.069938183 -0.016994148 0.27074468
0.070407495 -0.016974116 0.27042553
0.07090342 -0.016960762 0.27021277
0.071370341 -0.01694073 0.26989362
0.071864307 -0.016927375 0.26968086
0.072357416 -0.016914021 0.2694681
0.072907209 -0.016914021 0.2694681
0.066649944 -0.016448207 0.27085108
0.067255348 -0.016461127 0.27106383
0.067861632 -0.016474048 0.27127659
0.06841512 -0.016474048 0.27127659
0.068914518 -0.016461127 0.27106383
0.069385782 -0.016441746 0.27074468
0.06988322 -0.016428825 0.27053192
0.070379801 -0.016415905 0.27031916
0.070875496 -0.016402982 0.27010638
0.071342207 -0.016383601 0.26978722
0.071807615 -0.016364221 0.2694681
0.072300278 -0.016351299 0.26925531
0.072849639 -0.016351299 0.26925531
0.066623762 -0.015889341 0.27074468
0.067228951 -0.015901828 0.27095744
0.067808405 -0.015908072 0.27106383
0.068307802 -0.015895586 0.27085108
0.068806328 -0.015883097 0.27063829
0.069303989 -0.015870612 0.27042553
0.069800779 -0.015858125 0.27021277
0.070296705 -0.01584564 0.27000001
0.070791751 -0.015833151 0.26978722
0.071285941 -0.015820665 0.26957446
0.071750909 -0.015801935 0.26925531
0.072243147 -0.015789447 0.26904255
0.072763294 -0.015783204 0.26893616
0.06594155 -0.015306806 0.27021277
0.066545226 -0.015318858 0.27042553
0.067123376 -0.015324886 0.27053192
0.067675345 -0.015324886 0.27053192
0.068173654 -0.015312834 0.27031916
0.068671092 -0.01530078 0.27010638
0.069194935 -0.015294754 0.27000001
0.069690853 -0.015282701 0.26978722
0.070213608 -0.015276675 0.26968086
0.070708014 -0.015264623 0.2694681
0.071201548 -0.015252569 0.26925531
0.071665861 -0.01523449 0.26893616
0.07215745 -0.015222438 0.2687234
0.072705731 -0.015222438 0.2687234
0.065863669 -0.014738061 0.26989362
0.066440515 -0.01474387 0.27000001
0.066991396 -0.01474387 0.27000001
0.067515671 -0.014738061 0.26989362
0.068012677 -0.014726442 0.26968086
0.068508819 -0.014714824 0.2694681
0.069058619 -0.014714824 0.2694681
0.069580935 -0.014709014 0.2693617
0.070102818 -0.014703204 0.26925531
0.07062427 -0.014697396 0.26914895
0.071117148 -0.014685776 0.26893616
0.071609169 -0.014674158 0.2687234
0.072128884 -0.01466835 0.26861703
0.065837704 -0.0141818 0.26978722
0.066388153 -0.0141818 0.26978722
0.066912211 -0.014176209 0.26968086
0.067409225 -0.014165025 0.2694681
0.067878529 -0.014148248 0.26914895
0.068373583 -0.014137062 0.26893616
0.068922296 -0.014137062 0.26893616
0.069498494 -0.014142655 0.26904255
0.070047423 -0.014142655 0.26904255
0.070568435 -0.014137062 0.26893616
0.071060888 -0.014125878 0.2687234
0.071580827 -0.014120287 0.26861703
0.072100319 -0.014114695 0.26851064
0.065915585 -0.013647475 0.27010638
0.066440515 -0.013642102 0.27000001
0.066938601 -0.013631349 0.26978722
0.067382604 -0.01360985 0.2693617
0.06782487 -0.013588348 0.26893616
0.068319492 -0.013577599 0.2687234
0.068867773 -0.013577599 0.2687234
0.069443531 -0.013582975 0.26882979
0.070019722 -0.013588348 0.26893616
0.070540525 -0.013582975 0.26882979
0.071032763 -0.013572224 0.26861703
0.071580827 -0.013572224 0.26861703
0.065993473 -0.013111848 0.27042553
0.066519052 -0.013106692 0.27031916
0.066991396 -0.013091217 0.27000001
0.067409225 -0.013065427 0.2694681
0.0678517 -0.013044793 0.26904255
0.068346538 -0.013034478 0.26882979
0.068867773 -0.013029319 0.2687234
0.069471009 -0.013039635 0.26893616
0.070019722 -0.013039635 0.26893616
0.070540525 -0.013034478 0.26882979
0.071032763 -0.013024162 0.26861703
0.07155247 -0.013019003 0.26851064
0.066045389 -0.012569978 0.27063829
0.066545226 -0.012560096 0.27042553
0.066991396 -0.012540332 0.27000001
0.067435831 -0.012520568 0.26957446
0.067878529 -0.012500804 0.26914895
0.068373583 -0.012490921 0.26893616
0.068922296 -0.012490921 0.26893616
0.069498494 -0.012495862 0.26904255
0.070047423 -0.012495862 0.26904255
0.070568435 -0.012490921 0.26893616
0.071032763 -0.012476099 0.26861703
0.07155247 -0.012471157 0.26851064
0.065967515 -0.01200362 0.27031916
0.06649287 -0.011998896 0.27021277
0.066964999 -0.011984724 0.26989362
0.067435831 -0.011970552 0.26957446
0.067905359 -0.01195638 0.26925531
0.068427682 -0.011951656 0.26914895
0.068949558 -0.011946931 0.26904255
0.069498494 -0.011946931 0.26904255
0.070019722 -0.011942207 0.26893616
0.070540525 -0.011937484 0.26882979
0.071004629 -0.011923312 0.26851064
0.071524121 -0.011918588 0.26840425
0.065312997 -0.011434056 0.26989362
0.065837704 -0.011429549 0.26978722
0.066388153 -0.011429549 0.26978722
0.066912211 -0.011425043 0.26968086
0.067435831 -0.011420535 0.26957446
0.067959018 -0.011416029 0.2694681
0.06845472 -0.011407014 0.26925531
0.068949558 -0.011398001 0.26904255
0.069443531 -0.011388987 0.26882979
0.069936633 -0.011379974 0.26861703
0.07045678 -0.011375466 0.26851064
0.070948362 -0.011366453 0.26829788
0.071467422 -0.011361945 0.26819149
0.072014622 -0.011361945 0.26819149
0.065158531 -0.010857649 0.26925531
0.0657079 -0.010857649 0.26925531
0.066309623 -0.01086623 0.2694681
0.066859424 -0.01086623 0.2694681
0.067435831 -0.010870519 0.26957446
0.067959018 -0.01086623 0.2694681
0.06845472 -0.010857649 0.26925531
0.068922296 -0.010844779 0.26893616
0.069361091 -0.010827621 0.26851064
0.069825843 -0.010814751 0.26819149
0.070345119 -0.010810461 0.26808509
0.07086397 -0.010806171 0.26797873
0.071439072 -0.010810461 0.26808509
0.071986049 -0.010810461 0.26808509
0.065081298 -0.010296065 0.26893616
0.065655977 -0.010300139 0.26904255
0.066257261 -0.010308284 0.26925531
0.066859424 -0.010316431 0.2694681
0.067409225 -0.010316431 0.2694681
0.067932189 -0.010312358 0.2693617
0.068400629 -0.010300139 0.26904255
0.068840511 -0.010283848 0.26861703
0.069251165 -0.010263483 0.26808509
0.069715053 -0.010251266 0.26776597
0.070233464 -0.010247192 0.26765957
0.070779569 -0.010247192 0.26765957
0.071382374 -0.010255338 0.26787233
0.071986049 -0.010263483 0.26808509
0.065055557 -0.0097434968 0.26882979
0.065655977 -0.0097512081 0.26904255
0.066257261 -0.0097589195 0.26925531
0.066859424 -0.0097666318 0.2694681
0.067382604 -0.0097627752 0.2693617
0.067878529 -0.0097550647 0.26914895
0.068319492 -0.0097396411 0.2687234
0.06873145 -0.0097203618 0.26819149
0.069141246 -0.0097010834 0.26765957
0.069604263 -0.0096895164 0.26734042
0.07012181 -0.0096856607 0.26723406
0.070695177 -0.0096895164 0.26734042
0.071325682 -0.0097010834 0.26765957
0.071928918 -0.0097087948 0.26787233
0.072504252 -0.0097126504 0.26797873
0.065055557 -0.0091949999 0.26882979
0.065630011 -0.0091986386 0.26893616
0.066257261 -0.0092095546 0.26925531
0.066833027 -0.0092131933 0.2693617
0.06735599 -0.0092095546 0.26925531
0.06782487 -0.0091986386 0.26893616
0.068265401 -0.0091840839 0.26851064
0.068676926 -0.0091658905 0.26797873
0.069086283 -0.0091476971 0.26744682
0.069548868 -0.0091367811 0.26712766
0.070065975 -0.0091331415 0.26702127
0.070638917 -0.0091367811 0.26712766
0.071268983 -0.0091476971 0.26744682
0.071871787 -0.0091549745 0.26765957
0.072446689 -0.0091586132 0.26776597
0.065029815 -0.0086430814 0.2687234
0.065604053 -0.0086465031 0.26882979
0.066204906 -0.0086533464 0.26904255
0.066780232 -0.0086567681 0.26914895
0.067329384 -0.0086567681 0.26914895
0.067798041 -0.0086465031 0.26882979
0.068238348 -0.0086328164 0.26840425
0.068649657 -0.008615708 0.26787233
0.069086283 -0.0086020222 0.26744682
0.069548868 -0.0085917572 0.26712766
0.070065975 -0.0085883345 0.26702127
0.070610777 -0.0085883345 0.26702127
0.071183935 -0.0085917572 0.26712766
0.071757533 -0.0085951788 0.26723406
0.065004073 -0.0080915978 0.26861703
0.065578088 -0.0080948016 0.2687234
0.066178724 -0.0081012109 0.26893616
0.066753834 -0.0081044156 0.26904255
0.06727615 -0.0081012109 0.26893616
0.067771211 -0.0080948016 0.2687234
0.068238348 -0.0080851875 0.26840425
0.068676926 -0.0080723697 0.26797873
0.069141246 -0.0080627557 0.26765957
0.069604263 -0.0080531416 0.26734042
0.070093893 -0.0080467332 0.26712766
0.070582651 -0.0080403239 0.2669149
0.071098886 -0.0080371192 0.26680851
0.071671829 -0.0080403239 0.2669149
0.065029815 -0.0075465217 0.2687234
0.065604053 -0.0075495099 0.26882979
0.066178724 -0.0075524966 0.26893616
0.066753834 -0.0075554848 0.26904255
0.06727615 -0.0075524966 0.26893616
0.067744382 -0.007543535 0.26861703
0.06821131 -0.0075345719 0.26829788
0.068676926 -0.0075256093 0.26797873
0.069168724 -0.0075196344 0.26776597
0.069631957 -0.0075106719 0.26744682
0.07012181 -0.007504697 0.26723406
0.070610777 -0.0074987211 0.26702127
0.071098886 -0.0074927462 0.26680851
0.07161469 -0.0074897585 0.26670212
0.064532585 -0.0070037828 0.26893616
0.065081298 -0.0070037828 0.26893616
0.065655977 -0.0070065539 0.26904255
0.066204906 -0.0070065539 0.26904255
0.066753834 -0.0070065539 0.26904255
0.06727615 -0.0070037828 0.26893616
0.067744382 -0.0069954721 0.26861703
0.06821131 -0.0069871605 0.26829788
0.068676926 -0.0069788489 0.26797873
0.069168724 -0.0069733085 0.26776597
0.06965965 -0.0069677667 0.26755318
0.070177637 -0.0069649969 0.26744682
0.070638917 -0.0069566853 0.26712766
0.071127243 -0.0069511444 0.2669149
0.07161469 -0.0069456026 0.26670212
0.064583644 -0.0064601768 0.26914895
0.065132789 -0.0064601768 0.26914895
0.065681942 -0.0064601768 0.26914895
0.066231087 -0.0064601768 0.26914895
0.066753834 -0.0064576231 0.26904255
0.06727615 -0.0064550689 0.26893616
0.067744382 -0.0064474093 0.26861703
0.06821131 -0.0064397492 0.26829788
0.068676926 -0.0064320886 0.26797873
0.069168724 -0.0064269821 0.26776597
0.069687352 -0.0064244284 0.26765957
0.070205547 -0.0064218747 0.26755318
0.070695177 -0.0064167678 0.26734042
0.071155585 -0.0064091077 0.26702127
0.071643263 -0.0064040008 0.26680851
0.064558111 -0.0059086918 0.26904255
0.065107048 -0.0059086918 0.26904255
0.065630011 -0.0059063556 0.26893616
0.066178724 -0.0059063556 0.26893616
0.066701047 -0.0059040193 0.26882979
0.067249544 -0.0059040193 0.26882979
0.067744382 -0.0058993469 0.26861703
0.06821131 -0.0058923378 0.26829788
0.068649657 -0.0058829919 0.26787233
0.069141246 -0.005878319 0.26765957
0.06965965 -0.0058759823 0.26755318
0.070205547 -0.0058759823 0.26755318
0.070695177 -0.0058713099 0.26734042
0.071127243 -0.0058619645 0.2669149
0.07161469 -0.0058572916 0.26670212
0.064481534 -0.0053534033 0.2687234
0.065029815 -0.0053534033 0.2687234
0.065552138 -0.0053512841 0.26861703
0.066074014 -0.0053491644 0.26851064
0.06664826 -0.0053512841 0.26861703
0.067196324 -0.0053512841 0.26861703
0.067717552 -0.0053491644 0.26851064
0.068184257 -0.0053428067 0.26819149
0.068622403 -0.0053343293 0.26776597
0.069113761 -0.0053300904 0.26755318
0.069631957 -0.0053279717 0.26744682
0.07014972 -0.005325852 0.26734042
0.070638917 -0.0053216135 0.26712766
0.071070537 -0.0053131357 0.26670212
0.071557567 -0.0053088972 0.26648936
0.064379424 -0.0047975145 0.26829788
0.06492684 -0.0047975145 0.26829788
0.065474249 -0.0047975145 0.26829788
0.066021658 -0.0047975145 0.26829788
0.066569075 -0.0047975145 0.26829788
0.06714309 -0.0047994163 0.26840425
0.067690723 -0.0047994163 0.26840425
0.068157211 -0.0047937096 0.26808509
0.068595134 -0.0047861007 0.26765957
0.069058798 -0.004780394 0.26734042
0.069548868 -0.0047765896 0.26712766
0.070093893 -0.0047765896 0.26712766
0.070554517 -0.0047708824 0.26680851
0.070985496 -0.004763274 0.26638299
0.071443304 -0.0047575668 0.26606384
0.064226262 -0.0042399918 0.26765957
0.064849608 -0.0042450475 0.26797873
0.065448284 -0.0042484174 0.26819149
0.065995477 -0.0042484174 0.26819149
0.066569075 -0.0042501031 0.26829788
0.067116484 -0.0042501031 0.26829788
0.067637064 -0.0042484174 0.26819149
0.06810312 -0.0042433618 0.26787233
0.06854061 -0.0042366213 0.26744682
0.068976358 -0.0042298804 0.26702127
0.069493473 -0.0042281952 0.2669149
0.070010148 -0.0042265099 0.26680851
0.070470124 -0.0042214543 0.26648936
0.070900448 -0.0042147138 0.26606384
0.071357608 -0.0042096581 0.26574469
0.06412416 -0.0036880099 0.26723406
0.064823858 -0.0036968186 0.26787233
0.065474249 -0.0037026915 0.26829788
0.066047832 -0.0037041595 0.26840425
0.066569075 -0.0037026915 0.26829788
0.067089871 -0.0037012233 0.26819149
0.067583404 -0.0036982871 0.26797873
0.068021975 -0.0036924141 0.26755318
0.068458818 -0.0036865417 0.26712766
0.068921402 -0.0036821372 0.26680851
0.069410376 -0.003679201 0.26659575
0.069926396 -0.0036777325 0.26648936
0.070413858 -0.0036747965 0.2662766
0.070843749 -0.0036689236 0.26585105
0.071329035 -0.0036659874 0.26563829
0.063452356 -0.0031365133 0.26670212
0.064098626 -0.0031415178 0.26712766
0.064798117 -0.0031490244 0.26776597
0.065474249 -0.0031552799 0.26829788
0.066047832 -0.0031565309 0.26840425
0.066542678 -0.0031540287 0.26819149
0.067036644 -0.0031515267 0.26797873
0.067502916 -0.0031477732 0.26765957
0.067940846 -0.003142769 0.26723406
0.068377025 -0.0031377645 0.26680851
0.068811484 -0.0031327603 0.26638299
0.069327287 -0.0031315091 0.2662766
0.069870569 -0.0031315091 0.2662766
0.070357598 -0.0031290068 0.26606384
0.070843749 -0.0031265044 0.26585105
0.071357608 -0.0031252536 0.26574469
0.063427053 -0.0025913236 0.26659575
0.064047575 -0.0025944258 0.2669149
0.064772367 -0.002601664 0.26765957
0.065422319 -0.0026058001 0.26808509
0.066021658 -0.0026078685 0.26829788
0.066516273 -0.0026058001 0.26808509
0.066983424 -0.0026026983 0.26776597
0.067422427 -0.0025985618 0.26734042
0.067886747 -0.0025954598 0.26702127
0.068295233 -0.0025902896 0.26648936
0.068756513 -0.0025871873 0.2661702
0.069271892 -0.0025861536 0.26606384
0.069814742 -0.0025861536 0.26606384
0.070329465 -0.0025851193 0.26595744
0.070843749 -0.0025840851 0.26585105
0.063452356 -0.0020482019 0.26670212
0.064047575 -0.0020498361 0.2669149
0.064720884 -0.0020539211 0.26744682
0.065344445 -0.0020563721 0.26776597
0.065916941 -0.0020571889 0.26787233
0.066437095 -0.0020563721 0.26776597
0.06693019 -0.0020547379 0.26755318
0.067395605 -0.0020522871 0.26723406
0.067859702 -0.0020498361 0.2669149
0.068295233 -0.0020465679 0.26648936
0.068756513 -0.0020441168 0.2661702
0.069244191 -0.0020424831 0.26595744
0.069758907 -0.0020416658 0.26585105
0.070301332 -0.0020416658 0.26585105
0.070843749 -0.0020416658 0.26585105
0.063502982 -0.0015052463 0.2669149
0.064073093 -0.001505846 0.26702127
0.064695135 -0.0015076459 0.26734042
0.065292515 -0.0015088457 0.26755318
0.065838411 -0.0015088457 0.26755318
0.066384301 -0.0015088457 0.26755318
0.066903584 -0.0015082459 0.26744682
0.067422427 -0.0015076459 0.26734042
0.067886747 -0.001505846 0.26702127
0.068349756 -0.0015040463 0.26670212
0.068783998 -0.0015016466 0.2662766
0.069244191 -0.0014998467 0.26595744
0.069730997 -0.0014986469 0.26574469
0.070273198 -0.0014986469 0.26574469
0.063578919 -0.00096180511 0.26723406
0.06412416 -0.00096180511 0.26723406
0.064695135 -0.00096218794 0.26734042
0.065240592 -0.00096218794 0.26734042
0.065786056 -0.00096218794 0.26734042
0.066331513 -0.00096218794 0.26734042
0.06687697 -0.00096218794 0.26734042
0.067422427 -0.00096218794 0.26734042
0.067913793 -0.00096142216 0.26712766
0.068377025 -0.00096027349 0.26680851
0.068811484 -0.00095874205 0.26638299
0.069244191 -0.00095721043 0.26595744
0.06970308 -0.00095606176 0.26563829
0.070216939 -0.00095567893 0.26553193
0.06368015 -0.00041722742 0.26765957
0.064200729 -0.00041706156 0.26755318
0.064720884 -0.00041689575 0.26744682
0.065240592 -0.00041672992 0.26734042
0.065759882 -0.00041656411 0.26723406
0.066278726 -0.00041639825 0.26712766
0.066823743 -0.00041639825 0.26712766
0.067368768 -0.00041639825 0.26712766
0.067913793 -0.00041639825 0.26712766
0.068377025 -0.00041590078 0.26680851
0.068811484 -0.00041523747 0.26638299
0.06921649 -0.00041440828 0.26585105
0.069647253 -0.000413745 0.26542553
0.070132546 -0.00041341333 0.26521277
0.063730769 0.00012898422 0.26787233
0.064277314 0.00012898422 0.26787233
0.064798117 0.000128933 0.26776597
0.065266557 0.00012877931 0.26744682
0.065733701 0.00012862564 0.26712766
0.066225931 0.0001285232 0.2669149
0.06674391 0.00012847196 0.26680851
0.06728828 0.00012847196 0.26680851
0.067859702 0.0001285232 0.2669149
0.068349756 0.00012842074 0.26670212
0.068783998 0.00012821585 0.2662766
0.069188796 0.00012795972 0.26574469
0.069619335 0.00012775481 0.26531914
0.070076272 0.00012760113 0.26499999
0.063730769 0.0006755275 0.26787233
0.064302847 0.00067579577 0.26797873
0.064823858 0.0006755275 0.26787233
0.06531848 0.00067499094 0.26765957
0.065733701 0.00067364954 0.26712766
0.066173136 0.00067257637 0.26670212
0.06666407 0.00067203987 0.26648936
0.06723462 0.00067230815 0.26659575
0.067805603 0.00067257637 0.26670212
0.068322502 0.00067230815 0.26659575
0.068783998 0.00067150331 0.2662766
0.069188796 0.00067016191 0.26574469
0.069619335 0.00066908874 0.26531914
0.070104405 0.00066855224 0.26510638
0.063705467 0.0012215856 0.26776597
0.064302847 0.0012225561 0.26797873
0.064849608 0.0012225561 0.26797873
0.065344445 0.0012215856 0.26776597
0.065733701 0.0012186734 0.26712766
0.066146746 0.0012162467 0.26659575
0.066637464 0.0012152762 0.26638299
0.067180969 0.0012152762 0.26638299
0.067778565 0.0012162467 0.26659575
0.068322502 0.0012162467 0.26659575
0.068783998 0.0012147907 0.2662766
0.06921649 0.0012128494 0.26585105
0.069647253 0.0012109081 0.26542553
0.070132546 0.0012099375 0.26521277
0.06365484 0.0017665068 0.26755318
0.064277314 0.001768614 0.26787233
0.064849608 0.0017693165 0.26797873
0.065344445 0.0017679117 0.26776597
0.065759882 0.0017643998 0.26723406
0.066173136 0.0017608877 0.26670212
0.066637464 0.0017587807 0.26638299
0.067180969 0.0017587807 0.26638299
0.067751512 0.001759483 0.26648936
0.068322502 0.0017601855 0.26659575
0.068811484 0.0017587807 0.26638299
0.069244191 0.0017559711 0.26595744
0.06970308 0.0017538639 0.26563829
0.070160672 0.0017517566 0.26531914
0.063008577 0.0023087212 0.26712766
0.06362953 0.0023114795 0.26744682
0.064251788 0.0023142381 0.26776597
0.064849608 0.0023160768 0.26797873
0.065370403 0.0023151573 0.26787233
0.065786056 0.0023105601 0.26734042
0.066199534 0.0023059628 0.26680851
0.066637464 0.0023022853 0.26638299
0.067154132 0.0023013658 0.2662766
0.067724474 0.0023022853 0.26638299
0.068267979 0.0023022853 0.26638299
0.068811484 0.0023022853 0.26638299
0.069299586 0.0023004462 0.2661702
0.069758907 0.0022976878 0.26585105
0.070245065 0.0022958489 0.26563829
0.062983483 0.0028526084 0.26702127
0.063604221 0.002856018 0.26734042
0.064226262 0.0028594276 0.26765957
0.064849608 0.0028628372 0.26797873
0.065370403 0.0028617005 0.26787233
0.065812238 0.0028571547 0.26744682
0.066225931 0.0028514722 0.2669149
0.06666407 0.0028469262 0.26648936
0.067127302 0.0028435166 0.2661702
0.067670375 0.0028435166 0.2661702
0.06821344 0.0028435166 0.2661702
0.068756513 0.0028435166 0.2661702
0.069299586 0.0028435166 0.2661702
0.069786824 0.0028412438 0.26595744
0.070301332 0.0028401071 0.26585105
0.062958397 0.0033960622 0.2669149
0.063604221 0.0034014762 0.26734042
0.064226262 0.0034055368 0.26765957
0.064823858 0.0034082439 0.26787233
0.065344445 0.0034068904 0.26776597
0.065812238 0.0034028299 0.26744682
0.066225931 0.0033960622 0.2669149
0.06666407 0.0033906477 0.26648936
0.06710048 0.0033852337 0.26606384
0.067589231 0.0033825263 0.26585105
0.068104394 0.0033811729 0.26574469
0.068674073 0.0033825263 0.26585105
0.069244191 0.00338388 0.26595744
0.069786824 0.00338388 0.26595744
0.062958397 0.0039406521 0.2669149
0.063604221 0.0039469339 0.26734042
0.064226262 0.0039516459 0.26765957
0.064798117 0.0039532166 0.26776597
0.06531848 0.0039516459 0.26765957
0.065786056 0.0039469339 0.26734042
0.066225931 0.0039406521 0.2669149
0.066637464 0.0039327987 0.26638299
0.067046814 0.0039249454 0.26585105
0.067508101 0.0039202338 0.26553193
0.068022601 0.0039186631 0.26542553
0.068564154 0.0039186631 0.26542553
0.069161095 0.0039218045 0.26563829
0.069730997 0.0039233752 0.26574469
0.062364049 0.0044816658 0.26670212
0.062958397 0.0044852416 0.2669149
0.063604221 0.0044923923 0.26734042
0.064200729 0.0044959672 0.26755318
0.064746626 0.0044959672 0.26755318
0.065240592 0.0044923923 0.26734042
0.06570752 0.0044870293 0.26702127
0.066146746 0.0044798786 0.26659575
0.066557623 0.0044709402 0.26606384
0.066966332 0.0044620023 0.26553193
0.067426957 0.0044566393 0.26521277
0.06791354 0.0044530635 0.26499999
0.068454228 0.0044530635 0.26499999
0.069022611 0.0044548512 0.26510638
0.069591425 0.0044566393 0.26521277
0.062388927 0.0050278264 0.26680851
0.062958397 0.0050298315 0.2669149
0.063578919 0.0050358456 0.26723406
0.064149678 0.0050378502 0.26734042
0.0646694 0.0050358456 0.26723406
0.065136753 0.0050298315 0.2669149
0.065576628 0.0050218124 0.26648936
0.066014774 0.0050137937 0.26606384
0.06645117 0.0050057746 0.26563829
0.066885844 0.0049977559 0.26521277
0.06734582 0.0049917419 0.26489362
0.067859016 0.0049897367 0.26478723
0.068399265 0.0049897367 0.26478723
0.068939514 0.0049897367 0.26478723
0.069479764 0.0049897367 0.26478723
0.062388927 0.0055721994 0.26680851
0.062958397 0.0055744215 0.2669149
0.063528292 0.0055766427 0.26702127
0.064047575 0.0055744215 0.2669149
0.064540669 0.0055699772 0.26670212
0.065006949 0.0055633127 0.26638299
0.065445736 0.0055544251 0.26595744
0.065882795 0.0055455384 0.26553193
0.066344723 0.0055388729 0.26521277
0.066805355 0.0055322074 0.26489362
0.067291729 0.0055277641 0.26468086
0.067831755 0.0055277641 0.26468086
0.068344302 0.005525542 0.26457447
0.068856418 0.0055233203 0.26446807
0.069396019 0.0055233203 0.26446807
0.062364049 0.0061141332 0.26670212
0.062933296 0.0061165718 0.26680851
0.063452356 0.0061141332 0.26670212
0.063945465 0.0061092554 0.26648936
0.064411953 0.0061019389 0.2661702
0.064877138 0.0060946224 0.26585105
0.065314844 0.0060848673 0.26542553
0.06580361 0.00607999 0.26521277
0.066264883 0.0060726735 0.26489362
0.066751696 0.0060677957 0.26468086
0.067264676 0.0060653565 0.26457447
0.067804493 0.0060653565 0.26457447
0.068316825 0.0060629179 0.26446807
0.068828724 0.0060604792 0.26436171
0.069340192 0.0060580401 0.26425532
0.062364049 0.0066582887 0.26670212
0.062908202 0.0066582887 0.26670212
0.063427053 0.0066556334 0.26659575
0.06386888 0.0066450094 0.2661702
0.064308979 0.0066343863 0.26574469
0.064773291 0.0066264183 0.26542553
0.065236308 0.0066184509 0.26510638
0.065724418 0.0066131391 0.26489362
0.066238269 0.0066104829 0.26478723
0.066751696 0.0066078277 0.26468086
0.067264676 0.0066051711 0.26457447
0.067804493 0.0066051711 0.26457447
0.068316825 0.006602515 0.26446807
0.068828724 0.0065998598 0.26436171
0.061819892 0.0072024441 0.26670212
0.062364049 0.0072024441 0.26670212
0.062908202 0.0072024441 0.26670212
0.063401744 0.0071966988 0.26648936
0.063843355 0.0071852072 0.26606384
0.064283229 0.0071737152 0.26563829
0.064747334 0.0071650962 0.26531914
0.065236308 0.0071593504 0.26510638
0.065724418 0.0071536046 0.26489362
0.066238269 0.0071507315 0.26478723
0.066751696 0.0071478593 0.26468086
0.067291729 0.0071478593 0.26468086
0.067804493 0.0071449857 0.26457447
0.068316825 0.0071421126 0.26446807
0.068828724 0.0071392404 0.26436171
0.061869215 0.0077527808 0.2669149
0.062388927 0.0077496902 0.26680851
0.062908202 0.0077466001 0.26670212
0.063376434 0.0077373306 0.26638299
0.063843355 0.0077280607 0.26606384
0.064308979 0.0077187908 0.26574469
0.064773291 0.0077095204 0.26542553
0.065262489 0.0077033406 0.26521277
0.065750808 0.0076971599 0.26499999
0.066238269 0.0076909801 0.26478723
0.066751696 0.0076878909 0.26468086
0.067264676 0.0076848008 0.26457447
0.067804493 0.0076848008 0.26457447
0.068316825 0.0076817102 0.26446807
0.068828724 0.007678621 0.26436171
0.061844554 0.0082940627 0.26680851
0.062364049 0.0082907556 0.26670212
0.062858015 0.0082841413 0.26648936
0.063351125 0.008277528 0.2662766
0.063817829 0.0082676066 0.26595744
0.064308979 0.0082609924 0.26574469
0.064799257 0.008254379 0.26553193
0.065288663 0.0082477638 0.26531914
0.065777212 0.0082411505 0.26510638
0.066238269 0.0082312291 0.26478723
0.066724859 0.0082246149 0.26457447
0.06723763 0.0082213078 0.26446807
0.067777224 0.0082213078 0.26446807
0.068289347 0.0082180016 0.26436171
0.068828724 0.0082180016 0.26436171
0.061770577 0.0088278633 0.26648936
0.062264547 0.008820815 0.2662766
0.062757649 0.0088137677 0.26606384
0.063249879 0.0088067185 0.26585105
0.063766778 0.0088031953 0.26574469
0.064283229 0.0087996703 0.26563829
0.064773291 0.0087926229 0.26542553
0.065262489 0.0087855747 0.26521277
0.065724418 0.0087750023 0.26489362
0.06618505 0.0087644299 0.26457447
0.066644371 0.0087538576 0.26425532
0.067183539 0.0087538576 0.26425532
0.067695439 0.0087503335 0.26414895
0.068234384 0.0087503335 0.26414895
0.068773337 0.0087503335 0.26414895
-0.081651352 0.011223455 0.31914893
0.061573304 0.0093416553 0.26563829
0.062090419 0.0093379151 0.26553193
0.062607087 0.009334174 0.26542553
0.06312333 0.0093304319 0.26531914
0.06366466 0.0093304319 0.26531914
0.064180255 0.0093266917 0.26521277
0.064669445 0.0093192086 0.26499999
0.065157771 0.0093117263 0.26478723
0.065618835 0.0093005029 0.26446807
0.066105209 0.0092930207 0.26425532
0.066617548 0.0092892805 0.26414895
0.067129448 0.0092855385 0.26404256
0.067613646 0.0092780562 0.2638298
0.068124458 0.0092743151 0.2637234
0.068634838 0.009270574 0.26361701
-0.081651352 0.011874618 0.31914893
0.061351378 0.0098480172 0.26468086
0.06189141 0.0098480172 0.26468086
0.06245653 0.0098519754 0.26478723
0.063022092 0.0098559335 0.26489362
0.063588083 0.0098598916 0.26499999
0.064103022 0.0098559335 0.26489362
0.064565606 0.0098440591 0.26457447
0.065026879 0.0098321838 0.26425532
0.065539658 0.0098282266 0.26414895
0.066078603 0.0098282266 0.26414895
0.066590719 0.0098242676 0.26404256
0.067102395 0.0098203095 0.26393616
0.067586385 0.0098123932 0.2637234
0.068069503 0.009804477 0.26351064
0.068551749 0.0097965607 0.26329789
0.061154105 0.010354647 0.2638298
0.061742153 0.010362998 0.26404256
0.062356163 0.010375523 0.26436171
0.062971473 0.010388049 0.26468086
0.063537024 0.010392223 0.26478723
0.064051539 0.010388049 0.26468086
0.064513683 0.010375523 0.26436171
0.064974532 0.010362998 0.26404256
0.065486856 0.010358822 0.26393616
0.06605199 0.010362998 0.26404256
0.066590719 0.010362998 0.26404256
0.067129448 0.010362998 0.26404256
0.067586385 0.010350471 0.2637234
0.068042018 0.010337945 0.26340425
0.068524055 0.010329595 0.26319149
0.061055467 0.010875372 0.26340425
0.061642643 0.010884156 0.26361701
0.062305976 0.01090612 0.26414895
0.062971473 0.010928081 0.26468086
0.063562557 0.010936866 0.26489362
0.064077273 0.010932473 0.26478723
0.064539641 0.010919295 0.26446807
0.065000705 0.01090612 0.26414895
0.065486856 0.010897334 0.26393616
0.06605199 0.010901727 0.26404256
0.066617548 0.01090612 0.26414895
0.067156494 0.01090612 0.26414895
0.067640908 0.010897334 0.26393616
0.06809698 0.010884156 0.26361701
0.068607144 0.010879765 0.26351064
0.061080128 0.011417409 0.26351064
0.061667524 0.011426628 0.2637234
0.062331066 0.011449674 0.26425532
0.062996782 0.011472722 0.26478723
0.063613608 0.01148655 0.26510638
0.064128764 0.01148194 0.26499999
0.064591572 0.011468112 0.26468086
0.065053061 0.011454284 0.26436171
0.065539658 0.011445066 0.26414895
0.06605199 0.011440456 0.26404256
0.066617548 0.011445066 0.26414895
0.067156494 0.011445066 0.26414895
0.067668177 0.011440456 0.26404256
0.068151943 0.011431238 0.2638298
0.068662539 0.011426628 0.2637234
0.060640249 0.011974358 0.26393616
0.061178762 0.011974358 0.26393616
0.061742153 0.011979185 0.26404256
0.062356163 0.011993664 0.26436171
0.063022092 0.012017797 0.26489362
0.063639142 0.012032276 0.26521277
0.064180255 0.012032276 0.26521277
0.064669445 0.012022622 0.26499999
0.065131597 0.012008145 0.26468086
0.065566048 0.011988838 0.26425532
0.06605199 0.011979185 0.26404256
0.066590719 0.011979185 0.26404256
0.067156494 0.011984012 0.26414895
0.067695439 0.011984012 0.26414895
0.068179421 0.011974358 0.26393616
0.06869024 0.011969533 0.2638298
0.060811345 0.012548176 0.26468086
0.061326716 0.012543132 0.26457447
0.061866529 0.012543132 0.26457447
0.06243144 0.012548176 0.26468086
0.063047394 0.012563305 0.26499999
0.06366466 0.012578436 0.26531914
0.064205997 0.012578436 0.26531914
0.064721376 0.012573393 0.26521277
0.065157771 0.012553219 0.26478723
0.065592445 0.012533045 0.26436171
0.06605199 0.012517914 0.26404256
0.066563882 0.012512871 0.26393616
0.067102395 0.012512871 0.26393616
0.067640908 0.012512871 0.26393616
0.068151943 0.012507828 0.2638298
0.068662539 0.012502784 0.2637234
0.060933556 0.01311451 0.26521277
0.061474673 0.01311451 0.26521277
0.061990909 0.013109249 0.26510638
0.062531807 0.013109249 0.26510638
0.063098021 0.01311451 0.26521277
0.06366466 0.013119769 0.26531914
0.064205997 0.013119769 0.26531914
0.06469541 0.013109249 0.26510638
0.065157771 0.013093467 0.26478723
0.065592445 0.013072425 0.26436171
0.066025369 0.013051383 0.26393616
0.066510223 0.013040862 0.2637234
0.067048304 0.013040862 0.2637234
0.067586385 0.013040862 0.2637234
0.06809698 0.013035601 0.26361701
0.068607144 0.013030342 0.26351064
0.061031319 0.013677537 0.26563829
0.06154865 0.01367206 0.26553193
0.062090419 0.01367206 0.26553193
0.062607087 0.013666582 0.26542553
0.06314864 0.013666582 0.26542553
0.06366466 0.013661103 0.26531914
0.064180255 0.013655627 0.26521277
0.064669445 0.013644671 0.26499999
0.065131597 0.013628239 0.26468086
0.065566048 0.013606329 0.26425532
0.066025369 0.013589895 0.26393616
0.066456571 0.013567986 0.26351064
0.066967167 0.013562507 0.26340425
0.067477331 0.013557031 0.26329789
0.06801454 0.013557031 0.26329789
0.061104644 0.014236606 0.26595744
0.06162262 0.014230911 0.26585105
0.062140167 0.014225217 0.26574469
0.062657274 0.014219522 0.26563829
0.06314864 0.014208132 0.26542553
0.063639142 0.014196744 0.26521277
0.064128764 0.014185353 0.26499999
0.064617522 0.014173965 0.26478723
0.065079235 0.014156881 0.26446807
0.065539658 0.014139798 0.26414895
0.065998763 0.014122713 0.2638298
0.066429734 0.014099934 0.26340425
0.066913076 0.014088545 0.26319149
0.067395538 0.014077157 0.26297873
0.067932099 0.014077157 0.26297873
0.061129089 0.014785155 0.26606384
0.061647281 0.014779242 0.26595744
0.062165041 0.01477333 0.26585105
0.062657274 0.014761507 0.26563829
0.06312333 0.014743771 0.26531914
0.063588083 0.014726036 0.26499999
0.064051539 0.014708303 0.26468086
0.064539641 0.014696478 0.26446807
0.065026879 0.014684655 0.26425532
0.065513261 0.014672832 0.26404256
0.065972149 0.014655096 0.2637234
0.066429734 0.014637361 0.26340425
0.066913076 0.014625538 0.26319149
0.067368276 0.014607803 0.26287234
0.067877129 0.014601891 0.26276594
0.061104644 0.015321879 0.26595744
0.06162262 0.015315749 0.26585105
0.062115289 0.015303492 0.26563829
0.062607087 0.015291234 0.26542553
0.063072711 0.015272848 0.26510638
0.063511506 0.015248334 0.26468086
0.063974306 0.015229948 0.26436171
0.064435795 0.015211562 0.26404256
0.06494835 0.015205432 0.26393616
0.065486856 0.015205432 0.26393616
0.065998763 0.015199305 0.2638298
0.066483393 0.015187046 0.26361701
0.066940121 0.01516866 0.26329789
0.067395538 0.015150274 0.26297873
0.067877129 0.015138015 0.26276594
0.061080202 0.015858168 0.26585105
0.061573304 0.015845478 0.26563829
0.062040661 0.015826439 0.26531914
0.062506713 0.015807401 0.26499999
0.062971473 0.015788365 0.26468086
0.063409396 0.015762981 0.26425532
0.063871324 0.015743945 0.26393616
0.064357914 0.015731253 0.2637234
0.064895995 0.015731253 0.2637234
0.065460466 0.015737599 0.2638298
0.065998763 0.015737599 0.2638298
0.066510223 0.015731253 0.2637234
0.066967167 0.015712215 0.26340425
0.0674228 0.015693178 0.2630851
0.067904614 0.015680486 0.26287234
0.061031319 0.016387463 0.26563829
0.061523989 0.016374337 0.26542553
0.061966032 0.016348084 0.26499999
0.06243144 0.016328398 0.26468086
0.062895544 0.016308708 0.26436171
0.063358337 0.01628902 0.26404256
0.063819833 0.016269332 0.2637234
0.064305991 0.016256206 0.26351064
0.064869814 0.016262768 0.26361701
0.065434068 0.016269332 0.2637234
0.065972149 0.016269332 0.2637234
0.066483393 0.016262768 0.26361701
0.066940121 0.01624308 0.26329789
0.067395538 0.016223392 0.26297873
0.067904614 0.016216828 0.26287234
0.061080202 0.016943006 0.26585105
0.061523989 0.016915888 0.26542553
0.061941162 0.016881989 0.26489362
0.062406346 0.016861649 0.26457447
0.062870227 0.016841309 0.26425532
0.063332811 0.016820969 0.26393616
0.063819833 0.016807409 0.2637234
0.064305991 0.016793849 0.26351064
0.06484364 0.016793849 0.26351064
0.065407671 0.016800629 0.26361701
0.065918922 0.016793849 0.26351064
0.066429734 0.016787069 0.26340425
0.066886023 0.016766729 0.2630851
0.067341007 0.016746389 0.26276594
0.067822173 0.016732831 0.26255319
0.060925379 0.017597377 0.26755318
0.061153527 0.017506417 0.2661702
0.06154865 0.017464437 0.26553193
0.061966032 0.017429451 0.26499999
0.062406346 0.017401462 0.26457447
0.062895544 0.01738747 0.26436171
