# .PCD v0.7 - Point Cloud Data file format
VERSION 0.7
FIELDS x y z
SIZE 4 4 4
TYPE F F F
COUNT 1 1 1
WIDTH 1382
HEIGHT 1
VIEWPOINT 0 0 0 1 0 0 0
POINTS 1382
DATA ascii
-0.14672412 0.064616919 0.27723405
-0.14655107 0.064790487 0.27797872
-0.14637499 0.064964056 0.27872342
-0.14602891 0.065063238 0.27914894
-0.14557022 0.065112822 0.2793617
-0.14500023 0.065112822 0.2793617
-0.14448525 0.065137625 0.27946809
-0.14402461 0.065187208 0.27968085
-0.14361767 0.065261602 0.28
-0.14326379 0.065360777 0.28042552
-0.14285402 0.065435164 0.28074467
-0.14244296 0.06550955 0.28106382
-0.14197689 0.065559141 0.28127658
-0.14161694 0.065658323 0.28170213
-0.14125521 0.065757506 0.28212765
-0.14094482 0.065881483 0.28265956
-0.1406851 0.066030256 0.28329787
-0.14037013 0.066154234 0.28382978
-0.14010541 0.066303007 0.28446808
-0.1397859 0.066426985 0.285
-0.13941227 0.066526167 0.28542554
-0.12445623 0.066625349 0.28585106
-0.1234581 0.066402182 0.2848936
-0.12250977 0.066203825 0.28404257
-0.12174756 0.066104643 0.28361702
-0.12121435 0.066129439 0.28372341
-0.12086163 0.066253416 0.28425533
-0.12055174 0.066402182 0.2848936
-0.12023927 0.066550963 0.28553191
-0.11979043 0.066625349 0.28585106
-0.11925158 0.066650145 0.28595746
-0.11875643 0.066699736 0.28617021
-0.11830434 0.066774122 0.28648937
-0.11785096 0.066848509 0.28680852
-0.15610351 0.063031487 0.26808509
-0.15555653 0.063031487 0.26808509
-0.15519409 0.063106522 0.26840425
-0.15507554 0.063281611 0.26914895
-0.15507609 0.063506722 0.27010638
-0.15495101 0.063681811 0.27085108
-0.15470161 0.063806877 0.27138299
-0.15445003 0.063931935 0.2719149
-0.15419629 0.064057 0.27244681
-0.15400037 0.064207077 0.27308512
-0.15374206 0.064332135 0.27361703
-0.15336248 0.064407177 0.27393618
-0.15280356 0.064407177 0.27393618
-0.15212639 0.064357147 0.27372339
-0.151509 0.064332135 0.27361703
-0.15100943 0.064357147 0.27372339
-0.15062636 0.064432181 0.27404255
-0.15035851 0.064557247 0.27457446
-0.15008849 0.064682305 0.27510637
-0.1498163 0.064807378 0.27563831
-0.14942671 0.064882405 0.27595744
-0.14897847 0.064932436 0.27617022
-0.14841498 0.064932436 0.27617022
-0.14785151 0.064932436 0.27617022
-0.14734477 0.064957447 0.27627659
-0.14695065 0.065032482 0.27659574
-0.14666781 0.065157548 0.27712765
-0.14649498 0.065332636 0.27787235
-0.14626324 0.065482706 0.27851063
-0.14591761 0.06558276 0.27893618
-0.14545935 0.065632783 0.27914894
-0.1448898 0.065632783 0.27914894
-0.14443025 0.065682806 0.2793617
-0.14402461 0.065757848 0.27968085
-0.14367226 0.065857902 0.2801064
-0.14331813 0.065957949 0.28053191
-0.14285402 0.066007972 0.28074467
-0.14233513 0.066032983 0.28085107
-0.14181581 0.066058002 0.28095746
-0.14134952 0.066108026 0.28117022
-0.1409889 0.066208072 0.28159574
-0.14073265 0.066358149 0.28223404
-0.14047378 0.066508226 0.28287235
-0.1402123 0.066658296 0.28351063
-0.13989584 0.066783361 0.28404257
-0.13962936 0.066933431 0.28468084
-0.13930833 0.067058496 0.28521276
-0.13888164 0.067133531 0.28553191
-0.13829906 0.067133531 0.28553191
-0.1376652 0.067108527 0.28542554
-0.12629591 0.067883909 0.28872341
-0.12505837 0.067533731 0.28723404
-0.12378082 0.06715855 0.2856383
-0.12255564 0.066808373 0.28414893
-0.12161056 0.066608272 0.28329787
-0.1209871 0.066583261 0.2831915
-0.12063546 0.066708326 0.28372341
-0.12037168 0.066883408 0.28446808
-0.12006007 0.067033485 0.28510639
-0.11961211 0.067108527 0.28542554
-0.11907411 0.067133531 0.28553191
-0.11857983 0.067183554 0.28574467
-0.11817255 0.067283608 0.28617021
-0.11771981 0.06735865 0.28648937
-0.15494806 0.063553236 0.26797873
-0.15489165 0.063755073 0.26882979
-0.15489285 0.063982137 0.26978722
-0.15482928 0.064183973 0.27063829
-0.15451968 0.064284891 0.27106383
-0.15414791 0.064360581 0.27138299
-0.15395544 0.064511955 0.27202126
-0.15376039 0.064663336 0.27265957
-0.15356274 0.064814717 0.27329788
-0.15324335 0.064915627 0.27372339
-0.15268487 0.064915627 0.27372339
-0.15206727 0.0648904 0.27361703
-0.1514501 0.064865172 0.27351063
-0.15095074 0.0648904 0.27361703
-0.15050942 0.064940862 0.27382979
-0.150242 0.065067008 0.2743617
-0.15003045 0.065218389 0.27500001
-0.14975847 0.065344535 0.27553192
-0.14936912 0.065420225 0.27585107
-0.14892107 0.065470681 0.27606383
-0.14847215 0.065521136 0.27627659
-0.14796542 0.065546371 0.27638298
-0.14745824 0.065571599 0.27648935
-0.14700717 0.065622061 0.27670214
-0.14666781 0.065722972 0.27712765
-0.1464389 0.065874353 0.27776596
-0.14615151 0.066000499 0.27829787
-0.14575066 0.066076189 0.27861702
-0.14518219 0.066076189 0.27861702
-0.14466894 0.066101424 0.27872342
-0.14426525 0.066177107 0.27904254
-0.14396982 0.066303253 0.27957445
-0.14372681 0.066454634 0.28021276
-0.14342684 0.06658078 0.28074467
-0.14296229 0.066631243 0.28095746
-0.14244296 0.06665647 0.28106382
-0.1418695 0.06665647 0.28106382
-0.14134952 0.066681698 0.28117022
-0.14088237 0.066732161 0.28138298
-0.14062655 0.066883534 0.28202128
-0.14031529 0.067009687 0.2825532
-0.14005446 0.067161061 0.2831915
-0.13973865 0.067287207 0.28372341
-0.13947283 0.06743858 0.28436169
-0.13910049 0.067539506 0.28478724
-0.13867468 0.067615196 0.28510639
-0.13809296 0.067615196 0.28510639
-0.13751125 0.067615196 0.28510639
-0.13692956 0.067615196 0.28510639
-0.13655134 0.067716107 0.28553191
-0.13637404 0.067917943 0.28638297
-0.12772653 0.068927132 0.2906383
-0.12676126 0.068725295 0.28978723
-0.12547524 0.068346851 0.2881915
-0.12405742 0.067892723 0.28627661
-0.12273919 0.06748905 0.28457448
-0.12165623 0.067211524 0.28340426
-0.12089619 0.067110598 0.28297871
-0.12049976 0.067211524 0.28340426
-0.12023664 0.067388125 0.28414893
-0.11988087 0.067514271 0.28468084
-0.11943378 0.067589961 0.285
-0.11894102 0.067640416 0.28521276
-0.1184474 0.067690887 0.28542554
-0.11804076 0.067791797 0.28585106
-0.11763239 0.067892723 0.28627661
-0.11709178 0.067917943 0.28638297
-0.15433775 0.064761609 0.27074468
-0.15390618 0.064812496 0.27095744
-0.1536544 0.06493973 0.27148935
-0.15352044 0.065117858 0.27223405
-0.15332362 0.065270536 0.27287233
-0.15306467 0.065397769 0.27340424
-0.15256619 0.06542322 0.27351063
-0.15200815 0.06542322 0.27351063
-0.15139118 0.065397769 0.27340424
-0.15089205 0.06542322 0.27351063
-0.15045094 0.065474108 0.27372339
-0.15012549 0.065575898 0.27414894
-0.14985633 0.065703131 0.27468085
-0.14964284 0.065855816 0.27531916
-0.14931151 0.065957598 0.27574468
-0.14897847 0.066059388 0.27617022
-0.14858648 0.066135719 0.27648935
-0.14813629 0.066186622 0.27670214
-0.1476852 0.066237509 0.27691489
-0.14723323 0.066288404 0.27712765
-0.14683671 0.066364743 0.27744681
-0.1464389 0.066441081 0.27776596
-0.14609563 0.066542864 0.27819148
-0.14558369 0.066568315 0.27829787
-0.14501588 0.066568315 0.27829787
-0.14444807 0.066568315 0.27829787
-0.14415525 0.066695549 0.27882978
-0.14396982 0.06687367 0.27957445
-0.14378138 0.067051806 0.28031915
-0.14348118 0.067179032 0.28085107
-0.14301641 0.067229927 0.28106382
-0.14249688 0.067255378 0.28117022
-0.1419232 0.067255378 0.28117022
-0.14134952 0.067255378 0.28117022
-0.14088237 0.067306265 0.28138298
-0.14052047 0.067408055 0.28180853
-0.14026245 0.067560732 0.2824468
-0.14000185 0.06771341 0.28308511
-0.13968624 0.067840643 0.28361702
-0.13931631 0.067942433 0.28404257
-0.13894461 0.068044215 0.28446808
-0.13841595 0.068069667 0.28457448
-0.13783532 0.068069667 0.28457448
-0.1372034 0.068044215 0.28446808
-0.13677627 0.068120562 0.28478724
-0.13644959 0.068247795 0.28531915
-0.13622206 0.068425916 0.28606382
-0.13584018 0.068527706 0.28648937
-0.13540633 0.068604045 0.28680852
-0.13492116 0.06865494 0.28702128
-0.12869528 0.069723696 0.29148936
-0.12791353 0.069621906 0.29106382
-0.1269474 0.069418341 0.29021278
-0.1256142 0.069011189 0.28851065
-0.12419571 0.06855315 0.28659573
-0.12283095 0.068120562 0.28478724
-0.12170189 0.067815199 0.28351063
-0.12094165 0.06771341 0.28308511
-0.12049976 0.067789756 0.28340426
-0.1201466 0.067916989 0.28393617
-0.11979128 0.068044215 0.28446808
-0.11934462 0.068120562 0.28478724
-0.11885229 0.068171449 0.285
-0.11840325 0.068247795 0.28531915
-0.1179529 0.068324134 0.2856383
-0.11750125 0.068400472 0.28595746
-0.1170048 0.068451367 0.28617021
-0.15347376 0.065416664 0.2711702
-0.15334044 0.065596312 0.2719149
-0.15320408 0.065775953 0.27265957
-0.15294556 0.065904275 0.27319148
-0.15250684 0.065955602 0.27340424
-0.15200815 0.065981261 0.27351063
-0.1514501 0.065981261 0.27351063
-0.15089205 0.065981261 0.27351063
-0.15039247 0.066006929 0.27361703
-0.15000899 0.066083923 0.27393618
-0.14974026 0.066212237 0.27446809
-0.14946938 0.066340558 0.27500001
-0.14919631 0.066468872 0.27553192
-0.14897847 0.066622861 0.27617022
-0.14864367 0.066725507 0.27659574
-0.14830714 0.066828169 0.27702129
-0.14791213 0.066905156 0.27734041
-0.14740279 0.066930823 0.27744681
-0.14694932 0.066982143 0.27765957
-0.14655107 0.067059137 0.27797872
-0.14609563 0.067110464 0.27819148
-0.14558369 0.067136131 0.27829787
-0.14501588 0.067136131 0.27829787
-0.1445033 0.067161798 0.27840427
-0.14415525 0.067264445 0.27882978
-0.14391506 0.067418434 0.27946809
-0.14367226 0.067572415 0.2801064
-0.14342684 0.067726389 0.28074467
-0.14301641 0.067803383 0.28106382
-0.14255078 0.06785471 0.28127658
-0.1420306 0.067880377 0.28138298
-0.14145648 0.067880377 0.28138298
-0.14088237 0.067880377 0.28138298
-0.14046742 0.067957371 0.28170213
-0.14020963 0.068111353 0.28234044
-0.13994923 0.068265326 0.28297871
-0.13968624 0.068419315 0.28361702
-0.13931631 0.068521969 0.28404257
-0.13884069 0.068573296 0.28425533
-0.13826072 0.068573296 0.28425533
-0.13762921 0.068547629 0.28414893
-0.13699816 0.068521969 0.28404257
-0.13657188 0.068598956 0.28436169
-0.13624609 0.06872727 0.2848936
-0.13596877 0.068881258 0.28553191
-0.1356384 0.069009572 0.28606382
-0.13525565 0.069112234 0.28648937
-0.13487114 0.069214888 0.28691489
-0.13443512 0.069291875 0.28723404
-0.13419609 0.069471523 0.28797871
-0.13395403 0.069651172 0.28872341
-0.13144304 0.06988214 0.28968084
-0.13094811 0.069933474 0.28989363
-0.13045231 0.069984794 0.29010639
-0.12995563 0.070036121 0.29031914
-0.12955292 0.070138782 0.29074469
-0.12910126 0.070215769 0.29106382
-0.12850739 0.070215769 0.29106382
-0.12767978 0.070087448 0.2905319
-0.12671472 0.06988214 0.28968084
-0.12542892 0.069497183 0.2880851
-0.12405742 0.069060907 0.28627661
-0.12278506 0.06867595 0.28468084
-0.12174756 0.068419315 0.28361702
-0.12103254 0.068342321 0.28329787
-0.12054498 0.068393648 0.28351063
-0.12019163 0.068521969 0.28404257
-0.11979128 0.068624623 0.28446808
-0.11934462 0.068701617 0.28478724
-0.11889666 0.068778604 0.28510639
-0.1184474 0.068855599 0.28542554
-0.11799682 0.068932585 0.28574467
-0.11754496 0.069009572 0.28606382
-0.1170048 0.06903524 0.28617021
-0.15250684 0.066513427 0.27340424
-0.15200815 0.06653931 0.27351063
-0.1514501 0.06653931 0.27351063
-0.15083335 0.066513427 0.27340424
-0.15027551 0.066513427 0.27340424
-0.14983422 0.066565193 0.27361703
-0.14945006 0.066642836 0.27393618
-0.14918026 0.066772245 0.27446809
-0.14896588 0.066927522 0.27510637
-0.1487489 0.067082807 0.27574468
-0.14858648 0.067263968 0.27648935
-0.14830714 0.067393377 0.27702129
-0.14791213 0.067471012 0.27734041
-0.14745933 0.067522779 0.2775532
-0.14700563 0.067574538 0.27776596
-0.14655107 0.067626305 0.27797872
-0.14609563 0.067678064 0.27819148
-0.14563935 0.067729831 0.27840427
-0.14518219 0.06778159 0.27861702
-0.14466894 0.067807473 0.27872342
-0.14426525 0.067885108 0.27904254
-0.14391506 0.067988634 0.27946809
-0.14356311 0.068092152 0.27989361
-0.14326379 0.068221554 0.28042552
-0.14290816 0.06832508 0.28085107
-0.14255078 0.068428598 0.28127658
-0.1420843 0.068480372 0.28148937
-0.14150998 0.068480372 0.28148937
-0.14093564 0.068480372 0.28148937
-0.14041436 0.068506248 0.28159574
-0.14010397 0.06863565 0.28212765
-0.13989663 0.068816818 0.28287235
-0.13963385 0.068972096 0.28351063
-0.13931631 0.069101505 0.28404257
-0.13884069 0.069153264 0.28425533
-0.13820897 0.069127381 0.28414893
-0.13752615 0.069075622 0.28393617
-0.13694684 0.069075622 0.28393617
-0.13641863 0.069101505 0.28404257
-0.13609347 0.069230907 0.28457448
-0.13576613 0.069360316 0.28510639
-0.13543664 0.069489717 0.2856383
-0.13510497 0.069619119 0.28617021
-0.13472112 0.069722638 0.28659573
-0.13433555 0.069826163 0.28702128
-0.13404737 0.069981448 0.28765959
-0.13380596 0.070162609 0.28840426
-0.13336495 0.070240259 0.28872341
-0.13292262 0.070317902 0.28904256
-0.13238159 0.070343778 0.28914893
-0.13188861 0.070395544 0.28936172
-0.13144304 0.070473179 0.28968084
-0.13094811 0.070524946 0.28989363
-0.13045231 0.070576705 0.29010639
-0.12995563 0.070628464 0.29031914
-0.1294581 0.070680223 0.2905319
-0.1289597 0.07073199 0.29074469
-0.12827255 0.070680223 0.2905319
-0.12735252 0.070499063 0.28978723
-0.12624937 0.070214376 0.28861701
-0.12501206 0.069852047 0.28712767
-0.12373471 0.069463834 0.28553191
-0.12260153 0.069153264 0.28425533
-0.12170189 0.068972096 0.28351063
-0.121078 0.06894622 0.28340426
-0.12063546 0.069023862 0.28372341
-0.12023664 0.069127381 0.28414893
-0.11983608 0.069230907 0.28457448
-0.11938919 0.069308542 0.2848936
-0.11894102 0.069386192 0.28521276
-0.11853569 0.069489717 0.2856383
-0.11812861 0.069593236 0.28606382
-0.11767609 0.069670878 0.28638297
-0.11713529 0.069696762 0.28648937
-0.14971769 0.067071259 0.27340424
-0.14927594 0.067123458 0.27361703
-0.14894897 0.067227848 0.27404255
-0.14862026 0.067332245 0.27446809
-0.14840457 0.067488827 0.27510637
-0.14824347 0.067671515 0.27585107
-0.14796542 0.067801997 0.27638298
-0.1476852 0.067932487 0.27691489
-0.14728977 0.068010785 0.27723405
-0.14683671 0.068062976 0.27744681
-0.14638281 0.068115167 0.27765957
-0.1459839 0.068193465 0.27797872
-0.14563935 0.068297863 0.27840427
-0.14529306 0.068402246 0.27882978
-0.1448898 0.068480544 0.27914894
-0.14443025 0.068532735 0.2793617
-0.14391506 0.068558834 0.27946809
-0.14345399 0.068611033 0.27968085
-0.14304639 0.068689324 0.28
-0.14274576 0.068819813 0.28053191
-0.14244296 0.068950303 0.28106382
-0.1420306 0.069028594 0.28138298
-0.14156345 0.069080785 0.28159574
-0.1409889 0.069080785 0.28159574
-0.14041436 0.069080785 0.28159574
-0.1399983 0.069159083 0.28191489
-0.1397914 0.069341764 0.28265956
-0.13958146 0.069524452 0.28340426
-0.13931631 0.069681041 0.28404257
-0.13884069 0.069733232 0.28425533
-0.13826072 0.069733232 0.28425533
-0.1375777 0.069681041 0.28404257
-0.13694684 0.069654942 0.28393617
-0.13641863 0.069681041 0.28404257
-0.13599171 0.069759332 0.28436169
-0.13566481 0.069889814 0.2848936
-0.13533576 0.070020311 0.28542554
-0.13500452 0.0701508 0.28595746
-0.13457111 0.070229098 0.28627661
-0.13418618 0.070333481 0.28670213
-0.13379951 0.070437878 0.28712767
-0.13346046 0.070568368 0.28765959
-0.13311924 0.070698857 0.2881915
-0.13267802 0.070777148 0.28851065
-0.13223547 0.070855439 0.28882977
-0.13179164 0.070933729 0.28914893
-0.13134649 0.07101202 0.28946808
-0.13094811 0.071116418 0.28989363
-0.13045231 0.071168609 0.29010639
-0.12990803 0.071194716 0.29021278
-0.1292685 0.071168609 0.29010639
-0.12858222 0.071116418 0.28989363
-0.12780286 0.07101202 0.28946808
-0.12679149 0.070777148 0.28851065
-0.12569095 0.07049007 0.28734043
-0.12454887 0.070176892 0.28606382
-0.12341201 0.069863722 0.28478724
-0.12241799 0.069628842 0.28382978
-0.12170189 0.069550544 0.28351063
-0.12112344 0.069550544 0.28351063
-0.12068069 0.069628842 0.28382978
-0.12028165 0.069733232 0.28425533
-0.11988087 0.069837622 0.28468084
-0.11943378 0.06991592 0.285
-0.11898538 0.069994211 0.28531915
-0.11857983 0.070098601 0.28574467
-0.11821648 0.070229098 0.28627661
-0.11780724 0.070333481 0.28670213
-0.11730926 0.07038568 0.28691489
-0.14838983 0.067786977 0.27404255
-0.14806026 0.067892246 0.27446809
-0.14772893 0.0679975 0.27489361
-0.14745283 0.06812907 0.27542552
-0.14711784 0.068234332 0.27585107
-0.14683761 0.068365909 0.27638298
-0.1464989 0.068471164 0.2768085
-0.14610238 0.06855011 0.27712765
-0.14570457 0.068629056 0.27744681
-0.14547239 0.068786949 0.27808511
-0.14523762 0.068944834 0.27872342
-0.14500023 0.069102719 0.2793617
-0.14454025 0.06915535 0.27957445
-0.14391506 0.069129035 0.27946809
-0.14329028 0.069102719 0.2793617
-0.14282899 0.06915535 0.27957445
-0.14242096 0.069234297 0.27989361
-0.14217339 0.069392182 0.28053191
-0.14181581 0.069497451 0.28095746
-0.14145648 0.069602706 0.28138298
-0.1409889 0.069655329 0.28159574
-0.14046742 0.069681652 0.28170213
-0.1399983 0.069734275 0.28191489
-0.13968617 0.069865853 0.2824468
-0.13947667 0.070050061 0.2831915
-0.13921194 0.070207946 0.28382978
-0.13884069 0.070313208 0.28425533
-0.1383642 0.070365831 0.28446808
-0.13773227 0.070339516 0.28436169
-0.13710077 0.070313208 0.28425533
-0.13646971 0.070286885 0.28414893
-0.13599171 0.070339516 0.28436169
-0.13561416 0.070444778 0.28478724
-0.13533576 0.07060267 0.28542554
-0.13500452 0.07073424 0.28595746
-0.1345211 0.070786871 0.28617021
-0.13403679 0.070839502 0.28638297
-0.13355163 0.070892125 0.28659573
-0.13316432 0.070997387 0.28702128
-0.13277526 0.071102649 0.2874468
-0.13238448 0.071207911 0.28787234
-0.13199194 0.071313165 0.28829786
-0.13164617 0.071444735 0.28882977
-0.13129823 0.07157632 0.28936172
-0.13090006 0.071681574 0.28978723
-0.13040447 0.071734205 0.28999999
-0.12976517 0.071707889 0.28989363
-0.12898408 0.071602628 0.28946808
-0.12820473 0.071497373 0.28904256
-0.1272862 0.071313165 0.28829786
-0.12632397 0.071102649 0.2874468
-0.12527214 0.070839502 0.28638297
-0.12417833 0.070550032 0.28521276
-0.1231815 0.070313208 0.28425533
-0.12232623 0.070155315 0.28361702
-0.12165623 0.070102684 0.28340426
-0.12112344 0.070129 0.28351063
-0.12068069 0.070207946 0.28382978
-0.12023664 0.070286885 0.28414893
-0.11988087 0.070418462 0.28468084
-0.11943378 0.070497409 0.285
-0.11902975 0.07060267 0.28542554
-0.11862398 0.070707925 0.28585106
-0.11826041 0.070839502 0.28638297
-0.11785096 0.070944764 0.28680852
-0.11735277 0.070997387 0.28702128
-0.11681043 0.07102371 0.28712767
-0.14738591 0.068399176 0.27425531
-0.14694026 0.068452246 0.27446809
-0.14655048 0.068531841 0.27478725
-0.14627242 0.068664499 0.27531916
-0.14604849 0.068823688 0.27595744
-0.14565369 0.068903282 0.27627659
-0.14536935 0.06903594 0.2768085
-0.14513849 0.069195136 0.27744681
-0.14501588 0.069407389 0.27829787
-0.14483458 0.069593109 0.27904254
-0.14448525 0.069699243 0.27946809
-0.14386027 0.069672704 0.2793617
-0.14312658 0.069593109 0.27904254
-0.1425029 0.069566585 0.27893618
-0.14204204 0.069619641 0.27914894
-0.14174207 0.069752306 0.27968085
-0.14149362 0.069911495 0.28031915
-0.14124258 0.070070691 0.28095746
-0.14093564 0.070203349 0.28148937
-0.14052047 0.070282944 0.28180853
-0.14005114 0.070336007 0.28202128
-0.13963357 0.070415601 0.28234044
-0.13931948 0.070548259 0.28287235
-0.13910758 0.070733979 0.28361702
-0.13878872 0.070866644 0.28414893
-0.13841595 0.07097277 0.28457448
-0.13783532 0.07097277 0.28457448
-0.13715208 0.0709197 0.28436169
-0.1365208 0.070893176 0.28425533
-0.13599171 0.0709197 0.28436169
-0.13561416 0.071025833 0.28478724
-0.13533576 0.07118503 0.28542554
-0.13500452 0.071317688 0.28595746
-0.1345211 0.071370751 0.28617021
-0.13398701 0.071397282 0.28627661
-0.13350207 0.071450345 0.28648937
-0.13301624 0.071503408 0.28670213
-0.1325787 0.071583003 0.28702128
-0.13218878 0.071689129 0.2874468
-0.13184582 0.071821786 0.28797871
-0.13159768 0.072007515 0.28872341
-0.13129823 0.072166704 0.28936172
-0.130852 0.072246298 0.28968084
-0.13030879 0.07227283 0.28978723
-0.12952706 0.072166704 0.28936172
-0.12865226 0.072007515 0.28872341
-0.12778005 0.071848318 0.2880851
-0.12681651 0.071636066 0.28723404
-0.1259032 0.071450345 0.28648937
-0.12494639 0.071238086 0.2856383
-0.12394674 0.070999302 0.28468084
-0.12299709 0.070787042 0.28382978
-0.12223446 0.070680924 0.28340426
-0.12161056 0.070654385 0.28329787
-0.121078 0.070680924 0.28340426
-0.12059022 0.070733979 0.28361702
-0.12019163 0.070840113 0.28404257
-0.11983608 0.07097277 0.28457448
-0.11943378 0.071078897 0.285
-0.11902975 0.07118503 0.28542554
-0.11857983 0.071264617 0.28574467
-0.11821648 0.071397282 0.28627661
-0.11780724 0.071503408 0.28670213
-0.11735277 0.071583003 0.28702128
-0.11681043 0.071609534 0.28712767
-0.14654158 0.068824999 0.27372339
-0.14609657 0.068878502 0.27393618
-0.14582026 0.069012247 0.27446809
-0.14559805 0.069172733 0.27510637
-0.1453172 0.069306485 0.27563831
-0.14497827 0.069413476 0.27606383
-0.14480457 0.069600716 0.2768085
-0.14468327 0.069814704 0.27765957
-0.1445033 0.070001952 0.27840427
-0.14421025 0.070135698 0.27893618
-0.14364114 0.070135698 0.27893618
-0.14290832 0.070055448 0.27861702
-0.1422855 0.0700287 0.27851063
-0.14171726 0.0700287 0.27851063
-0.14141858 0.070162445 0.27904254
-0.14117144 0.070322938 0.27968085
-0.14102864 0.070536934 0.28053191
-0.14082912 0.070724167 0.28127658
-0.14052047 0.07085792 0.28180853
-0.14010397 0.070938163 0.28212765
-0.13968617 0.071018413 0.2824468
-0.13926709 0.071098655 0.28276595
-0.13895105 0.071232401 0.28329787
-0.13868479 0.071392894 0.28393617
-0.1383642 0.071526639 0.28446808
-0.13783532 0.071553394 0.28457448
-0.1372034 0.071526639 0.28446808
-0.1365208 0.071473144 0.28425533
-0.13599171 0.071499892 0.28436169
-0.13561416 0.071606889 0.28478724
-0.13533576 0.071767382 0.28542554
-0.1349543 0.07187438 0.28585106
-0.1345211 0.071954623 0.28617021
-0.13398701 0.071981378 0.28627661
-0.13350207 0.072034873 0.28648937
-0.13301624 0.072088368 0.28670213
-0.13252956 0.072141863 0.28691489
-0.13218878 0.072275609 0.2874468
-0.13189453 0.072436102 0.2880851
-0.13164617 0.072623342 0.28882977
-0.13129823 0.072757095 0.28936172
-0.13080394 0.07281059 0.28957447
-0.13011746 0.072757095 0.28936172
-0.12928896 0.072623342 0.28882977
-0.12836783 0.072436102 0.2880851
-0.12740256 0.072222114 0.28723404
-0.12644076 0.072008118 0.28638297
-0.12548243 0.07179413 0.28553191
-0.12457412 0.071606889 0.28478724
-0.12366884 0.071419649 0.28404257
-0.12285879 0.071285896 0.28351063
-0.12214269 0.071205661 0.2831915
-0.12151923 0.071178906 0.28308511
-0.1209871 0.071205661 0.2831915
-0.12049976 0.071259156 0.28340426
-0.12010159 0.071366146 0.28382978
-0.11979128 0.071526639 0.28446808
-0.11938919 0.071633637 0.2848936
-0.11894102 0.07171388 0.28521276
-0.11849154 0.07179413 0.28553191
-0.11808469 0.071901128 0.28595746
-0.11771981 0.072034873 0.28648937
-0.11730926 0.072141863 0.28691489
-0.11676715 0.072168618 0.28702128
-0.14559416 0.069464378 0.27404255
-0.14537285 0.069626175 0.27468085
-0.14509284 0.069761001 0.27521276
-0.14481066 0.069895834 0.27574468
-0.14458197 0.070057631 0.27638298
-0.1444061 0.070246391 0.27712765
-0.14411676 0.070381217 0.27765957
-0.14382525 0.07051605 0.27819148
-0.14331244 0.070543021 0.27829787
-0.14269005 0.07051605 0.27819148
-0.14206812 0.070489086 0.27808511
-0.14150073 0.070489086 0.27808511
-0.14120293 0.070623919 0.27861702
-0.14101034 0.070812672 0.2793617
-0.14092168 0.071055375 0.28031915
-0.14077586 0.071271099 0.28117022
-0.1405735 0.07145986 0.28191489
-0.14020963 0.071567729 0.28234044
-0.1397388 0.071621656 0.2825532
-0.13926709 0.071675591 0.28276595
-0.1388467 0.07175649 0.28308511
-0.13852891 0.071891315 0.28361702
-0.13815723 0.071999185 0.28404257
-0.13773227 0.072080076 0.28436169
-0.13715208 0.072080076 0.28436169
-0.1365208 0.072053112 0.28425533
-0.13599171 0.072080076 0.28436169
-0.13566481 0.072214909 0.2848936
-0.13528532 0.072322771 0.28531915
-0.1349543 0.072457604 0.28585106
-0.13447109 0.072511531 0.28606382
-0.13398701 0.072565474 0.28627661
-0.13350207 0.072619401 0.28648937
-0.13301624 0.072673328 0.28670213
-0.1325787 0.072754227 0.28702128
-0.1322377 0.07288906 0.28755319
-0.13194324 0.073050857 0.2881915
-0.13169466 0.073239617 0.28893617
-0.13129823 0.073347487 0.28936172
-0.13065979 0.073320515 0.28925532
-0.1299261 0.073239617 0.28893617
-0.12900324 0.073050857 0.2881915
-0.12808341 0.072862089 0.2874468
-0.12707226 0.072619401 0.28648937
-0.126065 0.072376706 0.28553191
-0.12515517 0.072187945 0.28478724
-0.1242949 0.072026148 0.28414893
-0.12348356 0.071891315 0.28361702
-0.12272049 0.071783453 0.2831915
-0.12205092 0.071729518 0.28297871
-0.12147356 0.071729518 0.28297871
-0.12089619 0.071729518 0.28297871
-0.12045453 0.071810417 0.28329787
-0.12010159 0.07194525 0.28382978
-0.11974648 0.072080076 0.28436169
-0.11930004 0.072160974 0.28468084
-0.11880792 0.072214909 0.2848936
-0.11831495 0.072268844 0.28510639
-0.1179529 0.072403669 0.2856383
-0.11763239 0.072565474 0.28627661
-0.11726578 0.072700299 0.28680852
-0.11681043 0.072781198 0.28712767
-0.14418437 0.070703089 0.27670214
-0.14378546 0.070784636 0.27702129
-0.14338525 0.070866182 0.27734041
-0.14298373 0.070947729 0.27765957
-0.14247179 0.070974916 0.27776596
-0.14190507 0.070974916 0.27776596
-0.14144659 0.071029283 0.27797872
-0.1410951 0.071138017 0.27840427
-0.14095666 0.071355484 0.27925533
-0.1408682 0.071600124 0.28021276
-0.14072259 0.071817592 0.28106382
-0.14046742 0.071980692 0.28170213
-0.14015681 0.072116606 0.28223404
-0.13968617 0.072170973 0.2824468
-0.13926709 0.072252519 0.28276595
-0.13879451 0.072306886 0.28297871
-0.13842499 0.07241562 0.28340426
-0.13800199 0.072497167 0.28372341
-0.1375777 0.072578721 0.28404257
-0.13704947 0.0726059 0.28414893
-0.1365208 0.072633088 0.28425533
-0.13604258 0.072687447 0.28446808
-0.13566481 0.072796181 0.2848936
-0.13533576 0.072932102 0.28542554
-0.13490407 0.073013641 0.28574467
-0.13442108 0.073068015 0.28595746
-0.13393722 0.073122375 0.28617021
-0.13345249 0.073176742 0.28638297
-0.13301624 0.073258296 0.28670213
-0.13262784 0.073367029 0.28712767
-0.13228664 0.073502943 0.28765959
-0.13199194 0.073666036 0.28829786
-0.13164617 0.07380195 0.28882977
-0.13115342 0.073856324 0.28904256
-0.13051562 0.073829137 0.28893617
-0.12968691 0.073693223 0.28840426
-0.12876514 0.073502943 0.28765959
-0.127799 0.073285475 0.28680852
-0.12678914 0.073040828 0.28585106
-0.12578319 0.072796181 0.2848936
-0.12487465 0.0726059 0.28414893
-0.12410877 0.072497167 0.28372341
-0.12334461 0.072388433 0.28329787
-0.12267439 0.072334066 0.28308511
-0.12205092 0.072306886 0.28297871
-0.12142789 0.072279707 0.28287235
-0.12089619 0.072306886 0.28297871
-0.12045453 0.072388433 0.28329787
-0.12010159 0.072524346 0.28382978
-0.11965688 0.0726059 0.28414893
-0.11921088 0.072687447 0.28446808
-0.11867484 0.072714634 0.28457448
-0.11822665 0.072796181 0.2848936
-0.11790896 0.072959274 0.28553191
-0.11763239 0.073149562 0.28627661
-0.11739627 0.073367029 0.28712767
-0.11698355 0.073475756 0.28755319
-0.14322026 0.071349852 0.27702129
-0.14281939 0.071432039 0.27734041
-0.14236267 0.071486846 0.2775532
-0.14179637 0.071486846 0.2775532
-0.14133833 0.071541645 0.27776596
-0.14104117 0.071678646 0.27829787
-0.14084925 0.071870446 0.27904254
-0.14070776 0.072089642 0.27989361
-0.14050955 0.07228145 0.28063831
-0.14025521 0.072445847 0.28127658
-0.13989265 0.072555453 0.28170213
-0.13952833 0.072665051 0.28212765
-0.13910989 0.072747245 0.2824468
-0.13869016 0.072829448 0.28276595
-0.13826911 0.07291165 0.28308511
-0.13784675 0.072993852 0.28340426
-0.13742311 0.073076054 0.28372341
-0.13694684 0.073130853 0.28393617
-0.1365208 0.073213056 0.28425533
-0.13614434 0.073322654 0.28468084
-0.13576613 0.073432252 0.28510639
-0.13533576 0.073514454 0.28542554
-0.13490407 0.073596649 0.28574467
-0.13442108 0.073651455 0.28595746
-0.13388743 0.073678851 0.28606382
-0.13340293 0.073733658 0.28627661
-0.13296689 0.073815852 0.28659573
-0.1325787 0.073925458 0.28702128
-0.13228664 0.074089855 0.28765959
-0.13199194 0.074254252 0.28829786
-0.13159768 0.074363858 0.28872341
-0.13105686 0.074391253 0.28882977
-0.13032341 0.074309058 0.28851065
-0.12954339 0.074199453 0.2880851
-0.12862228 0.07400766 0.28734043
-0.12760937 0.073761053 0.28638297
-0.1266004 0.073514454 0.28542554
-0.12559532 0.073267855 0.28446808
-0.12473439 0.07310345 0.28382978
-0.12396916 0.072993852 0.28340426
-0.12329829 0.072939053 0.2831915
-0.12267439 0.07291165 0.28308511
-0.12205092 0.072884247 0.28297871
-0.12147356 0.072884247 0.28297871
-0.12089619 0.072884247 0.28297871
-0.12045453 0.072966449 0.28329787
-0.12001156 0.073048651 0.28361702
-0.11961209 0.073158257 0.28404257
-0.11912172 0.073213056 0.28425533
-0.11867484 0.073295258 0.28457448
-0.1182708 0.073404849 0.285
-0.11799682 0.073596649 0.28574467
-0.11780724 0.073843256 0.28670213
-0.11774422 0.07417205 0.28797871
-0.11767601 0.074500859 0.28925532
-0.14174202 0.072025523 0.27744681
-0.1412842 0.072080754 0.27765957
-0.14098726 0.072218843 0.27819148
-0.14068817 0.072356932 0.27872342
-0.14044036 0.072522633 0.2793617
-0.14013669 0.072660714 0.27989361
-0.13983084 0.072798803 0.28042552
-0.13947001 0.072909273 0.28085107
-0.13916005 0.073047362 0.28138298
-0.13884792 0.073185444 0.28191489
-0.13853362 0.073323525 0.2824468
-0.13816519 0.073434003 0.28287235
-0.13774328 0.073516853 0.2831915
-0.13732004 0.073599696 0.28351063
-0.13694684 0.073710173 0.28393617
-0.13657188 0.073820636 0.28436169
-0.13619521 0.073931105 0.28478724
-0.13581678 0.074041575 0.28521276
-0.1353862 0.074124426 0.28553191
-0.13490407 0.074179657 0.28574467
-0.13437107 0.074207276 0.28585106
-0.13388743 0.074262515 0.28606382
-0.13340293 0.074317753 0.28627661
-0.13296689 0.074400596 0.28659573
-0.1325787 0.074511066 0.28702128
-0.13228664 0.074676774 0.28765959
-0.13199194 0.074842468 0.28829786
-0.13159768 0.074952945 0.28872341
-0.1310086 0.074952945 0.28872341
-0.13032341 0.074897714 0.28851065
-0.12949556 0.074759617 0.28797871
-0.12852705 0.074538685 0.28712767
-0.12746717 0.074262515 0.28606382
-0.12636445 0.073958725 0.2848936
-0.12540744 0.073737793 0.28404257
-0.12459414 0.073599696 0.28351063
-0.12382956 0.073489234 0.28308511
-0.12315934 0.073434003 0.28287235
-0.12258219 0.073434003 0.28287235
-0.12200505 0.073434003 0.28287235
-0.12142789 0.073434003 0.28287235
-0.12089619 0.073461615 0.28297871
-0.1204093 0.073516853 0.2831915
-0.11996654 0.073599696 0.28351063
-0.11952248 0.073682554 0.28382978
-0.11912172 0.073793024 0.28425533
-0.1187192 0.073903486 0.28468084
-0.11840325 0.074069194 0.28531915
-0.11817255 0.074290134 0.28617021
-0.11806952 0.074593924 0.28734043
-0.11817919 0.075035796 0.28904256
-0.1183252 0.075505286 0.29085106
-0.11850689 0.076002389 0.29276595
-0.14058076 0.072869942 0.27851063
-0.14022644 0.072981283 0.27893618
-0.13981712 0.073064789 0.27925533
-0.13945952 0.073176123 0.27968085
-0.13910021 0.073287465 0.2801064
-0.13884437 0.073454462 0.28074467
-0.13858594 0.073621467 0.28138298
-0.13827272 0.073760636 0.28191489
-0.13795733 0.073899806 0.2824468
-0.13758804 0.074011147 0.28287235
-0.13726853 0.074150316 0.28340426
-0.13694684 0.074289493 0.28393617
-0.136623 0.074428663 0.28446808
-0.13629696 0.074567832 0.285
-0.13586745 0.074651331 0.28531915
-0.13533576 0.074679174 0.28542554
-0.13485385 0.074734837 0.2856383
-0.13432106 0.074762665 0.28574467
-0.13388743 0.074846171 0.28606382
-0.13345249 0.074929677 0.28638297
-0.13306561 0.075041018 0.28680852
-0.13262784 0.075124517 0.28712767
-0.13228664 0.075263686 0.28765959
-0.13194324 0.075402856 0.2881915
-0.13154919 0.07551419 0.28861701
-0.13105686 0.075569861 0.28882977
-0.13032341 0.075486362 0.28851065
-0.12944773 0.075319357 0.28787234
-0.12838417 0.075041018 0.28680852
-0.12723015 0.074707001 0.28553191
-0.12612852 0.07440082 0.28436169
-0.12512563 0.074150316 0.28340426
-0.12431364 0.074011147 0.28287235
-0.12364341 0.073955476 0.28265956
-0.12297406 0.073899806 0.2824468
-0.12239778 0.073899806 0.2824468
-0.12186739 0.073927648 0.2825532
-0.12133656 0.073955476 0.28265956
-0.12080529 0.073983312 0.28276595
-0.1202736 0.074011147 0.28287235
-0.11987651 0.074122481 0.28329787
-0.1194777 0.074233823 0.28372341
-0.11912172 0.074372992 0.28425533
-0.11876357 0.074512161 0.28478724
-0.11849154 0.074707001 0.28553191
-0.11830434 0.074957512 0.28648937
-0.11837551 0.075375021 0.2880851
-0.11857066 0.075876035 0.28999999
-0.11884455 0.076432727 0.29212767
-0.11902364 0.076933742 0.29404256
-0.11906637 0.07735125 0.29563829
-0.13965732 0.073550403 0.27893618
-0.13924734 0.073634557 0.27925533
-0.13894172 0.073774807 0.27978724
-0.13863394 0.073915064 0.28031915
-0.13842876 0.074111424 0.28106382
-0.13816836 0.074279733 0.28170213
-0.13785341 0.07441999 0.28223404
-0.13748454 0.074532188 0.28265956
-0.137217 0.074700497 0.28329787
-0.13694684 0.074868806 0.28393617
-0.13667409 0.075037122 0.28457448
-0.13629696 0.07514932 0.285
-0.13581678 0.075205423 0.28521276
-0.13528532 0.075233474 0.28531915
-0.13475341 0.075261526 0.28542554
-0.13427106 0.075317629 0.2856383
-0.13393722 0.075457886 0.28617021
-0.1336012 0.075598143 0.28670213
-0.13321368 0.075710349 0.28712767
-0.13272613 0.075766452 0.28734043
-0.13228664 0.075850606 0.28765959
-0.13189453 0.075962804 0.2880851
-0.13150071 0.076075017 0.28851065
-0.1310086 0.076131113 0.28872341
-0.13032341 0.076075017 0.28851065
-0.12935206 0.075850606 0.28765959
-0.12819369 0.075513989 0.28638297
-0.12689833 0.075093217 0.28478724
-0.12575103 0.0747566 0.28351063
-0.12479684 0.074532188 0.28265956
-0.12403312 0.07441999 0.28223404
-0.12341073 0.074391931 0.28212765
-0.12283511 0.074391931 0.28212765
-0.12225948 0.074391931 0.28212765
-0.12177563 0.074448042 0.28234044
-0.12124522 0.074476086 0.2824468
-0.1207144 0.074504144 0.2825532
-0.12022837 0.07456024 0.28276595
-0.1198315 0.074672453 0.2831915
-0.11943289 0.074784651 0.28361702
-0.11912172 0.07495296 0.28425533
-0.11876357 0.075093217 0.28478724
-0.11853569 0.075317629 0.2856383
-0.11848006 0.075654238 0.28691489
-0.11863779 0.076131113 0.28872341
-0.11891863 0.076692134 0.29085106
-0.11923406 0.077281214 0.2930851
-0.11936814 0.077758089 0.29489362
-0.1192806 0.078094698 0.2961702
-0.11893209 0.078263007 0.29680851
-0.11849614 0.078375213 0.29723403
-0.11805847 0.078487419 0.29765958
-0.11770302 0.078655727 0.29829788
-0.1374328 0.075080641 0.2825532
-0.137217 0.075278513 0.28329787
-0.13704947 0.075504661 0.28414893
-0.13677627 0.075674273 0.28478724
-0.13634785 0.075759083 0.28510639
-0.13581678 0.075787343 0.28521276
-0.13513398 0.075730808 0.285
-0.13455249 0.075730808 0.285
-0.13417104 0.075843886 0.28542554
-0.13388743 0.076013491 0.28606382
-0.13365079 0.076211371 0.28680852
-0.13331239 0.076352715 0.28734043
-0.13282441 0.07640925 0.28755319
-0.1322377 0.07640925 0.28755319
-0.13174841 0.076465786 0.28776595
-0.13135524 0.076578863 0.2881915
-0.13091207 0.076663665 0.28851065
-0.13022728 0.076607123 0.28829786
-0.12920853 0.076352715 0.28734043
-0.12790796 0.075928681 0.28574467
-0.12656651 0.075476401 0.28404257
-0.12542073 0.075137176 0.28276595
-0.12451503 0.074939296 0.28202128
-0.12379936 0.074854493 0.28170213
-0.1232246 0.074854493 0.28170213
-0.12274247 0.074911028 0.28191489
-0.12225948 0.074967563 0.28212765
-0.12172974 0.074995831 0.28223404
-0.12124522 0.075052366 0.2824468
-0.1207144 0.075080641 0.2825532
-0.12022837 0.075137176 0.28276595
-0.1198315 0.075250253 0.2831915
-0.11943289 0.075363323 0.28361702
-0.11912172 0.075532936 0.28425533
-0.11880792 0.075702541 0.2848936
-0.11862398 0.075956956 0.28585106
-0.11865579 0.076352715 0.28734043
-0.11890008 0.076889813 0.28936172
-0.11922311 0.077483445 0.29159576
-0.11949374 0.07804881 0.2937234
-0.11958344 0.078501105 0.29542553
-0.11940914 0.078783788 0.29648936
-0.11901734 0.078925125 0.29702127
-0.11853856 0.079009935 0.29734042
-0.11805847 0.079094738 0.29765958
-0.11770302 0.07926435 0.29829788
-0.1173032 0.079405695 0.29882979
-0.1169012 0.079547033 0.29936171
-0.11649704 0.07968837 0.29989362
-0.13687845 0.076312296 0.285
-0.13634785 0.076340787 0.28510639
-0.13566481 0.076283813 0.2848936
-0.13493222 0.076198362 0.28457448
-0.13430138 0.076169871 0.28446808
-0.13387099 0.076255329 0.28478724
-0.13368827 0.076483212 0.2856383
-0.13355163 0.076739572 0.28659573
-0.13326304 0.076910488 0.28723404
-0.13277526 0.076967455 0.2874468
-0.13213986 0.076938979 0.28734043
-0.1316023 0.076967455 0.2874468
-0.13116129 0.077052914 0.28776595
-0.13071896 0.077138372 0.2880851
-0.12998702 0.077052914 0.28776595
-0.12892151 0.076768063 0.28670213
-0.12757462 0.076312296 0.285
-0.12623468 0.075856529 0.28329787
-0.12513763 0.075543188 0.28212765
-0.12428018 0.075372286 0.28148937
-0.1236591 0.075343795 0.28138298
-0.12317806 0.075400762 0.28159574
-0.12274247 0.07548622 0.28191489
-0.12225948 0.075543188 0.28212765
-0.12177563 0.07560017 0.28234044
-0.12124522 0.075628646 0.2824468
-0.12075984 0.075685613 0.28265956
-0.1202736 0.075742595 0.28287235
-0.11987651 0.075856529 0.28329787
-0.11952248 0.075998954 0.28382978
-0.11916629 0.07614138 0.28436169
-0.11889666 0.076340787 0.28510639
-0.11880058 0.076654129 0.28627661
-0.11891936 0.077109888 0.28797871
-0.11920606 0.077679597 0.29010639
-0.11952758 0.078277789 0.29234043
-0.11971013 0.078790523 0.29425532
-0.11971264 0.079189323 0.29574469
-0.11949482 0.079445682 0.29670212
-0.11905997 0.079559632 0.29712766
-0.11858097 0.07964509 0.29744682
-0.11810067 0.079730548 0.29776597
-0.11770302 0.079872973 0.29829788
-0.11726143 0.079986908 0.2987234
-0.11685966 0.080129333 0.29925531
-0.11641439 0.080243282 0.29968086
-0.11596738 0.080357216 0.30010638
-0.11551864 0.080471165 0.30053192
-0.13551284 0.076778978 0.28457448
-0.13462956 0.076606765 0.28393617
-0.1339498 0.076549359 0.28372341
-0.13352095 0.076635472 0.28404257
-0.13338952 0.076893784 0.285
-0.1332542 0.077152111 0.28595746
-0.13306561 0.07738173 0.28680852
-0.13262784 0.077467836 0.28712767
-0.13204202 0.077467836 0.28712767
-0.13140748 0.077439137 0.28702128
-0.13091885 0.077496536 0.28723404
-0.13038108 0.077525243 0.28734043
-0.12960258 0.07741043 0.28691489
-0.12849097 0.077094704 0.28574467
-0.12719366 0.076664165 0.28414893
-0.12590288 0.076233633 0.2825532
-0.12490169 0.075975306 0.28159574
-0.12413928 0.0758605 0.28117022
-0.12356561 0.0758605 0.28117022
-0.12313154 0.075946607 0.28148937
-0.12269616 0.076032721 0.28180853
-0.12225948 0.076118819 0.28212765
-0.12177563 0.076176234 0.28234044
-0.12124522 0.076204926 0.2824468
-0.12075984 0.076262332 0.28265956
-0.12031882 0.076348439 0.28297871
-0.11992153 0.076463252 0.28340426
-0.11956729 0.076606765 0.28393617
-0.11925546 0.076778978 0.28457448
-0.11907411 0.077037297 0.28553191
-0.11902131 0.07738173 0.28680852
-0.11922688 0.077898376 0.28872341
-0.11951205 0.078472421 0.29085106
-0.11974505 0.079017766 0.29287234
-0.11988325 0.079505712 0.29468086
-0.11979876 0.079850137 0.29595745
-0.11953767 0.080079757 0.29680851
-0.1191026 0.080194563 0.29723403
-0.11866579 0.080309376 0.29765958
-0.11814286 0.080366775 0.29787233
-0.11770302 0.080481596 0.29829788
-0.11721968 0.080567703 0.29861704
-0.11673503 0.080653802 0.29893616
-0.11624908 0.080739908 0.29925531
-0.11580295 0.080854721 0.29968086
-0.11535507 0.080969527 0.30010638
-0.11486478 0.081055641 0.30042553
-0.11433273 0.08111304 0.30063829
-0.1138803 0.081227854 0.30106384
-0.1337489 0.077012561 0.28329787
-0.13332091 0.077099323 0.28361702
-0.13309076 0.077301756 0.28436169
-0.13295676 0.077562034 0.28531915
-0.13281883 0.077822313 0.28627661
-0.13243128 0.07793799 0.28670213
-0.13184632 0.07793799 0.28670213
-0.13121265 0.077909067 0.28659573
-0.13057943 0.077880152 0.28648937
-0.12989835 0.077822313 0.28627661
-0.12907398 0.077677712 0.28574467
-0.12796478 0.077359602 0.28457448
-0.12676509 0.076983646 0.2831915
-0.12561844 0.076636612 0.28191489
-0.12471295 0.07643418 0.28117022
-0.12404534 0.076376341 0.28095746
-0.12351885 0.076405257 0.28106382
-0.12308499 0.076492012 0.28138298
-0.12264984 0.076578774 0.28170213
-0.12216728 0.076636612 0.28191489
-0.12168385 0.076694451 0.28212765
-0.12115389 0.076723367 0.28223404
-0.1207144 0.076810129 0.2825532
-0.12031882 0.076925807 0.28297871
-0.11996654 0.0770704 0.28351063
-0.11965688 0.077243917 0.28414893
-0.11938919 0.077446356 0.2848936
-0.11929593 0.077764466 0.28606382
-0.11933034 0.078169346 0.28755319
-0.11957832 0.078718819 0.28957447
-0.11981805 0.079268284 0.29159576
-0.12000604 0.079788834 0.29351065
-0.12001308 0.080193706 0.29499999
-0.11984182 0.080482908 0.29606384
-0.11953767 0.08068534 0.29680851
-0.11914523 0.080829933 0.29734042
-0.11866579 0.080916695 0.29765958
-0.11818506 0.081003457 0.29797873
-0.11770302 0.081090212 0.29829788
-0.11717792 0.081148051 0.29851064
-0.11669349 0.081234813 0.29882979
-0.11612511 0.081263721 0.29893616
-0.11563851 0.081350483 0.29925531
-0.11510971 0.081408322 0.29946807
-0.11470209 0.081552923 0.30000001
-0.11425182 0.0816686 0.30042553
-0.11384006 0.081813194 0.30095744
-0.11338611 0.081928879 0.30138299
-0.11308964 0.082160234 0.30223405
-0.11286888 0.082449429 0.30329788
-0.11252566 0.082651861 0.30404255
-0.1332209 0.077619717 0.28340426
-0.13294141 0.077794537 0.28404257
-0.13275845 0.078027628 0.2848936
-0.13252269 0.078231588 0.2856383
-0.13213645 0.07834813 0.28606382
-0.13155279 0.07834813 0.28606382
-0.13087171 0.078289859 0.28585106
-0.13009454 0.078173317 0.28542554
-0.1293191 0.078056768 0.285
-0.12840123 0.077852815 0.28425533
-0.12734289 0.077561446 0.2831915
-0.12628888 0.077270076 0.28212765
-0.12538143 0.077066123 0.28138298
-0.12461858 0.076949582 0.28095746
-0.12404534 0.076949582 0.28095746
-0.12351885 0.076978713 0.28106382
-0.12308499 0.077066123 0.28138298
-0.12260352 0.077124394 0.28159574
-0.12207508 0.077153534 0.28170213
-0.12159208 0.077211805 0.28191489
-0.12110822 0.077270076 0.28212765
-0.12066894 0.077357486 0.2824468
-0.12031882 0.077503167 0.28297871
-0.12001156 0.077677988 0.28361702
-0.11974648 0.07788194 0.28436169
-0.11956753 0.078144178 0.28531915
-0.11956213 0.07852295 0.28670213
-0.11972767 0.079018272 0.28851065
-0.11997369 0.079571865 0.2905319
-0.12021147 0.080125459 0.29255319
-0.120267 0.080562502 0.29414892
-0.12009965 0.080853872 0.29521278
-0.11988488 0.081116103 0.2961702
-0.11953767 0.081290923 0.29680851
-0.11914523 0.081436604 0.29734042
-0.11862338 0.081494875 0.29755318
-0.11810067 0.081553154 0.29776597
-0.11761906 0.081640556 0.29808509
-0.11713615 0.081727967 0.29840425
-0.11665194 0.081815377 0.2987234
-0.11608379 0.081844516 0.29882979
-0.11555629 0.081902787 0.29904255
-0.11502793 0.081961058 0.29925531
-0.11453938 0.082048468 0.29957446
-0.11413044 0.082194149 0.30010638
-0.11371934 0.082339831 0.30063829
-0.11334608 0.082514651 0.30127659
-0.11301003 0.082718611 0.30202127
-0.11271052 0.082951702 0.30287233
-0.11228943 0.083097383 0.30340424
-0.11178786 0.083184794 0.30372339
-0.11124605 0.083243072 0.30393618
-0.11081953 0.083388753 0.3044681
-0.13294141 0.078374073 0.28404257
-0.13260974 0.078520842 0.28457448
-0.13222654 0.078638256 0.285
-0.1316942 0.078667611 0.28510639
-0.13106357 0.078638256 0.285
-0.13028726 0.078520842 0.28457448
-0.12951268 0.078403428 0.28414893
-0.12864329 0.078227304 0.28351063
-0.12772846 0.078021832 0.28276595
-0.12676884 0.077786997 0.28191489
-0.12590791 0.077610873 0.28127658
-0.12514442 0.077493466 0.28085107
-0.1245242 0.077464111 0.28074467
-0.12399837 0.077493466 0.28085107
-0.12351885 0.07755217 0.28106382
-0.12308499 0.077640235 0.28138298
-0.12255721 0.077669591 0.28148937
-0.12202898 0.077698939 0.28159574
-0.12150032 0.077728294 0.28170213
-0.12106256 0.07781636 0.28202128
-0.1207144 0.077963121 0.2825532
-0.12036406 0.07810989 0.28308511
-0.12010159 0.078315362 0.28382978
-0.11992568 0.078579545 0.28478724
-0.11983502 0.078902438 0.28595746
-0.11991704 0.079342738 0.28755319
-0.12016914 0.079900458 0.28957447
-0.12045693 0.080487527 0.29170212
-0.12056118 0.080957189 0.29340425
-0.12052798 0.081338786 0.29478723
-0.12027276 0.081573613 0.29563829
-0.11997101 0.081779093 0.29638299
-0.11958052 0.081925862 0.29691491
-0.1191026 0.082013912 0.29723403
-0.11858097 0.082072623 0.29744682
-0.11801628 0.082101978 0.29755318
-0.11749314 0.082160689 0.29776597
-0.11705264 0.082278095 0.29819149
-0.11665194 0.082424864 0.2987234
-0.11612511 0.082483575 0.29893616
-0.1155974 0.082542285 0.29914895
-0.11506883 0.082600988 0.29936171
-0.11458007 0.082689054 0.29968086
-0.11413044 0.082806461 0.30010638
-0.11371934 0.08295323 0.30063829
-0.11330605 0.083099999 0.3011702
-0.11285081 0.083217412 0.30159575
-0.1123938 0.083334826 0.30202127
-0.11193508 0.083452247 0.30244681
-0.11147461 0.083569653 0.30287233
-0.11105134 0.083716422 0.30340424
-0.11074208 0.08395125 0.30425531
-0.11039083 0.084156729 0.30500001
-0.11003654 0.084362201 0.30574468
-0.10956501 0.084479623 0.30617023
-0.13236187 0.078953609 0.28404257
-0.13178234 0.078953609 0.28404257
-0.13115366 0.078924038 0.28393617
-0.13037865 0.078805752 0.28351063
-0.12960538 0.078687474 0.28308511
-0.12883383 0.078569189 0.28265956
-0.12806404 0.078450911 0.28223404
-0.12719986 0.078273483 0.28159574
-0.12629047 0.078066491 0.28085107
-0.12552695 0.077948205 0.28042552
-0.1249074 0.077918634 0.28031915
-0.12438264 0.077948205 0.28042552
-0.12390444 0.078007348 0.28063831
-0.1234721 0.078096062 0.28095746
-0.12303846 0.078184769 0.28127658
-0.12255721 0.078243919 0.28148937
-0.12202898 0.078273483 0.28159574
-0.12150032 0.078303054 0.28170213
-0.12106256 0.078391768 0.28202128
-0.1207144 0.078539617 0.2825532
-0.12045453 0.078746609 0.28329787
-0.12023664 0.07898318 0.28414893
-0.12010486 0.079278879 0.28521276
-0.1201025 0.079663299 0.28659573
-0.12027196 0.080166005 0.28840426
-0.12056646 0.080757417 0.2905319
-0.12080836 0.081319258 0.29255319
-0.12086716 0.081762813 0.29414892
-0.12070198 0.082058527 0.29521278
-0.1204026 0.082265519 0.29595745
-0.12005713 0.082442947 0.29659575
-0.11962336 0.082561225 0.29702127
-0.11905997 0.082590796 0.29712766
-0.11845374 0.082590796 0.29712766
-0.11788969 0.08262036 0.29723403
-0.11740918 0.082709074 0.29755318
-0.11696912 0.082827367 0.29797873
-0.11661041 0.083004788 0.29861704
-0.11616644 0.083123066 0.29904255
-0.11563851 0.083182208 0.29925531
-0.11510971 0.083241343 0.29946807
-0.11462073 0.083330058 0.29978722
-0.11421136 0.083477914 0.30031914
-0.11375958 0.0835962 0.30074468
-0.11330605 0.083714478 0.3011702
-0.11277119 0.083773628 0.30138299
-0.11219586 0.083803192 0.30148935
-0.11165948 0.083862334 0.30170214
-0.11123969 0.084010191 0.30223405
-0.1108956 0.084217183 0.30297872
-0.11058719 0.084453747 0.30382979
-0.11027532 0.08469031 0.30468085
-0.1098834 0.084867738 0.30531916
-0.10941273 0.084986016 0.30574468
-0.10882677 0.085015595 0.30585107
-0.10820274 0.085015595 0.30585107
-0.13211399 0.0793842 0.28351063
-0.13143684 0.079324625 0.28329787
-0.13061312 0.079175688 0.28276595
-0.12979157 0.079026751 0.28223404
-0.12902091 0.078907609 0.28180853
-0.12830047 0.078818239 0.28148937
-0.12758133 0.078728877 0.28117022
-0.12681542 0.07860972 0.28074467
-0.12600344 0.078460783 0.28021276
-0.12528886 0.078371421 0.27989361
-0.12467039 0.078341641 0.27978724
-0.12419391 0.078401208 0.28
-0.12376352 0.078490578 0.28031915
-0.12337859 0.07860972 0.28074467
-0.12299193 0.078728877 0.28117022
-0.12251089 0.078788452 0.28138298
-0.12198288 0.078818239 0.28148937
-0.12150032 0.078877814 0.28170213
-0.12106256 0.078967176 0.28202128
-0.12075984 0.079145901 0.28265956
-0.12054498 0.0793842 0.28351063
-0.12037168 0.079652295 0.28446808
-0.12028407 0.079979964 0.2856383
-0.12036999 0.080426775 0.28723404
-0.1205825 0.080962949 0.28914893
-0.1208755 0.081558712 0.2912766
-0.12102801 0.082065098 0.2930851
-0.1209983 0.082452334 0.29446808
-0.12078897 0.082720429 0.29542553
-0.12044588 0.082899153 0.29606384
-0.12010019 0.083077878 0.29670212
-0.11962336 0.08316724 0.29702127
-0.11905997 0.083197027 0.29712766
-0.11841132 0.08316724 0.29702127
-0.11784751 0.083197027 0.29712766
-0.11732522 0.083256602 0.29734042
-0.1168856 0.083375759 0.29776597
-0.11652731 0.083554476 0.29840425
-0.11608379 0.083673634 0.29882979
-0.11563851 0.083792783 0.29925531
-0.11515061 0.083882146 0.29957446
-0.11466141 0.083971508 0.29989362
-0.11421136 0.084090658 0.30031914
-0.11379983 0.084239602 0.30085108
-0.11326604 0.084299177 0.30106384
