# .PCD v0.7 - Point Cloud Data file format
VERSION 0.7
FIELDS x y z
SIZE 4 4 4
TYPE F F F
COUNT 1 1 1
WIDTH 1371
HEIGHT 1
VIEWPOINT 0 0 0 1 0 0 0
POINTS 1371
DATA ascii
-0.11414155 0.08534994 0.29975003
-0.11382259 0.085574031 0.29996577
-0.11351156 0.085757114 0.3001864
-0.11328275 0.085903339 0.30034402
-0.11287797 0.086141102 0.30061471
-0.11238444 0.086413719 0.30093494
-0.11182157 0.086723089 0.30129287
-0.11129767 0.087025739 0.30163646
-0.11085397 0.087278008 0.30193752
-0.11038257 0.087555468 0.30226827
-0.10997062 0.087791398 0.30257562
-0.10958201 0.088025056 0.30287302
-0.10920577 0.088259093 0.30315697
-0.10879744 0.088520966 0.30345926
-0.10831362 0.088786922 0.30380893
-0.10788351 0.089052163 0.30410793
-0.10746575 0.089305282 0.30439326
-0.10704624 0.089554191 0.30468264
-0.10659363 0.089831777 0.30499548
-0.10614591 0.090110563 0.30531558
-0.10574225 0.090363756 0.30560017
-0.10533807 0.090620279 0.30589297
-0.10493276 0.090872318 0.30617946
-0.10445751 0.091159463 0.30651227
-0.10388821 0.091509335 0.30688289
-0.10337322 0.091801673 0.30720335
-0.10284458 0.092128024 0.30751795
-0.10232333 0.092453398 0.30784133
-0.10198577 0.092651874 0.30806485
-0.10163659 0.092839047 0.30832142
-0.10133468 0.093022108 0.3085323
-0.10073569 0.093367301 0.30895808
-0.10011996 0.093709476 0.30937576
-0.099586032 0.09401878 0.30971724
-0.09908136 0.094320118 0.31003413
-0.12836398 0.081894659 0.28110963
-0.12801926 0.082029305 0.28105921
-0.12763554 0.082190029 0.28098089
-0.12722184 0.082340896 0.28082633
-0.12666997 0.082480058 0.28065372
-0.12618896 0.082700007 0.28043517
-0.12592342 0.082772218 0.28031045
-0.12570795 0.082769878 0.28025824
-0.12551609 0.082771316 0.28021854
-0.12532981 0.082676403 0.28025034
-0.12522729 0.082616501 0.28029144
-0.1251093 0.082486428 0.28039008
-0.12501211 0.082348041 0.2804842
-0.12493834 0.08221928 0.28059047
-0.12485561 0.082124025 0.28071693
-0.12472603 0.081986539 0.28084257
-0.12458356 0.081846297 0.28090194
-0.12437539 0.081700526 0.28103009
-0.12411824 0.081562176 0.28111148
-0.12386998 0.081415951 0.2811909
-0.12364419 0.081287995 0.2812745
-0.11642183 0.084006116 0.29764736
-0.11618406 0.084167667 0.29790345
-0.11590632 0.084325843 0.29822093
-0.1154728 0.084611513 0.29862365
-0.11513271 0.084790014 0.2989428
-0.11472531 0.085070975 0.2992796
-0.11441553 0.08526852 0.29952157
-0.11406332 0.085463099 0.29979515
-0.11377449 0.085638516 0.29999539
-0.11342204 0.085863046 0.30023763
-0.11309062 0.086060055 0.30046362
-0.1126795 0.086293355 0.30073139
-0.11213846 0.086586319 0.30107656
-0.11167473 0.086854339 0.30137095
-0.11109718 0.087164149 0.30176008
-0.11065066 0.087421909 0.30206668
-0.11026552 0.087664254 0.30234191
-0.10981196 0.087947972 0.30267465
-0.10941657 0.088163905 0.30298406
-0.1089349 0.088476248 0.30334535
-0.10847329 0.088737272 0.30368802
-0.10801209 0.089038722 0.30400267
-0.10760449 0.08926674 0.30428696
-0.1072222 0.089514248 0.30454239
-0.10674861 0.089770399 0.30487344
-0.10631236 0.0900435 0.30517253
-0.10595633 0.090258479 0.30542782
-0.1056169 0.090470433 0.30567765
-0.10520086 0.09074679 0.30597478
-0.10474443 0.091040358 0.30629539
-0.10428046 0.091311805 0.30661467
-0.10377453 0.091611281 0.30694219
-0.10319229 0.09194877 0.30729797
-0.10266553 0.092282966 0.30761051
-0.10215789 0.092589058 0.30794379
-0.10174878 0.092831165 0.30821648
-0.10144717 0.093018457 0.30841467
-0.10105728 0.093246967 0.30868515
-0.10049322 0.093544893 0.30909133
-0.099906571 0.093878932 0.3094753
-0.099354908 0.094205715 0.3098309
-0.098871544 0.094485514 0.31014252
-0.098462895 0.094732694 0.31039143
-0.12819564 0.082490005 0.28078029
-0.12776931 0.08267504 0.28069389
-0.12735836 0.082859784 0.28052744
-0.12688091 0.083023325 0.28034663
-0.12641607 0.083155721 0.28018913
-0.12613596 0.083278641 0.28005061
-0.12592095 0.08329092 0.28002009
-0.12570152 0.0832785 0.27998212
-0.12555514 0.08326409 0.27995721
-0.12543423 0.083148889 0.28000683
-0.12532598 0.083020873 0.28009197
-0.12522285 0.082905471 0.28018579
-0.12510943 0.082763016 0.28028357
-0.12503697 0.082622722 0.2803826
-0.12492895 0.082501791 0.280516
-0.12481818 0.082418106 0.28057751
-0.12467008 0.082304597 0.28067556
-0.12442397 0.082131788 0.28075787
-0.1241852 0.081997313 0.28090313
-0.12398452 0.081905171 0.28094259
-0.11587764 0.084424295 0.2982693
-0.11550381 0.084652983 0.29861036
-0.11510099 0.084887065 0.29896489
-0.11465015 0.085194424 0.29932949
-0.11437135 0.085347369 0.29954362
-0.11401427 0.085587181 0.2997953
-0.11363517 0.085808255 0.30006534
-0.11332528 0.085972205 0.30029088
-0.11290024 0.086214922 0.30057576
-0.11237607 0.086512998 0.30091366
-0.11189669 0.086770035 0.30122033
-0.11145996 0.087003 0.30150211
-0.11096986 0.087291263 0.30182865
-0.11055612 0.087526523 0.30211407
-0.11020881 0.087731846 0.3023681
-0.10978583 0.087989293 0.30268398
-0.10930482 0.088294841 0.30304506
-0.10877462 0.08862821 0.30344769
-0.10824449 0.088925213 0.30383831
-0.10783055 0.089188434 0.30411896
-0.10734011 0.089462399 0.30445352
-0.10695042 0.08969494 0.30471799
-0.10649437 0.089958668 0.30503112
-0.10615382 0.090158269 0.30527321
-0.10581558 0.090380639 0.30551231
-0.10539813 0.090653837 0.3058134
-0.10498077 0.090923704 0.30611765
-0.10455497 0.091195546 0.30641267
-0.10408272 0.091461882 0.30673179
-0.1035945 0.091754481 0.3070378
-0.10306313 0.092062764 0.30736163
-0.10250006 0.092414178 0.3077037
-0.10194717 0.092787512 0.30805731
-0.10153328 0.093024373 0.30833372
-0.10115976 0.093239062 0.30857921
-0.10071179 0.093474232 0.30889294
-0.10019426 0.093755044 0.30925313
-0.099657528 0.094069347 0.30958575
-0.099162191 0.094354153 0.30992487
-0.098670982 0.094660059 0.31023541
-0.098265238 0.094909102 0.31047601
-0.097901352 0.095122382 0.31069651
-0.09752956 0.095328555 0.31091461
-0.12778693 0.083234735 0.28030631
-0.12738636 0.083372265 0.28019181
-0.12696637 0.083640829 0.27998838
-0.12657186 0.083763145 0.27984464
-0.12630354 0.083814569 0.2797617
-0.12610482 0.083854087 0.27971053
-0.12594859 0.083831377 0.27970934
-0.12579685 0.083758131 0.27975044
-0.12565786 0.083665386 0.27978417
-0.1255599 0.083580114 0.27981529
-0.12542504 0.083445355 0.27989361
-0.12531167 0.083318338 0.27999911
-0.1252339 0.083150588 0.28010282
-0.12514795 0.083039388 0.28018248
-0.12502614 0.082924925 0.28032789
-0.12489807 0.082854137 0.28037378
-0.12474729 0.082740381 0.28042266
-0.1245363 0.082587846 0.28050014
-0.12430419 0.082441047 0.28060177
-0.11503861 0.085045315 0.29900911
-0.11454494 0.085329801 0.29940036
-0.1142269 0.085503802 0.29964525
-0.11390071 0.085715868 0.29985663
-0.11355095 0.085921511 0.30010816
-0.11309195 0.086178727 0.30041954
-0.11261774 0.086442798 0.30073255
-0.11218093 0.086677507 0.30101326
-0.11170727 0.086932249 0.30132356
-0.11129017 0.087156259 0.30159631
-0.11087493 0.087404117 0.30187324
-0.11045958 0.087639771 0.30216563
-0.11006846 0.087878369 0.30244869
-0.10964676 0.088137053 0.30276385
-0.10919247 0.088416636 0.30311176
-0.10869034 0.088745773 0.30348378
-0.10816585 0.089043684 0.30387583
-0.10772444 0.089280315 0.30418074
-0.10721977 0.089569502 0.30452365
-0.10676424 0.08985085 0.30482695
-0.10630816 0.090115108 0.30513924
-0.1058997 0.0903477 0.30544335
-0.1056003 0.09056516 0.30565047
-0.1052173 0.090814814 0.30593437
-0.10479321 0.091075838 0.30623913
-0.10434436 0.091353238 0.30654383
-0.10392425 0.091609724 0.30680832
-0.1034665 0.091878675 0.30709279
-0.10290255 0.09220966 0.30743986
-0.10232533 0.092576683 0.30779761
-0.10180027 0.092916563 0.30813643
-0.10130065 0.093209825 0.3084664
-0.10092077 0.093397945 0.30872893
-0.10045461 0.09365584 0.30903724
-0.099948779 0.093932457 0.30938357
-0.099433288 0.094240792 0.30970839
-0.098940767 0.094527617 0.31002498
-0.098463692 0.094821244 0.31032947
-0.098073214 0.095070943 0.31056333
-0.097682312 0.095299534 0.31078401
-0.097343922 0.095496781 0.31098181
-0.096890435 0.095743321 0.31125215
-0.09647999 0.095956899 0.31149173
-0.096040197 0.096192107 0.31175628
-0.095491014 0.096478187 0.31208062
-0.094892129 0.096815079 0.31242698
-0.094349235 0.097129539 0.31274566
-0.093804888 0.097474225 0.31307644
-0.12741347 0.084027536 0.27977014
-0.12706739 0.084183939 0.27966884
-0.12672864 0.084371649 0.27949864
-0.1264489 0.084443085 0.27942327
-0.12625287 0.084410325 0.27943102
-0.12612113 0.084333226 0.27946112
-0.12602311 0.084237173 0.27952799
-0.12587634 0.084187716 0.2795473
-0.12577322 0.084100217 0.27959538
-0.12566003 0.084003098 0.27964029
-0.12555495 0.08385478 0.27972716
-0.12545353 0.083684668 0.2798484
-0.12536973 0.083558083 0.27992889
-0.1252691 0.0834665 0.28000414
-0.12512915 0.083394222 0.28008974
-0.12498435 0.083287813 0.28014222
-0.12479354 0.083172776 0.2801939
-0.12462597 0.083032742 0.28027076
-0.11193937 0.086858101 0.30115834
-0.11153305 0.08709202 0.30141863
-0.11117986 0.08729022 0.30164984
-0.11079394 0.087495014 0.30191472
-0.11041398 0.087712653 0.30218259
-0.10994058 0.088004485 0.30252478
-0.10947067 0.088293068 0.30287617
-0.10899666 0.088595048 0.30323559
-0.10855494 0.088863418 0.30356941
-0.10812184 0.089103706 0.30389193
-0.1076346 0.089371167 0.30423027
-0.10711787 0.089687131 0.30457065
-0.10659582 0.089998253 0.30491731
-0.10612029 0.090260804 0.30526042
-0.10571604 0.090509899 0.30555704
-0.10536475 0.090730444 0.30581778
-0.10499663 0.090975881 0.30608493
-0.10455395 0.091261297 0.3063927
-0.10410126 0.091528848 0.30669168
-0.10366355 0.09179005 0.30696651
-0.10320215 0.092066444 0.30724457
-0.10272404 0.092362128 0.3075375
-0.10213576 0.092755333 0.30790079
-0.10161885 0.093063749 0.30823934
-0.10115036 0.093329571 0.30854845
-0.10063021 0.093600206 0.30889717
-0.10016257 0.09387549 0.30919826
-0.099724382 0.094102025 0.30949554
-0.099281669 0.094369262 0.30977228
-0.098773643 0.09468016 0.3100884
-0.098315731 0.094974905 0.31037268
-0.09786699 0.095230035 0.31065086
-0.097508475 0.095434941 0.31087205
-0.097130947 0.095655881 0.31108516
-0.096773803 0.095879868 0.31128561
-0.096339159 0.096098639 0.31155148
-0.095864803 0.096352115 0.31183392
-0.095306993 0.096648306 0.31216282
-0.094748728 0.096961692 0.3124913
-0.094154574 0.097308025 0.31285337
-0.09363766 0.097631387 0.31316787
-0.093323559 0.097851716 0.31334734
-0.09299513 0.098047078 0.31353846
-0.12718779 0.084674433 0.27937081
-0.12692639 0.084756911 0.27932426
-0.12664598 0.084950104 0.27918109
-0.12640955 0.084989466 0.27913034
-0.12628645 0.084892608 0.27918154
-0.12615921 0.084811255 0.27922848
-0.12607545 0.084717333 0.27928957
-0.12598887 0.084612206 0.27935842
-0.12588792 0.084523238 0.27940851
-0.12576802 0.084391199 0.27947652
-0.12568782 0.084269911 0.27954158
-0.1255689 0.084107839 0.27967104
-0.12549911 0.084036082 0.27971503
-0.12539788 0.083902791 0.27984384
-0.12523219 0.08381138 0.27991486
-0.12505563 0.083737142 0.27993551
-0.12484834 0.083594725 0.27996564
-0.1246639 0.083482817 0.28000188
-0.11101118 0.087455526 0.30174845
-0.11066352 0.087649792 0.30198765
-0.11027703 0.087858945 0.30226123
-0.10972647 0.08815778 0.30267414
-0.10922516 0.088490494 0.30304265
-0.1088147 0.088750444 0.30335075
-0.10838933 0.089028299 0.30366346
-0.10790817 0.089292794 0.30401686
-0.10747273 0.089532755 0.30431685
-0.10695206 0.089835525 0.30465528
-0.10641149 0.090151437 0.30502361
-0.10592393 0.0904333 0.30538249
-0.10555534 0.090666831 0.30565345
-0.10516583 0.090904295 0.30594826
-0.10472669 0.091183335 0.30626446
-0.10432806 0.091431238 0.3065308
-0.10389323 0.091697 0.30680588
-0.10346972 0.091950551 0.30706614
-0.10302258 0.092214338 0.30734318
-0.10248444 0.092574246 0.3076672
-0.10193808 0.09291067 0.30801994
-0.10146939 0.09318018 0.30832264
-0.10093229 0.093492478 0.30866686
-0.10042491 0.093762599 0.30900019
-0.099977806 0.094025008 0.30929598
-0.099536002 0.09426605 0.30957514
-0.099162795 0.094478227 0.30980662
-0.098673321 0.094780952 0.310114
-0.098180041 0.095091119 0.31042376
-0.097695492 0.095365189 0.31073394
-0.097316287 0.095582753 0.31095675
-0.097031787 0.095765188 0.31112081
-0.096668616 0.095976509 0.31133518
-0.096253201 0.096209556 0.31158087
-0.095773354 0.096451975 0.31187227
-0.095167972 0.096792519 0.31222528
-0.094570048 0.09712214 0.31257918
-0.093980446 0.097498588 0.31293604
-0.09353476 0.097772144 0.31321418
-0.093235798 0.097961493 0.31339407
-0.092924818 0.098168947 0.31356448
-0.092610247 0.098357245 0.313743
-0.092300929 0.098542899 0.31390858
-0.12749365 0.085057996 0.27918091
-0.12721364 0.085184708 0.27911812
-0.12689391 0.085275374 0.27904791
-0.1266558 0.08545056 0.27893239
-0.1264786 0.085413121 0.27894342
-0.12636137 0.085372947 0.27895179
-0.12626201 0.085270733 0.27901742
-0.12617685 0.085149057 0.27909195
-0.12607244 0.085041218 0.2791582
-0.12598322 0.084935233 0.27921692
-0.12589224 0.084827699 0.27927366
-0.12579104 0.084721096 0.27933192
-0.12567118 0.084554143 0.27946648
-0.12560651 0.084481023 0.2795254
-0.12548874 0.084376469 0.2796025
-0.12533396 0.084248818 0.27969834
-0.12516651 0.084160194 0.27969632
-0.12493179 0.084046476 0.27972326
-0.12472264 0.083909944 0.27975181
-0.10901941 0.088698797 0.30315199
-0.10854659 0.088984065 0.30350155
-0.10819174 0.089199945 0.30376771
-0.10775765 0.089452565 0.30408254
-0.10730606 0.089678049 0.30440652
-0.10681757 0.089944601 0.30473396
-0.10634103 0.09021695 0.30506548
-0.10582697 0.090555929 0.30543166
-0.1054215 0.090803638 0.30573881
-0.10497019 0.091086708 0.30606887
-0.10449184 0.091380656 0.30639961
-0.10409238 0.0916318 0.30665714
-0.10366666 0.09187723 0.30692694
-0.10320557 0.092148952 0.30721182
-0.10264523 0.092485845 0.30756629
-0.10225529 0.092756167 0.30780533
-0.10177326 0.09304285 0.30811328
-0.10128633 0.093328506 0.3084155
-0.10079931 0.093611211 0.30872196
-0.10034422 0.093861111 0.30902401
-0.099855594 0.094117984 0.30934775
-0.099483892 0.094327576 0.30957821
-0.099030286 0.094597563 0.30986831
-0.09858951 0.094866268 0.31014618
-0.098025151 0.095213518 0.31050014
-0.097540699 0.095491856 0.31079814
-0.09714555 0.095726199 0.31103623
-0.096861258 0.095919803 0.3112011
-0.096512549 0.096109651 0.31141335
-0.096129417 0.096318848 0.31164262
-0.09563385 0.09658172 0.31193385
-0.095001958 0.09692613 0.31230938
-0.094427548 0.097257957 0.31265453
-0.093909912 0.097583659 0.31297532
-0.093487456 0.097848982 0.31323037
-0.093154162 0.098083131 0.31341961
-0.092835858 0.098288223 0.31359625
-0.092516527 0.098470189 0.31377891
-0.092169426 0.098709069 0.31395528
-0.091821626 0.098929457 0.31413487
-0.091474697 0.099143207 0.31431159
-0.12749928 0.085602194 0.27887312
-0.12719868 0.085725047 0.27882835
-0.12693956 0.085812666 0.27879429
-0.12672271 0.085890077 0.27873373
-0.12654515 0.085874483 0.27872491
-0.12643452 0.085784897 0.27876568
-0.12632702 0.085714921 0.27880722
-0.12626392 0.085637897 0.27885371
-0.12617345 0.085517153 0.27893052
-0.12606034 0.085397273 0.2789945
-0.12596358 0.085308634 0.27904004
-0.12586248 0.085205026 0.27909237
-0.12577406 0.085060537 0.27918935
-0.12568401 0.084944315 0.27930635
-0.12558401 0.084821686 0.27938944
-0.12544906 0.084709771 0.2794511
-0.12529339 0.084634453 0.27947456
-0.12507284 0.084551893 0.27946243
-0.10801858 0.089369334 0.30384636
-0.10760145 0.08962702 0.30414319
-0.10719264 0.089835659 0.30443487
-0.10683504 0.090008199 0.30469275
-0.10640985 0.090253241 0.30499548
-0.10590051 0.090551965 0.30536482
-0.10538105 0.09087164 0.30574781
-0.10479886 0.091239274 0.30616662
-0.10428888 0.09155044 0.30650857
-0.10383283 0.091819517 0.30680498
-0.10333635 0.092094161 0.30712569
-0.10288275 0.092379332 0.30741477
-0.10245399 0.092653908 0.30767885
-0.10206132 0.092906766 0.30792591
-0.10162874 0.093172804 0.30818489
-0.1011546 0.093445711 0.30847389
-0.10069869 0.093699634 0.30876482
-0.10021048 0.093979433 0.30907607
-0.099722914 0.094249874 0.30939797
-0.099286161 0.094496205 0.30968666
-0.098846711 0.094749093 0.30997255
-0.098404266 0.095024534 0.31023777
-0.097872242 0.095341615 0.31057253
-0.097406611 0.095612437 0.31086382
-0.096973017 0.095866762 0.31112495
-0.09664645 0.096064754 0.31132314
-0.096301846 0.096269555 0.31152996
-0.095861487 0.096517652 0.31178352
-0.095365085 0.096783884 0.31208235
-0.094874762 0.097026952 0.31237546
-0.094283789 0.097386122 0.31273732
-0.093786322 0.097702198 0.31303993
-0.093382463 0.097979657 0.31327906
-0.093083985 0.098165043 0.31345335
-0.09274596 0.0983961 0.31362799
-0.092400007 0.098612346 0.31382173
-0.092055738 0.098825082 0.31399921
-0.09170562 0.09904664 0.31418249
-0.091373257 0.099262156 0.31435505
-0.091016434 0.099464573 0.31456929
-0.090626612 0.099659786 0.31488311
-0.12745126 0.08621908 0.27859339
-0.12722316 0.086276077 0.27856967
-0.12697577 0.086418867 0.27849266
-0.12678355 0.086398967 0.27849096
-0.12663148 0.086328924 0.27852464
-0.12651196 0.086224683 0.27856579
-0.12641343 0.086135864 0.27861595
-0.12632763 0.086035222 0.27867699
-0.12624547 0.085962862 0.27871576
-0.12613653 0.085876592 0.27876174
-0.12602666 0.085763298 0.27881896
-0.12592991 0.08570312 0.27884284
-0.12583296 0.085547976 0.27895293
-0.12577067 0.085471138 0.27904573
-0.12565494 0.08532051 0.27914393
-0.1255241 0.085190699 0.27922386
-0.12536032 0.085117422 0.27924794
-0.12517428 0.085032485 0.27927017
-0.10705197 0.090013638 0.30448779
-0.10681521 0.090156667 0.3046442
-0.10645033 0.09033931 0.30491719
-0.10597811 0.090579964 0.30528331
-0.1053163 0.090980403 0.30576491
-0.10469863 0.09136337 0.30620128
-0.10413471 0.091693223 0.30658585
-0.10357157 0.092035063 0.30695403
-0.10311098 0.092299268 0.30725616
-0.1026668 0.092576511 0.30754039
-0.10223854 0.09284851 0.30780864
-0.10190824 0.093055382 0.3080138
-0.10148773 0.093297929 0.30826321
-0.10104459 0.093545437 0.30853513
-0.10058776 0.093816109 0.30881166
-0.10009738 0.094104409 0.30911976
-0.099505879 0.09441556 0.30952737
-0.099034421 0.094691008 0.30983287
-0.098593704 0.094947547 0.31011996
-0.098095961 0.095239185 0.31042764
-0.097668782 0.095507763 0.31068429
-0.097217269 0.095762193 0.31096551
-0.096815817 0.095982827 0.31121445
-0.096418612 0.096231706 0.31144452
-0.095980473 0.096485183 0.3116996
-0.095575601 0.096710026 0.31194258
-0.095125824 0.096937589 0.3122164
-0.094629668 0.097241268 0.31250745
-0.094124421 0.097538777 0.31281742
-0.093628272 0.097861096 0.31312084
-0.093294695 0.098079816 0.31331503
-0.0929389 0.098305084 0.31351665
-0.092615344 0.098519951 0.31368852
-0.092267998 0.098763004 0.31386545
-0.091918729 0.098953769 0.314062
-0.091567852 0.099182658 0.31424171
-0.091273606 0.099361375 0.31439963
-0.090895094 0.099588186 0.31462914
-0.090517193 0.09980306 0.3149069
-0.090215631 0.099980868 0.31514123
-0.08992967 0.10016549 0.31536877
-0.1273801 0.087027118 0.27820912
-0.12713119 0.086972862 0.27823481
-0.1269843 0.08694265 0.27824974
-0.12684003 0.086858019 0.27829257
-0.12672032 0.086783163 0.27832583
-0.12657981 0.086654909 0.27838516
-0.12647904 0.086604968 0.27840322
-0.12639518 0.086503327 0.2784633
-0.12629606 0.086410619 0.27851716
-0.12619114 0.086337671 0.27854475
-0.1261048 0.086226396 0.27860606
-0.12599839 0.086126342 0.27866429
-0.12591934 0.085995063 0.27874112
-0.12583736 0.085888535 0.27882615
-0.12574789 0.085814945 0.27890584
-0.12560403 0.085704461 0.27897286
-0.12543465 0.085591994 0.27902681
-0.10588393 0.090745993 0.30530876
-0.10519216 0.091113001 0.3058241
-0.10447007 0.091575265 0.30632043
-0.10393957 0.091872171 0.30669218
-0.10338674 0.092187613 0.30707076
-0.10295653 0.092429787 0.30735883
-0.10256836 0.092683688 0.30760235
-0.10212055 0.092970565 0.30787489
-0.1017623 0.093178809 0.30808744
-0.10136782 0.093389362 0.30832151
-0.10093708 0.093655407 0.30858514
-0.10051676 0.093910508 0.30883545
-0.099975809 0.09422607 0.30918103
-0.099368244 0.094558649 0.30960366
-0.098783955 0.094884127 0.30998588
-0.09830185 0.095168501 0.31029165
-0.09785524 0.095416129 0.31057277
-0.097479731 0.095647544 0.31079412
-0.097081043 0.095872685 0.31103736
-0.096695669 0.0960816 0.3112717
-0.096224859 0.096369475 0.31154814
-0.095710866 0.096670181 0.31185734
-0.095341019 0.096876346 0.31207398
-0.094864115 0.097159624 0.31235328
-0.094400428 0.097435504 0.31263399
-0.093933024 0.097710207 0.3129237
-0.09350086 0.097969145 0.31318799
-0.093130574 0.098228224 0.31339222
-0.092788808 0.098439366 0.31358734
-0.092461005 0.098670714 0.31375664
-0.092153519 0.098867394 0.31391707
-0.091801457 0.09907826 0.31411204
-0.091506504 0.09925665 0.31426591
-0.091154426 0.099475816 0.31445944
-0.090823345 0.099673465 0.31465259
-0.090454891 0.099885643 0.31493491
-0.090156667 0.10005382 0.31517595
-0.089901492 0.10021724 0.31536648
-0.08968918 0.10033284 0.31554061
-0.089373492 0.10052284 0.31577584
-0.12724026 0.087553196 0.27795804
-0.12713258 0.087506272 0.27799413
-0.12703145 0.087432206 0.27804062
-0.12690738 0.087350428 0.27808034
-0.12677559 0.087285511 0.27811193
-0.12664987 0.087188721 0.27815366
-0.12657267 0.087106548 0.27819526
-0.12647083 0.087002084 0.27825475
-0.12638041 0.086870722 0.2783272
-0.12626256 0.086765409 0.27837768
-0.12619075 0.086698994 0.27841294
-0.12611283 0.086604163 0.27845842
-0.12602176 0.086505972 0.27852654
-0.125928 0.086378478 0.27861297
-0.12581182 0.086320974 0.27866256
-0.12567239 0.086225055 0.27871564
-0.10279906 0.092605464 0.30744678
-0.10239728 0.092837736 0.30770257
-0.10201728 0.09307497 0.30793807
-0.1016096 0.093341805 0.30816916
-0.10120491 0.093560465 0.30840778
-0.10076562 0.093839817 0.30866021
-0.10041574 0.094025031 0.30888119
-0.099900417 0.094311908 0.30921355
-0.099302702 0.094627403 0.3096287
-0.098670915 0.09499824 0.31004462
-0.098120578 0.09532778 0.31038249
-0.09765029 0.095585585 0.31068039
-0.097327158 0.095769458 0.31087577
-0.096927449 0.095994361 0.31111574
-0.096473701 0.096268602 0.31138149
-0.096067838 0.09648969 0.31162766
-0.095609352 0.096761078 0.3119005
-0.095149092 0.09702757 0.31217811
-0.094674848 0.097325929 0.31245813
-0.094226241 0.097586334 0.31272581
-0.093753412 0.097860865 0.3130132
-0.093282886 0.098136589 0.31330386
-0.092943378 0.098373108 0.31348369
-0.092597961 0.098601155 0.31367978
-0.092310853 0.098791517 0.313829
-0.091995791 0.09900672 0.31399587
-0.09170413 0.099174395 0.31415355
-0.091386877 0.099361785 0.3143276
-0.091073543 0.099571787 0.31449506
-0.090780906 0.099747911 0.31466374
-0.090497918 0.099898949 0.31487525
-0.090202115 0.1000505 0.315121
-0.08990398 0.10023116 0.31533426
-0.089594424 0.10042292 0.31556919
-0.089313649 0.10060144 0.31579551
-0.12728213 0.088064931 0.27772823
-0.12719002 0.088002287 0.27777517
-0.12708053 0.087964058 0.27779701
-0.12695695 0.087890305 0.27783769
-0.12686533 0.08781416 0.2778843
-0.12677325 0.087731734 0.27793226
-0.12668622 0.087584734 0.27800915
-0.12660189 0.087466009 0.27807364
-0.12650417 0.087335654 0.27814353
-0.12641755 0.087240331 0.27819633
-0.12629718 0.087143846 0.2782391
-0.12623945 0.087057874 0.27828732
-0.12613823 0.086970657 0.2783435
-0.12603344 0.086919971 0.27837718
-0.12590756 0.086826406 0.27843595
-0.1257517 0.086724773 0.27848977
-0.10228356 0.092980944 0.3077758
-0.10188086 0.093232349 0.30801091
-0.10145676 0.093480594 0.30825332
-0.10102642 0.093731277 0.30850828
-0.10059783 0.093994021 0.30875504
-0.10027619 0.094165184 0.30895633
-0.099816561 0.094426446 0.30925247
-0.099246494 0.094741724 0.30962163
-0.098503813 0.095141992 0.31013837
-0.097985737 0.095436931 0.31045699
-0.09755338 0.095675893 0.31072569
-0.097175539 0.095891759 0.31095499
-0.096797638 0.096111767 0.31117448
-0.096357636 0.096370719 0.31143516
-0.095901735 0.096643187 0.31171042
-0.095437415 0.09689565 0.31199533
-0.094958618 0.09718015 0.31227711
-0.094555654 0.097431213 0.31251523
-0.09413366 0.097659871 0.3127712
-0.093573436 0.098010235 0.31310791
-0.093096659 0.098285876 0.31339514
-0.092714235 0.098544687 0.3136059
-0.092386477 0.098746471 0.31378788
-0.092115104 0.098942809 0.31393445
-0.091881916 0.099102445 0.31405103
-0.091587052 0.099281348 0.31421182
-0.091309607 0.099464662 0.3143577
-0.091051251 0.099613234 0.31450182
-0.09078376 0.099780582 0.31465235
-0.090538934 0.099921934 0.31480607
-0.090228394 0.10007092 0.31507117
-0.089904964 0.10026526 0.31532064
-0.089556158 0.10046857 0.31558615
-0.089273684 0.10064994 0.31580839
-0.12733831 0.088636853 0.27748224
-0.12721072 0.088580191 0.27751076
-0.1271461 0.088527337 0.27754888
-0.12706363 0.088449135 0.27760392
-0.12695533 0.088338971 0.2776576
-0.12687087 0.088197112 0.27773774
-0.12679343 0.088075809 0.27780703
-0.12672137 0.087972656 0.27787048
-0.12663785 0.087865695 0.27792978
-0.12653552 0.087782316 0.27797291
-0.12645259 0.087670662 0.27803496
-0.12633571 0.087600701 0.27808636
-0.12625568 0.087517306 0.27812642
-0.12613446 0.087432414 0.27818093
-0.1260137 0.087335519 0.27821201
-0.10173867 0.093395017 0.30809975
-0.10130932 0.093641467 0.30834848
-0.10085998 0.093890406 0.30860052
-0.10046444 0.094136208 0.3088235
-0.10012379 0.094332039 0.30902007
-0.099734545 0.094551235 0.30926865
-0.099218853 0.094827034 0.30962211
-0.098572589 0.095150262 0.31006554
-0.09799841 0.095485419 0.31042719
-0.097462848 0.095775671 0.31076404
-0.097026594 0.09602768 0.31101868
-0.096646115 0.096251845 0.31124991
-0.096268438 0.096483931 0.31146637
-0.095825002 0.096741043 0.31173354
-0.0953127 0.097051062 0.31204072
-0.09490712 0.097287305 0.31227916
-0.094484799 0.097500727 0.31253856
-0.093958981 0.097808674 0.31285819
-0.093484201 0.09808436 0.31314763
-0.093006782 0.098371282 0.31343308
-0.09260378 0.098645635 0.31365401
-0.09221445 0.098897375 0.31386858
-0.091982245 0.099050693 0.31399736
-0.09180627 0.099171296 0.31408635
-0.091433682 0.099418931 0.31428668
-0.091213152 0.099550582 0.31440461
-0.090961173 0.099695362 0.31454507
-0.090731502 0.099831641 0.31468028
-0.090468816 0.099991336 0.3148438
-0.090166271 0.10014796 0.31508365
-0.089859761 0.10032758 0.31531972
-0.089510471 0.10054143 0.31558061
-0.089226149 0.10072827 0.31579846
-0.12754954 0.089249164 0.27723286
-0.12741902 0.089176543 0.27726787
-0.1272916 0.089123495 0.27728918
-0.12719335 0.089054555 0.27732259
-0.1271327 0.088933848 0.27738264
-0.12706307 0.088824533 0.27744395
-0.12699071 0.088709645 0.27752024
-0.12691545 0.088577822 0.27759701
-0.12682319 0.088462695 0.27765968
-0.12674685 0.088343889 0.27773082
-0.12664057 0.088282555 0.27776361
-0.12653267 0.088197537 0.27781317
-0.12642761 0.0880908 0.27786896
-0.12633032 0.088015385 0.2778981
-0.12622982 0.087903596 0.27796924
-0.12610446 0.087813444 0.27800345
-0.098945677 0.095085345 0.30974525
-0.098426037 0.095346883 0.31011194
-0.09791331 0.095601499 0.31045654
-0.097482719 0.095836379 0.31072876
-0.09699361 0.096110731 0.31101769
-0.096538261 0.09638451 0.31128651
-0.096080638 0.096643172 0.31155986
-0.095658325 0.096871898 0.31182322
-0.095232747 0.097123213 0.3120777
-0.094825447 0.097364463 0.31231484
-0.094329916 0.09763556 0.3126094
-0.093837656 0.09791477 0.31291163
-0.093304977 0.098233178 0.31323385
-0.092863083 0.098501667 0.31349337
-0.092472814 0.098757975 0.31371301
-0.092141874 0.098966375 0.31390241
-0.091886066 0.099128179 0.31404313
-0.091655716 0.099298231 0.31416339
-0.091339551 0.099498376 0.3143363
-0.091060162 0.099636465 0.3144913
-0.090809897 0.099789031 0.31463328
-0.090624452 0.09992221 0.31473985
-0.090381719 0.10007168 0.31489223
-0.090092801 0.1002149 0.31512296
-0.089762263 0.10040364 0.31537163
-0.08949203 0.10058586 0.31556997
-0.089167297 0.10079607 0.31581548
-0.12782837 0.089901008 0.27697396
-0.12764363 0.08981169 0.27701178
-0.12749976 0.089722738 0.27703977
-0.12736736 0.08961235 0.27708933
-0.12729995 0.089567974 0.27710101
-0.12721415 0.089445189 0.277161
-0.12713189 0.089308158 0.27722898
-0.12706198 0.089177802 0.27731082
-0.12700841 0.089030586 0.27739978
-0.12693612 0.088972121 0.27743533
-0.12682468 0.088828795 0.27750841
-0.12671646 0.088710055 0.27756143
-0.12660463 0.088616163 0.27760798
-0.12650001 0.088500492 0.27767286
-0.12638727 0.088467002 0.27769193
-0.12631659 0.088326022 0.2777687
-0.1261757 0.088251889 0.27780274
-0.0974214 0.09595558 0.31074044
-0.096866503 0.096238397 0.31107879
-0.096358284 0.096529797 0.31138241
-0.095904246 0.096793227 0.31165239
-0.095526777 0.096995451 0.31188172
-0.095233411 0.097176217 0.31205937
-0.094836198 0.097387582 0.31229112
-0.094359085 0.097654536 0.31257144
-0.093882442 0.097928047 0.31285051
-0.09337157 0.098241925 0.31315836
-0.092776112 0.098585337 0.31351995
-0.092386544 0.098837569 0.31374615
-0.092048004 0.099046558 0.31394446
-0.09177161 0.099219866 0.31409726
-0.091516271 0.099391103 0.31423619
-0.091184981 0.099595532 0.31441429
-0.090911478 0.099749587 0.31456858
-0.090650678 0.099924803 0.31472281
-0.090442449 0.1000544 0.31484914
-0.090235084 0.10017467 0.31498271
-0.089979425 0.10029794 0.31518784
-0.089690506 0.10048557 0.31539884
-0.089400269 0.1006772 0.31561205
-0.089091726 0.10088674 0.31583661
-0.12812454 0.090579949 0.2767235
-0.12794213 0.090450771 0.27677134
-0.1277525 0.090341702 0.27680165
-0.12761422 0.090233818 0.27682912
-0.12746358 0.090116329 0.27686766
-0.12739308 0.090017468 0.27690765
-0.12732498 0.089873731 0.27697811
-0.12723269 0.089750886 0.2770367
-0.12715049 0.08963117 0.27710277
-0.12709184 0.089532331 0.27716172
-0.12700933 0.08940351 0.27722716
-0.12689559 0.089297011 0.27727562
-0.12679082 0.089189745 0.27733028
-0.1266914 0.089097165 0.27738085
-0.12659794 0.08897309 0.27745354
-0.1264918 0.088900223 0.27749032
-0.12639485 0.088811703 0.27754164
-0.12620594 0.088670276 0.27760789
-0.09555313 0.097051039 0.31183594
-0.095214061 0.097219601 0.31204221
-0.094874591 0.097433448 0.31222934
-0.094413988 0.097671665 0.31249356
-0.093858458 0.097990312 0.31283346
-0.093306907 0.098291442 0.31317317
-0.092727408 0.098631904 0.31353748
-0.092331707 0.098878369 0.31377161
-0.091982648 0.099121235 0.3139638
-0.091707915 0.099298164 0.31411678
-0.091401562 0.09948501 0.31429252
-0.091080479 0.09968935 0.31446505
-0.090787023 0.099852934 0.31463578
-0.090491332 0.10005672 0.31481385
-0.090264082 0.10019229 0.31495306
-0.090053521 0.10032189 0.31510773
-0.089806683 0.10044814 0.31529397
-0.089582793 0.10059091 0.31544718
-0.089302465 0.10076784 0.31565017
-0.088956669 0.101017 0.31589636
-0.1282845 0.091128953 0.27654037
-0.12804867 0.09102463 0.27654174
-0.12785441 0.090829551 0.27658692
-0.12771647 0.090690166 0.27663553
-0.12762257 0.090582393 0.27668375
-0.12748407 0.090458579 0.27671853
-0.12741274 0.090330966 0.27676862
-0.12734118 0.090227924 0.27681929
-0.12726849 0.090102375 0.27688375
-0.12715939 0.089979999 0.27694175
-0.12708937 0.089875638 0.27699751
-0.1269964 0.089773439 0.27704522
-0.12689021 0.089680374 0.27709237
-0.12680496 0.089577287 0.27715209
-0.12670615 0.089457035 0.27722368
-0.12659699 0.089372247 0.27726561
-0.12648332 0.089292563 0.2773084
-0.12630863 0.089184895 0.27737126
-0.094807319 0.097521707 0.31222007
-0.094407029 0.097766303 0.31242874
-0.093976498 0.09797328 0.31269857
-0.093411438 0.098280668 0.3130576
-0.092873283 0.098582916 0.31339794
-0.092328854 0.098903261 0.31374645
-0.091957323 0.099151082 0.31397155
-0.091659099 0.09934666 0.31413737
-0.091336563 0.099557929 0.3143149
-0.090997159 0.099766545 0.31450763
-0.090668134 0.099961929 0.31470114
-0.090327203 0.10017738 0.31490669
-0.090050735 0.1003411 0.31509033
-0.089798279 0.10049422 0.31527326
-0.089607336 0.1005977 0.31541693
-0.089399062 0.10072137 0.31556946
-0.089158438 0.10092559 0.31570262
-0.088878229 0.10113883 0.31589514
-0.088554874 0.10142267 0.31612623
-0.12869737 0.091804445 0.27629578
-0.12837872 0.091623813 0.27633053
-0.12815763 0.091457769 0.27635744
-0.12796144 0.091289394 0.27638263
-0.12783666 0.091151789 0.27643317
-0.12771775 0.091020182 0.27648467
-0.12762128 0.090900101 0.27653155
-0.12751167 0.090805978 0.27655458
-0.12742907 0.090683259 0.27660626
-0.12735334 0.090565696 0.27666524
-0.12727498 0.090443417 0.27672881
-0.1271805 0.090342402 0.27677512
-0.12709163 0.09021771 0.27683932
-0.12697855 0.090059735 0.27691808
-0.12689853 0.089979298 0.27696392
-0.12681904 0.089894168 0.27701277
-0.12671632 0.089806952 0.27705991
-0.12658061 0.089737266 0.27710736
-0.12636493 0.089614294 0.27719218
-0.093892679 0.098057874 0.31269827
-0.093352288 0.098386712 0.31303546
-0.092769466 0.098708741 0.31342271
-0.092305377 0.09896259 0.31372654
-0.09189292 0.099198923 0.31399101
-0.091571048 0.099417031 0.31417817
-0.091203243 0.099674746 0.31438515
-0.090949491 0.099816851 0.31452933
-0.090600118 0.10006318 0.31472909
-0.090310961 0.10023946 0.31489766
-0.089932054 0.10046476 0.31513333
-0.089592762 0.10062259 0.31541601
-0.089367464 0.10078731 0.31555283
-0.089187928 0.10093478 0.31566834
-0.089037247 0.10106352 0.31575432
-0.088813066 0.10123587 0.31591564
-0.088518217 0.10146867 0.31614289
-0.12884286 0.092359863 0.27606288
-0.12854895 0.092142746 0.27611265
-0.12823491 0.091916405 0.27612934
-0.12812893 0.091793559 0.27618885
-0.12795794 0.091599293 0.27624381
-0.12783305 0.091485865 0.2762768
-0.12772542 0.091368288 0.27632236
-0.12762128 0.091225311 0.27637771
-0.12751962 0.091115899 0.27641436
-0.12746589 0.091011152 0.27646944
-0.12738214 0.090874352 0.27653575
-0.12729625 0.09077505 0.27658397
-0.12722105 0.090647534 0.27664933
-0.12712175 0.090521395 0.27671227
-0.12700932 0.090402849 0.27677169
-0.12692426 0.090313524 0.27681401
-0.12679809 0.090221673 0.27686626
-0.12668809 0.090181142 0.27690551
-0.092218719 0.099055715 0.31374571
-0.091740131 0.09932375 0.31406319
-0.091397986 0.099551871 0.31426749
-0.091121115 0.099748291 0.31442541
-0.090813957 0.099936575 0.31459817
-0.090590097 0.10008458 0.31472811
-0.090312302 0.10027795 0.31487751
-0.089941382 0.10050413 0.31508821
-0.08956936 0.10070352 0.31537899
-0.089300022 0.10089678 0.31553996
-0.089056015 0.10106007 0.31573021
-0.088913098 0.10120373 0.31580707
-0.088716738 0.10137691 0.31595302
-0.088488244 0.10154123 0.31613457
-0.088194966 0.10180108 0.31635118
-0.12897471 0.092853539 0.27584615
-0.128709 0.092639618 0.27588585
-0.12842496 0.092399299 0.27592894
-0.12821993 0.09223406 0.27597538
-0.1280973 0.092085898 0.27602699
-0.12793092 0.091917694 0.27608553
-0.12783964 0.091771625 0.27613994
-0.12773658 0.091654845 0.27619532
-0.12765072 0.091528364 0.27625498
-0.1275668 0.091409475 0.27630311
-0.12750717 0.091291592 0.27636421
-0.12742212 0.091194443 0.27640814
-0.12732126 0.091045998 0.27647877
-0.12724268 0.090956725 0.27652133
-0.12709862 0.090798266 0.27659914
-0.12701331 0.090726696 0.27663782
-0.12688562 0.090625472 0.27669534
-0.12678674 0.090553492 0.27674398
-0.090686031 0.10008892 0.3146489
-0.090428725 0.10024305 0.31479886
-0.090218335 0.10038202 0.31491315
-0.089964412 0.10054207 0.31504604
-0.089661166 0.10072961 0.31523013
-0.089298569 0.10093748 0.31552216
-0.089007884 0.10118023 0.31571662
-0.088822171 0.10134307 0.31583893
-0.088614963 0.10150689 0.31599656
-0.088390313 0.10168255 0.31617498
-0.088144489 0.10187637 0.31637007
-0.12913363 0.093316473 0.27566493
-0.12890089 0.093128398 0.27568531
-0.12863599 0.092923179 0.27572653
-0.12837605 0.092700683 0.27577779
-0.12822564 0.092518933 0.27584922
-0.12806155 0.092328079 0.27590996
-0.12796511 0.092184924 0.27597561
-0.12788999 0.092079833 0.27602693
-0.12783322 0.091976404 0.27608028
-0.12773106 0.091860414 0.27613336
-0.12763955 0.09174072 0.27618051
-0.1275565 0.091585048 0.27625269
-0.12746245 0.091510788 0.2762832
-0.12734795 0.091382876 0.27634186
-0.12723824 0.091284737 0.27639741
-0.12711716 0.091133639 0.27647355
-0.12698987 0.091036595 0.2765286
-0.089866623 0.10067265 0.31506395
-0.089583106 0.1008362 0.31523186
-0.089349777 0.10101749 0.31537938
-0.089063846 0.1012048 0.31562102
-0.088835038 0.10136554 0.3158136
-0.088598013 0.10156438 0.31600001
-0.088283159 0.10183796 0.31623346
-0.088018686 0.10202219 0.31643721
-0.087706394 0.10224814 0.31666759
-0.12937692 0.093891531 0.27541688
-0.12924592 0.093764655 0.27548259
-0.12899506 0.093533039 0.27550617
-0.12878707 0.093375504 0.2755233
-0.1285041 0.093081757 0.27560472
-0.12834811 0.092923164 0.27566522
-0.12822363 0.092762545 0.27572969
-0.12808754 0.092626534 0.27578005
-0.12804294 0.092510946 0.27584559
-0.12795885 0.092375256 0.27591854
-0.12791927 0.092298672 0.2759625
-0.1277898 0.092167065 0.27601534
-0.12766229 0.092037499 0.27606285
-0.12756987 0.091927707 0.27611572
-0.12746269 0.091790788 0.27618411
-0.127362 0.091694467 0.27623141
-0.12721965 0.091557905 0.27630764
-0.12713654 0.091487542 0.27634943
-0.089237243 0.10114577 0.31542253
-0.088927664 0.10138518 0.31567952
-0.088657081 0.10157583 0.31591886
-0.088425525 0.10175797 0.31609681
-0.088174105 0.10194988 0.31629845
-0.087869376 0.10223105 0.3164998
-0.087615021 0.10242092 0.31668893
-0.12945201 0.094275557 0.27525198
-0.12919652 0.094074205 0.27528247
-0.12906669 0.093910798 0.27531773
-0.12889786 0.093734995 0.27536151
-0.12866621 0.093492538 0.27542284
-0.12851642 0.09335348 0.27547577
-0.12838961 0.093206979 0.27554563
-0.12831688 0.093101449 0.27559897
-0.12821195 0.092953898 0.27567092
-0.12811242 0.09281601 0.27573472
-0.12803805 0.092730328 0.27577814
-0.1279368 0.092596568 0.27583387
-0.12780005 0.092485927 0.27588165
-0.12769333 0.092336059 0.27595589
-0.12756371 0.092232436 0.27600276
-0.1274575 0.09213002 0.27605745
-0.12734114 0.092021205 0.27612293
-0.087765887 0.10237683 0.31653276
-0.087513 0.10261784 0.31670618
-0.12938154 0.094585113 0.27502546
-0.12921666 0.094411321 0.27508822
-0.12913412 0.094292581 0.27513468
-0.12895808 0.094100289 0.27517819
-0.12881619 0.09394455 0.27522352
-0.12865354 0.093788542 0.27527854
-0.12854616 0.093664154 0.27534318
-0.12844011 0.093557686 0.27539277
-0.12838353 0.093423352 0.27547157
-0.12829402 0.093316376 0.27553564
-0.12815268 0.093157843 0.27558899
-0.12804221 0.093025118 0.27565244
-0.12794134 0.09296634 0.27568054
-0.12779823 0.092774898 0.2757611
-0.12769081 0.092670284 0.27581969
-0.1275721 0.09253595 0.27588573
-0.12744007 0.09241382 0.27595872
-0.13378383 0.096179396 0.27504811
-0.13212098 0.095760271 0.27469885
-0.12956442 0.095059507 0.27481762
-0.12944001 0.094921626 0.27486309
-0.12932634 0.094803393 0.2749199
-0.12925132 0.094684348 0.27497253
-0.12908934 0.094518788 0.27500749
-0.12898946 0.094410643 0.27503878
-0.12886956 0.094251648 0.27509853
-0.12873074 0.094109468 0.27515796
-0.12861502 0.093985893 0.2752111
-0.1285311 0.093873255 0.27527347
-0.12843071 0.093765341 0.27532706
-0.1283122 0.09359327 0.27540877
-0.12815784 0.093453251 0.27545801
-0.12804362 0.093348622 0.27550608
-0.12789014 0.09319187 0.27557534
-0.12781878 0.093088992 0.27562878
-0.12767428 0.092946827 0.2757045
-0.1275474 0.092822775 0.27578148
-0.1355377 0.097266294 0.27554998
-0.13377145 0.096462622 0.27487645
-0.13176845 0.096294932 0.27437413
-0.13056083 0.096044794 0.27449185
-0.13003752 0.095735751 0.27464738
-0.12970911 0.095458329 0.27467418
-0.12955193 0.095330358 0.274699
-0.12944974 0.095208481 0.27475491
-0.12938632 0.095084868 0.27481511
-0.12931716 0.094977997 0.27486417
-0.12916878 0.094812006 0.27490023
-0.12909509 0.094709009 0.27494383
-0.12898329 0.094583802 0.27498585
-0.12884733 0.094462305 0.27503285
-0.12868986 0.094317794 0.27508229
-0.12858738 0.094187208 0.27514386
-0.12843423 0.09402065 0.27520949
-0.12827787 0.093860716 0.27526206
-0.12814735 0.093731016 0.27532911
-0.12801535 0.093577392 0.27539444
-0.12791756 0.093478732 0.27545321
-0.12776378 0.093341738 0.2755309
-0.12765622 0.093210854 0.27561122
-0.13594612 0.097982325 0.27546415
-0.13514884 0.097469836 0.27525434
-0.13304725 0.096655048 0.27449197
-0.13134511 0.096757218 0.27419901
-0.13045922 0.096370935 0.27437544
-0.13013171 0.096106246 0.27450258
-0.12988171 0.095849998 0.27454513
-0.1297248 0.095716201 0.27457187
-0.12966336 0.09561421 0.27462575
-0.12958717 0.095492639 0.27469084
-0.12951173 0.095395178 0.27473107
-0.1294255 0.09528631 0.27477473
-0.12934351 0.095173202 0.27481627
-0.1292581 0.095084555 0.2748453
-0.12909558 0.094928525 0.27487263
-0.12888037 0.094738401 0.27491954
-0.12870617 0.094574928 0.27498177
-0.1285456 0.09441869 0.27502781
-0.12838888 0.094267063 0.27508312
-0.12828746 0.094149455 0.27514681
-0.12816648 0.09400098 0.27521545
-0.12802382 0.093856893 0.27528468
-0.12785326 0.093709566 0.27537203
-0.12772797 0.093627349 0.27544385
-0.13585611 0.098339014 0.27520677
-0.13390283 0.097277522 0.27452052
-0.13207336 0.097182833 0.27406457
-0.13099864 0.097171329 0.2740677
-0.13047722 0.096720904 0.27425814
-0.13022561 0.096440628 0.27437052
-0.12999097 0.096232288 0.27439454
-0.12987281 0.096108243 0.27444151
-0.12979515 0.095988728 0.2744936
-0.12974508 0.095882565 0.2745575
-0.1297102 0.095849857 0.27458927
-0.12962461 0.095738381 0.27464411
-0.12956017 0.095665783 0.27467501
-0.12945221 0.095547825 0.27470177
-0.12924877 0.095379636 0.27470767
-0.12902167 0.095170498 0.274755
-0.12883914 0.094981052 0.27482328
-0.12866507 0.094793916 0.2748813
-0.12851276 0.094663031 0.27492326
-0.12838762 0.09452375 0.27499679
-0.12828672 0.09439873 0.27505803
-0.12812518 0.094242476 0.27513328
-0.12798372 0.094154023 0.27519786
-0.13602395 0.098806687 0.27498192
-0.13436183 0.097821668 0.27448151
-0.13263114 0.097637653 0.27391526
-0.13156088 0.097729079 0.27386057
-0.13088033 0.097388864 0.27401692
-0.13050912 0.0970321 0.27414662
-0.1302845 0.096769281 0.27422088
-0.1301199 0.096627794 0.27424896
-0.1300126 0.096451879 0.27431774
-0.12994841 0.096414685 0.27433974
-0.12990889 0.096340917 0.2743915
-0.12987515 0.096281089 0.27444288
-0.12981416 0.096189916 0.27448291
-0.129674 0.096031755 0.27452838
-0.1295675 0.095915869 0.27455598
-0.12937209 0.095752932 0.2745648
-0.12914327 0.095551983 0.27461582
-0.12894818 0.095353603 0.27467364
-0.12878084 0.095195822 0.2747232
-0.12863605 0.095059834 0.27477548
-0.1284921 0.094928302 0.27483597
-0.12839952 0.094790608 0.2749145
-0.1282219 0.094682649 0.27496734
-0.12806715 0.09456674 0.27504209
-0.13601258 0.099114545 0.274744
-0.13470629 0.09832076 0.27436674
-0.13319305 0.097980283 0.27382973
-0.13217747 0.098227635 0.27366307
-0.13133684 0.09801358 0.2737987
-0.13091078 0.097671553 0.27391118
-0.13058719 0.097345069 0.27402988
-0.13034284 0.097127266 0.27405965
-0.13021639 0.096993133 0.27409825
-0.13008636 0.096870571 0.27411988
-0.13002235 0.096770681 0.2741833
-0.12999886 0.096730404 0.27422184
-0.12992817 0.09663792 0.27426794
-0.12984705 0.096538052 0.27431312
-0.12978569 0.096430235 0.27435979
-0.12962171 0.09627109 0.27438948
-0.12946585 0.09611731 0.27442858
-0.12928197 0.095958598 0.27446005
-0.12906015 0.095762394 0.27452064
-0.12892146 0.095630214 0.27456543
-0.1287562 0.095482931 0.27461842
-0.12863456 0.095364645 0.27467704
-0.1284972 0.095249809 0.2747418
-0.12831038 0.09513703 0.27480346
-0.13561837 0.099085227 0.27444223
-0.1340588 0.098619215 0.27382058
-0.13287191 0.09864258 0.27349782
-0.13202609 0.098614335 0.27355662
-0.13139865 0.098350242 0.27369806
-0.13097523 0.098007433 0.27378997
-0.130707 0.097729228 0.27389422
-0.13052595 0.097541146 0.27393779
-0.13038459 0.097417317 0.27396128
-0.13024998 0.097296022 0.27399054
-0.13016523 0.097189002 0.27403009
-0.13006116 0.097073436 0.27406126
-0.12997359 0.097019173 0.27407867
-0.12991001 0.096923456 0.27412271
-0.12980492 0.096782245 0.27417421
-0.12972242 0.096664801 0.27421555
-0.12958163 0.09653566 0.27424431
-0.12937856 0.096368141 0.27428365
-0.12915953 0.096180148 0.27434605
-0.12903021 0.096045062 0.27440163
-0.12884475 0.095901661 0.27445465
-0.1287207 0.095788583 0.27451342
-0.12859097 0.095700473 0.27456304
-0.13501123 0.099393435 0.27379927
-0.13430554 0.099152826 0.27358431
-0.13340235 0.099068418 0.27333805
-0.13277493 0.099094391 0.2733517
-0.13204928 0.099018097 0.27343276
-0.13152605 0.09873239 0.27356645
-0.13115042 0.098448709 0.27364945
-0.13083497 0.098108158 0.2737565
-0.13060692 0.097919643 0.27378073
-0.13051403 0.097815901 0.27381375
-0.13042165 0.097732276 0.27384067
-0.1303279 0.097613335 0.2738744
-0.13014264 0.097436637 0.27390248
-0.13005133 0.097344883 0.27393395
-0.13000014 0.097290233 0.273963
-0.1299478 0.097222365 0.27399379
-0.12983915 0.097082466 0.27404895
-0.12969162 0.096940905 0.27408588
-0.12950286 0.09678483 0.27411982
-0.12927713 0.09660963 0.27416891
-0.12909964 0.096474379 0.27421391
-0.12892191 0.09634418 0.27427429
-0.12880695 0.096212283 0.27434146
-0.13331127 0.099592067 0.27309069
-0.13319285 0.099573761 0.27311632
-0.13289353 0.099566847 0.27317247
-0.1325637 0.099539064 0.27322769
-0.13211966 0.099410594 0.27328652
-0.13163869 0.099135883 0.27342454
-0.13125923 0.098847404 0.27350891
-0.13091654 0.098435134 0.27362663
-0.13067485 0.098270707 0.27363226
-0.13059968 0.098190829 0.27366394
-0.13053605 0.098096326 0.27371112
-0.13043363 0.097982019 0.27374199
-0.13030404 0.097874537 0.27375132
-0.13015769 0.097720347 0.27379817
-0.13009039 0.097653359 0.27382278
-0.13006216 0.097605579 0.27384591
-0.12994649 0.09749876 0.27387571
-0.12979497 0.097342603 0.27391994
-0.12959291 0.09721002 0.27394226
-0.12939014 0.097025737 0.2740036
-0.12914605 0.096881062 0.27403978
-0.12897605 0.096714832 0.27412134
-0.13299619 0.10009498 0.27291906
-0.13281956 0.1000451 0.27296728
-0.13264534 0.099998496 0.27302295
-0.13256477 0.099966109 0.27305263
-0.1323155 0.099850789 0.2731148
-0.13198897 0.099695541 0.27318412
-0.13167311 0.09949211 0.27328202
-0.13132511 0.099164598 0.27338067
-0.1309472 0.098813929 0.27343494
-0.1307334 0.098641574 0.27346343
-0.13068338 0.098603651 0.27350643
-0.13066156 0.098540425 0.27353954
-0.13057198 0.098415092 0.27359241
-0.13043851 0.09828905 0.27361473
-0.13031991 0.098203413 0.27363113
-0.1301939 0.098048903 0.273682
-0.13011777 0.097991481 0.27369449
-0.1300588 0.097934976 0.27371353
-0.12994239 0.097808555 0.27374756
-0.12977436 0.097675003 0.27376881
-0.12951854 0.09748704 0.27382112
-0.1292579 0.097318895 0.2738682
-0.13276693 0.10046696 0.2727997
-0.13262269 0.10041874 0.27283236
-0.13242607 0.10028988 0.2729091
-0.13234547 0.1002818 0.27292731
-0.1321539 0.10013878 0.27299318
-0.13191204 0.099970214 0.27308649
-0.13167641 0.099799499 0.27314487
-0.13126133 0.09947975 0.27317727
-0.13100719 0.099239998 0.27322194
-0.13080411 0.09905798 0.27326888
-0.13077089 0.099000581 0.27333641
-0.13075052 0.0989656 0.2733779
-0.13068232 0.098876767 0.27340624
-0.13058318 0.098750159 0.27345628
-0.13043992 0.098606415 0.27349088
-0.13033448 0.098507389 0.27351552
-0.13026017 0.098418288 0.27354848
-0.13019243 0.098336972 0.27358007
-0.13007829 0.098243877 0.2735891
-0.12989496 0.098083504 0.27362508
-0.12964921 0.097955868 0.27364734
-0.12937756 0.097756617 0.27370787
-0.13276003 0.10084777 0.27264544
-0.13262844 0.10077167 0.27268612
-0.13248506 0.10068878 0.27273294
-0.13230303 0.10058656 0.27279598
-0.13208163 0.1004279 0.27287745
-0.13193934 0.10035177 0.27290094
-0.13160963 0.10010199 0.27293679
-0.1312892 0.099827468 0.27296296
-0.13106468 0.099634416 0.27302837
-0.13095143 0.09949436 0.27310756
-0.13093142 0.099461146 0.27315789
-0.13089363 0.099404238 0.27322161
-0.13086176 0.099342585 0.27325007
-0.13073231 0.09920831 0.27329379
-0.13059771 0.099094592 0.2733202
-0.13049883 0.098984055 0.27336645
-0.13044088 0.098910905 0.27339339
-0.13031724 0.098764315 0.27343079
-0.13019705 0.098696262 0.27343714
-0.13006145 0.098564282 0.27346632
-0.1297891 0.098382406 0.27350715
-0.13272655 0.10115591 0.27252501
-0.13256158 0.10109103 0.27257031
-0.13236545 0.10096552 0.27263799
-0.13217223 0.10086574 0.27266577
-0.13196105 0.1007073 0.27269265
-0.13170339 0.10051013 0.27274168
-0.13140725 0.10024486 0.27279451
-0.13126856 0.10016935 0.27283308
-0.13116875 0.10001365 0.27292296
-0.13109158 0.09995807 0.27297661
-0.13106579 0.099881209 0.27304211
-0.1309627 0.099797048 0.27306661
-0.1308732 0.099686772 0.27311429
-0.13074176 0.099542096 0.27316236
-0.13065822 0.099454701 0.27320632
-0.13055657 0.099337876 0.2732448
-0.13048862 0.09927047 0.273267
-0.13033588 0.099112473 0.27330402
-0.13019255 0.09900897 0.27332324
-0.12992656 0.09884192 0.27335101
-0.13290167 0.1015968 0.27236345
