# .PCD v0.7 - Point Cloud Data file format
VERSION 0.7
FIELDS x y z
SIZE 4 4 4
TYPE F F F
COUNT 1 1 1
WIDTH 1351
HEIGHT 1
VIEWPOINT 0 0 0 1 0 0 0
POINTS 1351
DATA ascii
0.0052717975 0.07053607 0.24850208
-0.1405738 0.084848344 0.30375019
-0.14008468 0.084906541 0.30351186
-0.14000286 0.084922716 0.30346972
-0.13992147 0.084943801 0.30342576
-0.13941331 0.084971741 0.30318379
-0.13883959 0.085063301 0.30287611
-0.13837576 0.08512871 0.30263224
-0.13757496 0.085219316 0.30222696
-0.13689628 0.085257381 0.30190387
-0.13621897 0.085297987 0.30158794
-0.13555892 0.08536765 0.30128312
-0.13494311 0.085425831 0.30101529
-0.13446197 0.085494943 0.30079442
-0.13393493 0.08555232 0.30057108
-0.13345858 0.08561825 0.30035588
-0.13278396 0.085708246 0.300053
-0.13176832 0.085813887 0.29958126
-0.13094139 0.085887522 0.29921114
-0.13014677 0.08595667 0.29884896
-0.12918858 0.086075507 0.29839692
-0.12843646 0.086179346 0.29805163
-0.12768415 0.086289488 0.29770938
-0.12726194 0.086343251 0.29751837
-0.12679505 0.086399987 0.2973018
-0.12641455 0.086458839 0.29711074
-0.12598558 0.086510822 0.29690418
-0.12529871 0.086599559 0.29658541
-0.12440102 0.086710602 0.29617807
-0.12323926 0.086805977 0.29571393
-0.12270211 0.086882055 0.29549378
-0.12245225 0.086900897 0.29538357
0.0049163825 0.071741849 0.24819921
0.0049315039 0.07168626 0.24822147
0.0049418285 0.071658045 0.24823435
0.0049829325 0.071552768 0.24825031
0.0049997512 0.071498558 0.24826507
0.0050432147 0.071360603 0.2482896
0.0050877109 0.071261749 0.24831872
0.0051229671 0.071158677 0.2483438
-0.13934159 0.085016578 0.30310747
-0.13917747 0.085032813 0.30303413
-0.13884123 0.085093305 0.30285382
-0.13833076 0.085122637 0.30260971
-0.13787079 0.085165232 0.3023783
-0.13719188 0.085217707 0.30204889
-0.13659908 0.085265107 0.30176598
-0.13572708 0.08535748 0.30135351
-0.13499098 0.085436039 0.30102524
-0.13435192 0.08553116 0.30073613
-0.13370688 0.085605398 0.30045366
-0.13335593 0.085662276 0.30028898
-0.13299334 0.085712671 0.30012417
-0.13238683 0.08576709 0.29985979
-0.13148803 0.085855521 0.29944092
-0.13048129 0.085925758 0.29900315
-0.12973543 0.08601854 0.29864672
-0.1288574 0.086126924 0.29824486
-0.12802029 0.086245306 0.29786447
-0.12735073 0.086341754 0.2975533
-0.12696987 0.086391315 0.2973716
-0.12650326 0.08645454 0.29714632
-0.12624161 0.08647725 0.29703262
-0.12581171 0.086529315 0.29682669
-0.12521063 0.086605459 0.29654366
-0.1244078 0.08674489 0.29616678
-0.12325083 0.086834893 0.29571399
-0.12287536 0.086883962 0.29555607
-0.12242634 0.086957484 0.2953656
-0.1220004 0.086987987 0.29518694
0.0047925622 0.072229519 0.24813062
0.004801888 0.072202906 0.24813884
0.0048305187 0.072153464 0.24815902
0.004870743 0.072048843 0.24817479
0.0049008075 0.071940042 0.24818911
0.0049403626 0.071834348 0.24821359
0.0049802042 0.071729593 0.24822982
0.0050162994 0.071627483 0.24825817
-0.13842051 0.085125379 0.30264017
-0.13808531 0.08517722 0.30247089
-0.13749884 0.085239202 0.30217835
-0.13702312 0.085247047 0.30196172
-0.13630915 0.085319765 0.30161661
-0.13552305 0.085378677 0.30126086
-0.13443492 0.08552058 0.30077335
-0.13352144 0.08564537 0.30036443
-0.13297619 0.085751683 0.30009505
-0.13273953 0.085781373 0.29997829
-0.13252744 0.085784815 0.2998912
-0.13194999 0.08583881 0.29963017
-0.13107295 0.085896015 0.29924604
-0.13032015 0.085957788 0.2989119
-0.12948987 0.086060286 0.29852286
-0.1286983 0.086173594 0.29815984
-0.12789601 0.086266935 0.29780853
-0.12723073 0.086374484 0.29748675
-0.12663737 0.08644703 0.29719406
-0.1263739 0.086472139 0.29709071
-0.12598857 0.086519554 0.29689661
-0.12547502 0.08659409 0.29665577
-0.12487505 0.086674042 0.29637295
-0.12397457 0.086767688 0.29598948
-0.12313339 0.086870201 0.29565975
-0.12259515 0.086947531 0.29543754
-0.12217066 0.086967245 0.29526171
-0.12155979 0.087084338 0.29498976
-0.12099072 0.087177098 0.294732
0.0046732216 0.072714299 0.2480583
0.0046836943 0.072718151 0.2480678
0.0047126003 0.07263951 0.24808124
0.004740275 0.072560847 0.24809627
0.0047740019 0.072483927 0.24810956
0.0048270794 0.072325125 0.24813297
0.004868886 0.072223172 0.24815454
0.0049223769 0.072067484 0.24818175
-0.13243064 0.085839875 0.2998153
-0.13222277 0.085853003 0.2997199
-0.13196038 0.085861839 0.29961959
-0.13158441 0.085888505 0.2994515
-0.1309568 0.085923679 0.29917571
-0.13008177 0.086007617 0.29878554
-0.12928969 0.086108699 0.29841584
-0.12857719 0.08620555 0.29809776
-0.12790304 0.086284339 0.29779857
-0.12714908 0.086393163 0.29743779
-0.12659602 0.086457595 0.2971743
-0.12607551 0.086511344 0.29693609
-0.12560898 0.086585946 0.29670954
-0.12504542 0.086656801 0.2964609
-0.12428111 0.086759955 0.29610461
-0.12330484 0.086856872 0.29572928
-0.1226382 0.086949311 0.29545319
-0.12222017 0.086996816 0.29527578
-0.12172641 0.087069616 0.29506201
-0.12115296 0.08716391 0.29480073
-0.12057811 0.087260261 0.29453722
-0.12007783 0.087313212 0.29430738
-0.11945429 0.087404758 0.29400328
-0.11856759 0.087517604 0.29357955
-0.11739421 0.087688655 0.29301971
-0.11637583 0.087793127 0.29256499
0.0045672888 0.073201008 0.24798359
0.0045672893 0.073201008 0.24798362
0.0046067308 0.073096141 0.24800153
0.0046272096 0.073043875 0.24801131
0.0046668905 0.072941527 0.248028
0.004723818 0.072756037 0.24805848
0.0047656698 0.07262633 0.24807957
0.0048021227 0.072525136 0.24809895
-0.1312938 0.085920252 0.2993148
-0.1307576 0.085961036 0.29907376
-0.13008793 0.086021416 0.29877505
-0.12920906 0.08613719 0.29837129
-0.12853564 0.086212292 0.29807574
-0.12790382 0.086290747 0.29779434
-0.12714908 0.086393163 0.29743773
-0.12655488 0.086470746 0.29715422
-0.12594645 0.086531647 0.29687524
-0.12534687 0.086631678 0.29659387
-0.12458661 0.086746782 0.29623187
-0.12360825 0.086849004 0.2958273
-0.12272552 0.086949579 0.29548258
-0.12210551 0.087039582 0.29522365
-0.12172899 0.08707989 0.29505962
-0.12115297 0.087163895 0.29480073
-0.12061892 0.087251469 0.29455528
-0.12012286 0.087314762 0.29433015
-0.11966858 0.087387383 0.29410481
-0.11920534 0.08746703 0.29386836
-0.11814882 0.087583996 0.29336488
-0.11722676 0.087716125 0.29294109
-0.11621182 0.087851092 0.2924735
-0.11556081 0.087904595 0.29218522
-0.11530801 0.087968193 0.29205623
-0.11530801 0.087968193 0.29205623
-0.11522365 0.087982789 0.29201666
0.0044457326 0.073738076 0.24788675
0.0044742408 0.07365755 0.24790238
0.0044742413 0.07365758 0.24790235
0.0045015505 0.073577374 0.24791588
0.0045218528 0.073524743 0.24792312
0.0045697815 0.073365033 0.24794789
0.0046001887 0.073261105 0.24796474
0.0046368819 0.07316152 0.24798116
-0.12912314 0.08614473 0.29833093
-0.12849642 0.086221874 0.29805294
-0.12777959 0.086308904 0.29773027
-0.12707569 0.08641687 0.29738316
-0.12643097 0.086490698 0.29708746
-0.12565278 0.086585268 0.29672936
-0.12505811 0.086690538 0.296451
-0.12420312 0.086820267 0.29606849
-0.12327306 0.086890325 0.29569462
-0.1225155 0.086971149 0.29539371
-0.1218568 0.08707384 0.29511014
-0.12136401 0.087158121 0.2948904
-0.12095238 0.087229811 0.29470628
-0.12041545 0.087295845 0.29445627
-0.11979146 0.087384328 0.29415414
-0.11928872 0.087454408 0.29391244
-0.11844198 0.087536991 0.29350919
-0.11765141 0.087665163 0.29313111
-0.11689182 0.087771848 0.2927815
-0.11595631 0.087892339 0.29234999
-0.11560449 0.087919198 0.29219314
-0.11522338 0.087986834 0.29201102
-0.11513648 0.088000327 0.29196829
-0.11491826 0.08801537 0.29187727
-0.11413628 0.088153675 0.29151809
-0.11306635 0.088326126 0.29101613
0.004375923 0.074086905 0.24781072
0.0043818136 0.074056514 0.24782491
0.0043962128 0.074001424 0.24783537
0.0044265529 0.073894531 0.24785161
0.004442086 0.073839553 0.24786308
0.0044681854 0.073761307 0.24787381
0.0044966252 0.073685616 0.24788471
0.0045333472 0.073585667 0.24789949
-0.12685168 0.086433806 0.29728472
-0.1261711 0.086516403 0.29696926
-0.125609 0.086585917 0.29670951
-0.12475551 0.086748049 0.29630932
-0.12395054 0.086855255 0.29595509
-0.12294172 0.086947851 0.29555228
-0.12215108 0.087051541 0.29523286
-0.12169325 0.087116428 0.29503819
-0.12111647 0.08719039 0.29478303
-0.12070898 0.087275296 0.29458708
-0.12045985 0.087299034 0.29447579
-0.11979147 0.087384328 0.29415411
-0.11924811 0.087465361 0.29389456
-0.1181111 0.087600872 0.29333919
-0.11739827 0.087698616 0.29301572
-0.11663926 0.087802038 0.29266706
-0.11591138 0.087894671 0.29233035
-0.11548282 0.087963596 0.2921243
-0.11513648 0.088000342 0.29196832
-0.11487385 0.088034078 0.29184502
-0.11431398 0.088135563 0.29159388
-0.11345635 0.088277258 0.29118749
-0.11255343 0.088431388 0.29075709
-0.11144854 0.088567063 0.29024598
0.00429112 0.074514948 0.24772051
0.0042998972 0.074456573 0.2477406
0.0043118871 0.074401207 0.24775307
0.0043334067 0.074321866 0.24776535
0.004349472 0.074267425 0.2477776
0.0043753162 0.074189276 0.24778903
0.0044029648 0.074113101 0.24779949
0.0044209328 0.074036375 0.24781227
-0.12523726 0.086680584 0.29651767
-0.12467871 0.086777158 0.2962653
-0.12391227 0.086865313 0.29593381
-0.1228145 0.086957179 0.29550734
-0.12206846 0.087062478 0.29519776
-0.12149239 0.08716464 0.29494041
-0.12103451 0.087210417 0.29474369
-0.12071039 0.087282464 0.29458356
-0.1203371 0.087333761 0.29441938
-0.11987644 0.087380737 0.29420125
-0.11925405 0.087481856 0.29389775
-0.11803319 0.08762598 0.29329595
-0.11718976 0.087738171 0.29291624
-0.11651427 0.087832294 0.29260358
-0.1159995 0.08790043 0.29236168
-0.11539814 0.087981932 0.29207936
-0.1149627 0.088027969 0.29188186
-0.11432283 0.08814235 0.29157883
-0.11354662 0.088276133 0.2912192
-0.11281244 0.088387847 0.29088232
-0.11185126 0.088531569 0.29043156
-0.11104453 0.088614278 0.29005501
-0.11045638 0.088695519 0.28976965
-0.11018454 0.088746965 0.28963381
-0.11018454 0.088746965 0.28963381
0.0041841529 0.074939504 0.24762705
0.0041963127 0.074882954 0.24764417
0.0042215856 0.074802294 0.24766971
0.0042306636 0.074775696 0.2476757
0.0042526717 0.074695542 0.24769239
0.0042684767 0.074642748 0.24770164
0.004280481 0.074647173 0.24770637
0.0043106088 0.074596539 0.24773259
0.0043382151 0.07449466 0.24774678
-0.12137026 0.08718802 0.29488489
-0.12095905 0.087256834 0.29470572
-0.12071484 0.087294675 0.29459375
-0.12033708 0.087333754 0.29441938
-0.11984342 0.087406591 0.29418811
-0.11921749 0.08749827 0.29387689
-0.11790707 0.087647371 0.29323855
-0.11706704 0.087769262 0.29285342
-0.11647864 0.08785852 0.29257503
-0.11591617 0.087918691 0.29231769
-0.11531515 0.088003024 0.29203588
-0.11471406 0.088092506 0.29175657
-0.11372069 0.088250726 0.29129735
-0.1130804 0.088371128 0.29098752
-0.11233433 0.088471033 0.29065466
-0.11126608 0.088599116 0.29016003
-0.1106338 0.088689037 0.28985414
-0.11013509 0.088748664 0.28960887
-0.11013508 0.088748664 0.2896089
-0.11004018 0.088766642 0.28955814
-0.10968265 0.088805683 0.28938574
-0.1092651 0.088874988 0.28916639
-0.10804449 0.088974722 0.28855562
-0.10695255 0.089118764 0.28801247
0.0040909625 0.075365625 0.24755287
0.0041288817 0.075233035 0.24758315
0.0041462006 0.075179651 0.24759822
0.0041605467 0.075125918 0.24761179
0.0041688462 0.075157471 0.2476204
0.0041911663 0.075105526 0.24763961
0.0042072032 0.075052142 0.24764928
0.0042242021 0.075030193 0.24765956
0.004259828 0.074953973 0.24768516
-0.12067164 0.087295391 0.2945767
-0.1202184 0.087363228 0.29436648
-0.11980195 0.087414481 0.29417124
-0.11909977 0.08753258 0.29382044
-0.11774813 0.08768671 0.29315597
-0.11694337 0.087792389 0.29279047
-0.11639727 0.087882385 0.29252976
-0.11584072 0.087951303 0.29227614
-0.11514999 0.088042267 0.2919544
-0.11437918 0.088167951 0.29158446
-0.11346561 0.088296749 0.29117349
-0.11269269 0.088444017 0.29080188
-0.11185182 0.088541105 0.29042831
-0.11100098 0.088638738 0.29002994
-0.11022791 0.08873532 0.28965706
-0.10999943 0.088781476 0.28953466
-0.10990765 0.088798016 0.28948787
-0.10963609 0.088844851 0.28934911
-0.10935866 0.088869892 0.28921047
-0.10872027 0.088949353 0.28888851
-0.10776661 0.089036696 0.28840777
-0.10690549 0.089142784 0.28798655
-0.10585976 0.089310274 0.28745729
-0.10500889 0.089404382 0.287038
0.0040039597 0.075770907 0.24749106
0.0040273615 0.075721629 0.24750981
0.0040334421 0.075753301 0.24752325
0.0040656412 0.075645939 0.24755053
0.0040874528 0.075594351 0.24756116
0.0041085756 0.07551387 0.24757451
0.0041255401 0.075487971 0.24758917
0.0041515557 0.075409919 0.24760239
-0.11686268 0.087810948 0.29275078
-0.11635369 0.087885737 0.29251158
-0.11588531 0.087949239 0.29229555
-0.11524484 0.088052474 0.29199308
-0.11438711 0.088181354 0.2915791
-0.1133015 0.088338509 0.29108354
-0.11255684 0.088450409 0.29074848
-0.11167739 0.088579997 0.29034507
-0.11086258 0.088655837 0.28996292
-0.11018454 0.088746965 0.28963387
-0.10986236 0.088813864 0.2894617
-0.10976466 0.088821448 0.28941131
-0.1094505 0.088856615 0.28925785
-0.10908239 0.088919811 0.28906375
-0.10820854 0.089011833 0.28862205
-0.10740475 0.0891096 0.28822562
-0.10658474 0.089193925 0.28783408
-0.10562991 0.089353696 0.28733498
-0.10486843 0.089422539 0.28696907
-0.10491261 0.089408509 0.28700045
0.0038484677 0.076444946 0.24739711
0.003889357 0.076343767 0.24742742
0.0039197896 0.076266915 0.24744894
0.0039386689 0.076214813 0.24746166
0.0039850813 0.076054722 0.24749222
0.0040155156 0.075977467 0.24751304
0.004038488 0.0759276 0.24752353
0.0040677264 0.075820409 0.24754031
-0.11644854 0.087884314 0.29255283
-0.11606207 0.087934852 0.29237455
-0.11546728 0.088026643 0.29209688
-0.11452115 0.088175401 0.2916376
-0.11347441 0.088312879 0.29116046
-0.11269268 0.088444017 0.29080188
-0.11189699 0.08856146 0.29044402
-0.11108989 0.088645145 0.29007217
-0.11049868 0.088722691 0.28978309
-0.10995369 0.088797413 0.28950825
-0.10972357 0.088833801 0.28938898
-0.10931247 0.088884652 0.28918356
-0.10876152 0.088967107 0.28889856
-0.10771582 0.089091152 0.28838208
-0.10689983 0.08916042 0.28798541
-0.10609074 0.089302801 0.28757644
-0.10534659 0.089388788 0.28719556
-0.104727 0.089435399 0.28690776
-0.10454016 0.089453578 0.28681818
-0.10539123 0.089383677 0.28721142
0.0037298182 0.076896079 0.24730836
0.0037605446 0.076819994 0.24733198
0.0038024765 0.07671994 0.24736422
0.0038385617 0.076616764 0.24739105
0.0038807348 0.076514445 0.24742255
0.0039026975 0.076434843 0.24743858
0.0039456803 0.076305665 0.2474643
0.0039777029 0.076227613 0.2474837
-0.11560581 0.088029735 0.29215205
-0.11487626 0.088144533 0.29180044
-0.11378236 0.088287987 0.29129341
-0.11291119 0.088406399 0.29090279
-0.11221158 0.088518485 0.29058579
-0.11108986 0.088645153 0.29007217
-0.11054558 0.088711508 0.28980729
-0.11000206 0.088793278 0.28953356
-0.10977334 0.088835768 0.28941295
-0.10927261 0.088901259 0.28916201
-0.10858569 0.088991381 0.28881451
-0.1074867 0.089123487 0.28826472
-0.10651102 0.089279056 0.28777662
-0.10576866 0.089359187 0.28740838
-0.10524747 0.08938925 0.28715625
-0.10449789 0.089468688 0.28679532
-0.10379947 0.089548513 0.28644207
-0.10314393 0.089606375 0.28612635
-0.10244983 0.089686811 0.28579506
-0.10181127 0.089789979 0.28549835
-0.10113602 0.089890026 0.28519091
-0.10008186 0.090054825 0.28470778
-0.09932971 0.0901343 0.28433573
-0.098774426 0.09019956 0.2840513
0.0036045127 0.077345684 0.24720584
0.0036316016 0.077269137 0.24722794
0.0036556474 0.077273808 0.2472479
0.003680645 0.077195525 0.24727063
0.003730865 0.077041291 0.24731319
0.0037779447 0.076884501 0.24734707
0.0038123117 0.076781996 0.24737129
0.0038294401 0.076760933 0.24738224
0.0038766968 0.076631352 0.24741237
-0.11405356 0.088264033 0.29140106
-0.11295375 0.088397346 0.29092371
-0.11225739 0.088517576 0.29060292
-0.11146084 0.088616528 0.29024601
-0.11059278 0.088703044 0.28983125
-0.11000738 0.088801421 0.28953704
-0.1096859 0.088846892 0.28937313
-0.10914098 0.088928781 0.28909487
-0.10831218 0.089053497 0.28866932
-0.10727049 0.089174271 0.28816432
-0.10609552 0.089333184 0.28757247
-0.10544103 0.089399062 0.28724492
-0.10487444 0.089434937 0.28695944
-0.10431269 0.089500964 0.28669506
-0.10370778 0.089563958 0.28639281
-0.1030961 0.089615896 0.28610414
-0.10231719 0.089729883 0.28572792
-0.10159053 0.089839973 0.28539568
-0.10077948 0.089964576 0.28502622
-0.099802613 0.090104483 0.28456572
-0.099102534 0.09017507 0.28421247
-0.098683 0.090206973 0.28400621
-0.098363064 0.090249412 0.28383732
-0.097941697 0.090292618 0.28363207
-0.09744136 0.090361625 0.28336439
-0.09702161 0.09039522 0.28315881
-0.096434757 0.090477489 0.28282809
-0.096160963 0.090520643 0.28267828
0.0035031014 0.077769905 0.24712151
0.003522679 0.077747039 0.24713852
0.003557222 0.077668004 0.24716672
0.0035830145 0.07756193 0.24719018
0.0036468839 0.07732822 0.24723887
0.0036655937 0.077277951 0.2472557
0.003696329 0.077232569 0.24727939
0.0037384157 0.077134579 0.24730983
0.00378468 0.077007473 0.2473419
-0.10887511 0.088997148 0.28895542
-0.10799818 0.089083292 0.28851911
-0.10669998 0.089283682 0.28786409
-0.10572863 0.089393929 0.28737301
-0.10511502 0.089434229 0.28706253
-0.10455215 0.089492179 0.28679851
-0.10403536 0.089531451 0.28654537
-0.10356574 0.089583613 0.28632244
-0.10300295 0.089620821 0.28605801
-0.10231719 0.089729883 0.28572789
-0.10159053 0.089839973 0.28539565
-0.10055022 0.090001091 0.28491947
-0.09966179 0.090113737 0.28449795
-0.098964229 0.090178557 0.28414637
-0.098546281 0.090219066 0.28393474
-0.098177902 0.090274438 0.2837427
-0.097673632 0.090319268 0.28348359
-0.097261347 0.090389885 0.28326458
-0.096583299 0.090470754 0.28289345
-0.096174009 0.090522394 0.28267685
-0.095672913 0.090581127 0.28240836
-0.095067598 0.090635322 0.28208858
-0.094483919 0.090683915 0.28177971
0.0033724427 0.078271866 0.24701732
0.0034053621 0.078193992 0.24704528
0.0034200044 0.078193918 0.2470586
0.0034652876 0.078066409 0.24709202
0.0034990227 0.077907763 0.2471181
0.0035431327 0.077751346 0.24715203
0.0035618357 0.077700824 0.24716794
0.0035919161 0.077655375 0.24719016
0.0036337383 0.077559136 0.24722195
0.0036773211 0.077462047 0.24724765
-0.10639159 0.089337356 0.28769541
-0.10555009 0.089427903 0.28727099
-0.10502218 0.08945635 0.28701344
-0.10427004 0.089516394 0.28666559
-0.10380175 0.089560613 0.28643027
-0.10337587 0.089596055 0.28623697
-0.10286894 0.089661606 0.28598878
-0.10222647 0.089749098 0.28568402
-0.10145387 0.089859784 0.28533608
-0.10036596 0.090038382 0.28483433
-0.099341117 0.090164393 0.284327
-0.098731183 0.090206444 0.28402823
-0.098317601 0.090254918 0.28381333
-0.09791068 0.090319805 0.28358844
-0.097401455 0.090372123 0.28333491
-0.09685728 0.090445824 0.28304476
-0.096047893 0.090548977 0.28260359
-0.0955038 0.090618387 0.28230891
-0.095038652 0.090657108 0.28206599
-0.094580546 0.090686865 0.2818273
-0.093824439 0.090747379 0.28142697
-0.093254276 0.090795577 0.28112409
0.0032659513 0.07868734 0.24692519
0.0032876269 0.078695893 0.24694623
0.0033079719 0.078698523 0.24696277
0.0033283527 0.078619316 0.24698175
0.003371079 0.078489929 0.24700919
0.0033995965 0.07838507 0.24702998
0.0034369037 0.078255683 0.24705708
0.0034554349 0.078204922 0.24707076
0.0034857003 0.07813096 0.24709183
0.0035349941 0.077980056 0.24712862
0.0035712777 0.077911742 0.24715193
-0.10426813 0.089518882 0.28665665
-0.10375809 0.089574814 0.28640434
-0.10324106 0.089627855 0.28616491
-0.1027784 0.089685269 0.28594652
-0.10209305 0.089782782 0.28561831
-0.10122935 0.089896537 0.28523067
-0.10013637 0.090078272 0.28472269
-0.099245533 0.090165436 0.28428197
-0.098731183 0.090206444 0.28402823
-0.098272666 0.090267241 0.28378749
-0.097819217 0.090338103 0.28354168
-0.097221754 0.090400614 0.28323469
-0.096374266 0.090516314 0.28276679
-0.095600136 0.090606563 0.28235886
-0.095044628 0.09065824 0.28206661
-0.094456024 0.090716094 0.28175721
-0.093925498 0.09075921 0.28147706
-0.093569756 0.09077727 0.28128803
-0.092994586 0.090811409 0.28098321
-0.09246932 0.090849377 0.28071082
-0.091986723 0.090897799 0.28045654
-0.091380402 0.09095262 0.2801404
-0.090606943 0.091017716 0.27976552
0.0031692274 0.079249449 0.24684344
0.0031823684 0.079221696 0.24685082
0.003222326 0.079093322 0.24688274
0.0032434608 0.07901454 0.24690123
0.0032685292 0.078937545 0.24692121
0.0033081218 0.078808025 0.24694595
0.0033493873 0.078679398 0.24697129
0.003365098 0.078627557 0.24698173
0.0033894724 0.078551114 0.24699983
0.0034284461 0.078453094 0.24702494
-0.10186142 0.089823067 0.28551948
-0.10082693 0.089994408 0.28504819
-0.099848382 0.090102196 0.28458771
-0.099154204 0.090183087 0.28423133
-0.098645262 0.090231918 0.28397393
-0.098225176 0.090274334 0.28376418
-0.097775355 0.090351619 0.28351653
-0.096953027 0.090449847 0.283086
-0.096101336 0.090563864 0.28261942
-0.095283061 0.090658315 0.28218222
-0.094551831 0.090707809 0.2818076
-0.093925506 0.090759218 0.28147706
-0.093569748 0.090777256 0.281288
-0.09303879 0.090810843 0.28100649
-0.092647418 0.090857081 0.28079513
-0.092204541 0.090871878 0.28056696
-0.091770001 0.090916149 0.28034025
-0.091208644 0.09097667 0.28005177
-0.090609536 0.091033429 0.27975902
-0.089836046 0.091104038 0.2793856
-0.089056611 0.091186732 0.27899072
-0.088451959 0.09125632 0.27866176
-0.087597229 0.091376401 0.27815738
0.0030335349 0.079916053 0.24673833
0.0030680778 0.079753429 0.24676184
0.0030922496 0.079676241 0.24678048
0.003112854 0.079648711 0.246778
0.0031372081 0.079565763 0.24678877
0.0031830792 0.079382814 0.24682015
0.0032223153 0.079253934 0.24684153
0.0032426645 0.07917691 0.24686418
0.0032830772 0.079023689 0.24689651
0.0033072908 0.078946874 0.24691081
0.0033331104 0.078899242 0.24693093
-0.10065127 0.090041123 0.28495857
-0.099711753 0.090134554 0.28451028
-0.099109478 0.090194665 0.28420573
-0.098645315 0.09024056 0.28397098
-0.098272413 0.090276711 0.28378421
-0.097728737 0.09035971 0.28349334
-0.096953005 0.09044984 0.28308597
-0.095920764 0.090603009 0.28251597
-0.095089816 0.090662844 0.28208759
-0.094370566 0.090729475 0.28170949
-0.093699478 0.090772711 0.28135642
-0.093262173 0.090816587 0.28112119
-0.092909366 0.090830229 0.28093463
-0.09255781 0.090856925 0.28075019
-0.092120469 0.090890333 0.28051883
-0.091509931 0.090934709 0.28020713
-0.09099663 0.091007285 0.2799426
-0.09026581 0.091062963 0.27959484
-0.089487895 0.091144338 0.27921507
-0.088884965 0.091212541 0.27889597
-0.088243701 0.091302365 0.27853248
-0.087512396 0.091389626 0.27810621
-0.086817034 0.091459513 0.27770534
-0.085825905 0.091573671 0.27716029
0.0029150567 0.080452524 0.24666534
0.0029491431 0.080372542 0.24667943
0.0029963744 0.080210909 0.24670163
0.0030110748 0.080126218 0.24670254
0.0030510919 0.080019221 0.24670939
0.0030866051 0.079859234 0.24673259
0.0031249779 0.079702258 0.24675611
0.003165731 0.079574212 0.24677916
0.0031878571 0.079470262 0.2468044
0.0032215274 0.079369441 0.24682246
0.0032464003 0.079267673 0.2468424
-0.098968379 0.090212934 0.28413367
-0.098597862 0.090258665 0.28394219
-0.098184757 0.090303339 0.2837351
-0.097640097 0.090379991 0.28344128
-0.096738756 0.090497509 0.28294593
-0.095825665 0.090617582 0.28246516
-0.095003784 0.090678044 0.28203925
-0.094280265 0.090740412 0.28166124
-0.093657315 0.090782449 0.28133214
-0.093307793 0.090815179 0.28114513
-0.092909366 0.090830229 0.28093463
-0.092647396 0.090857066 0.28079516
-0.09207955 0.090902336 0.28049204
-0.091340519 0.090963595 0.28011423
-0.090651654 0.091022655 0.2797797
-0.089925416 0.091114514 0.27942285
-0.089358658 0.09116251 0.27914873
-0.088672146 0.091249049 0.27877495
-0.088033609 0.091340989 0.27840024
-0.087341845 0.09141282 0.27799857
-0.086475939 0.091516748 0.27750617
-0.08570011 0.091594249 0.27709705
-0.08497107 0.091660008 0.2767233
-0.084369056 0.091737449 0.27641749
0.0028205032 0.080898724 0.24658434
0.0028428137 0.080849402 0.24659802
0.0028818191 0.080713682 0.24661468
0.0029152294 0.080607161 0.24663053
0.0029564812 0.080501221 0.2466374
0.0029898805 0.080339119 0.24666095
0.0030403626 0.08015433 0.2466827
0.0030564566 0.080076188 0.2466969
0.0030944326 0.079892807 0.24672458
0.0031235467 0.079791196 0.24673514
0.0031580669 0.079691567 0.24676816
-0.095728554 0.090626195 0.2824133
-0.094954826 0.090680428 0.28201485
-0.094280265 0.090740398 0.28166127
-0.093836077 0.090767071 0.28142875
-0.093570776 0.090804666 0.28128329
-0.09317328 0.090821095 0.28107262
-0.092736721 0.090856783 0.280839
-0.092036605 0.090908878 0.28047121
-0.091167256 0.090982005 0.28002635
-0.090401582 0.091078043 0.27964506
-0.08975783 0.091148376 0.27933151
-0.088932097 0.091209888 0.27891576
-0.088464998 0.091293603 0.27864811
-0.087781012 0.091382191 0.27824497
-0.087125517 0.091443211 0.27787206
-0.086303368 0.091534823 0.27741548
-0.085577145 0.091621369 0.27703255
-0.084844701 0.091680959 0.27666453
-0.084203281 0.09176977 0.27633929
-0.083512656 0.091828398 0.27601993
-0.08296454 0.091905333 0.27578548
-0.082508087 0.091959387 0.27557248
0.0027332383 0.081295483 0.24651799
0.0027606206 0.081186526 0.2465308
0.0027933768 0.08111161 0.24654889
0.0028236082 0.081031598 0.24655825
0.0028690337 0.080898292 0.24657056
0.002906942 0.080737293 0.24658261
0.0029583161 0.080554493 0.24661227
0.0029704808 0.0805033 0.24662016
0.0030082425 0.080346279 0.24664541
0.0030526321 0.080192514 0.24667071
0.0030642375 0.080141522 0.24668159
-0.094051145 0.09077087 0.28153974
-0.09361282 0.090792507 0.28130841
-0.093262598 0.090823881 0.28112239
-0.092650875 0.090870947 0.28079453
-0.091864325 0.090930313 0.28037909
-0.090789586 0.091048002 0.27982575
-0.089882933 0.091123462 0.2794019
-0.089281753 0.091191486 0.2790921
-0.088762216 0.091243096 0.27881786
-0.088162541 0.091321588 0.27847633
-0.087346107 0.091425411 0.27799365
-0.08674442 0.091505505 0.27764285
-0.086097926 0.091573752 0.27729195
-0.085449956 0.091639966 0.27697092
-0.084634289 0.0917252 0.27655676
-0.084036477 0.091805167 0.27625713
-0.083223954 0.091878332 0.27588251
-0.082839213 0.091919437 0.27574393
-0.0823052 0.091997012 0.27548885
-0.081984289 0.092047803 0.27533704
-0.081507772 0.09212862 0.2751036
-0.081025794 0.092202507 0.27486929
-0.080464654 0.09227664 0.27460724
0.002654348 0.08163441 0.24645452
0.0026712539 0.081611179 0.24646339
0.0026949043 0.08155857 0.24646959
0.0027321207 0.081480511 0.24647439
0.0027753406 0.08129482 0.24650432
0.0028189886 0.0811373 0.24652249
0.0028446771 0.081032559 0.24654597
0.0028890362 0.080875233 0.24656393
0.0029155808 0.080769889 0.24657236
0.0029404904 0.080693267 0.24658653
-0.093346104 0.090827435 0.28116539
-0.092606001 0.09087088 0.28077245
-0.09130425 0.090984672 0.2800923
-0.090190209 0.091114201 0.27954006
-0.089326993 0.091193669 0.27910814
-0.088894024 0.091235846 0.27888852
-0.088511027 0.091295108 0.278667
-0.087955222 0.091365188 0.27834272
-0.08730074 0.091424078 0.27797201
-0.086612709 0.091520086 0.27757165
-0.08588405 0.091606982 0.27718011
-0.085239634 0.091682121 0.27685603
-0.084382497 0.091762044 0.27642533
-0.083650358 0.091849431 0.27608046
-0.082926646 0.091913871 0.27576458
-0.082400955 0.092008546 0.27550876
-0.082113571 0.092040472 0.27539039
-0.081748277 0.092092179 0.2752178
-0.081347518 0.09215048 0.27503058
-0.080837205 0.092243239 0.27476951
-0.080191843 0.092318922 0.27447349
-0.079342812 0.092399955 0.27408233
-0.078731865 0.092477798 0.27377903
0.0025517794 0.082078628 0.24637319
0.002575729 0.082003921 0.24639426
0.0025962628 0.081980184 0.24640016
0.0026352229 0.081795119 0.24643417
0.0026677041 0.081690341 0.24644902
0.0027185879 0.081533879 0.24646942
0.00275676 0.081431076 0.24648216
0.0027973969 0.081300169 0.24649221
0.0028316039 0.081197388 0.24650066
0.0028475251 0.081116498 0.24651198
-0.089413814 0.09118519 0.27915239
-0.088724911 0.091261089 0.27879038
-0.088553756 0.09129031 0.27869245
-0.08829987 0.091327995 0.2785427
-0.087870955 0.091381572 0.27829117
-0.087132245 0.091453247 0.27786446
-0.086612709 0.091520071 0.27757165
-0.085843362 0.091619372 0.27715805
-0.085112318 0.091701664 0.27679279
-0.084167682 0.09179502 0.27632335
-0.083136529 0.091895282 0.27583325
-0.08243873 0.092000909 0.27552915
-0.082113579 0.092040479 0.27539039
-0.081677504 0.092114903 0.27517715
-0.081396207 0.092157036 0.27504343
-0.080997363 0.092221238 0.27484751
-0.080398835 0.092302211 0.27456447
-0.079793669 0.092373513 0.27428198
-0.078982286 0.092465855 0.27389425
-0.07829681 0.092551202 0.27355516
-0.077813916 0.092598699 0.27332002
-0.077294685 0.09267135 0.27306053
0.0024751427 0.082474262 0.24630758
0.0024940351 0.08242476 0.2463225
0.0025370996 0.08224155 0.24635677
0.0025770627 0.082112528 0.24638058
0.00262897 0.081958123 0.24640177
0.0026486297 0.081907615 0.24640585
0.002681484 0.081803136 0.24641868
0.0027337894 0.081619836 0.24643397
0.002774212 0.081433497 0.24644446
-0.088263199 0.091340542 0.27851254
-0.088176906 0.091348007 0.27846131
-0.087744869 0.091404296 0.27821332
-0.087221034 0.091451943 0.27791175
-0.086315691 0.09156885 0.27739552
-0.085755847 0.091627508 0.277116
-0.085067637 0.091706343 0.27677193
-0.083994046 0.09181533 0.2762315
-0.083056159 0.091908425 0.27579349
-0.082275711 0.092022553 0.27544373
-0.081755258 0.092110194 0.27519715
-0.081477761 0.092152424 0.27506766
-0.081039481 0.09221755 0.27486882
-0.080601268 0.092284262 0.27464968
-0.08000271 0.092364639 0.27436712
-0.079105437 0.092449136 0.27395394
-0.078460157 0.09253186 0.27363676
-0.077976495 0.092591383 0.27339661
-0.077453874 0.092652477 0.27313924
-0.077138074 0.092694223 0.27298182
-0.076736361 0.092740744 0.27278602
-0.076180696 0.092805333 0.2725158
-0.075677767 0.09286844 0.27226523
-0.075169906 0.092935972 0.27202141
-0.075135231 0.092945434 0.27200121
-0.075162731 0.09293139 0.27202526
-0.074923113 0.092960097 0.27192539
0.0023463257 0.083071575 0.2462008
0.0023992516 0.08289399 0.24623662
0.0024492638 0.082658686 0.24628031
0.002489229 0.082531348 0.24630599
0.0025151658 0.082455993 0.2463239
0.0025495612 0.082353897 0.24633789
0.0026084909 0.082146838 0.24635732
0.0026473568 0.081959158 0.24637106
0.0026841448 0.08182849 0.24637488
-0.086358979 0.091571264 0.27741528
-0.085668154 0.091632403 0.2770665
-0.084726162 0.091751322 0.27659285
-0.083783396 0.091861621 0.27612168
-0.082936272 0.091942035 0.27572659
-0.082196243 0.092039183 0.27539876
-0.081634648 0.092125118 0.27514035
-0.081203237 0.092206582 0.27493146
-0.080764614 0.092262954 0.27472961
-0.08020559 0.092339136 0.27446198
-0.079473145 0.092413351 0.27412942
-0.078582406 0.092509754 0.27369744
-0.07806097 0.092593133 0.27343225
-0.077704802 0.092645384 0.27325431
-0.077298954 0.092685342 0.27305761
-0.076983839 0.092720844 0.27290255
-0.076498136 0.092769638 0.27266935
-0.075989172 0.092842139 0.27241677
-0.075523563 0.092898764 0.27218801
-0.07506007 0.092952825 0.27196309
-0.074903473 0.092969321 0.27188939
-0.074742816 0.092991225 0.27182645
-0.07455422 0.09302178 0.27173001
-0.074060775 0.09309049 0.27149624
-0.073197894 0.093207255 0.27106678
0.0022454574 0.08356002 0.24610937
0.0022987088 0.083410136 0.24614081
0.0023400814 0.083257847 0.24617381
0.0023913963 0.082999058 0.24622141
0.0024273018 0.082899258 0.24624288
0.0024611137 0.082798354 0.24625957
0.0025086191 0.082589447 0.24628863
0.0025660775 0.082383633 0.24630094
-0.082773641 0.091978937 0.27564308
-0.082119159 0.092063442 0.27535278
-0.08147908 0.092163146 0.27505255
-0.081042252 0.092228979 0.27485356
-0.080565333 0.09230116 0.27462056
-0.079927087 0.092385396 0.274324
-0.079028748 0.092472933 0.27391055
-0.078424081 0.092555217 0.27361035
-0.077859096 0.092614159 0.27333495
-0.077585831 0.092660777 0.27319598
-0.077142172 0.092707925 0.27297843
-0.076662995 0.092767373 0.27274492
-0.076344274 0.092794716 0.27259058
-0.075796135 0.09286017 0.27232116
-0.075297035 0.092936389 0.27207181
-0.074873909 0.092993423 0.27186489
-0.074492082 0.093028672 0.27168712
-0.074302323 0.093058757 0.27159452
-0.073845632 0.093120418 0.27138078
-0.073391214 0.093177125 0.27116427
-0.072612353 0.09329237 0.27075735
-0.071984239 0.093380615 0.27042702
-0.071332507 0.093481451 0.27008173
0.0021587738 0.084016189 0.24601197
0.0021842108 0.083915174 0.24603093
0.0022335628 0.083739661 0.24607049
0.0022812702 0.083562873 0.24610387
0.0023315069 0.083415613 0.24613477
0.0023731822 0.083238661 0.24617505
0.0024170647 0.083087415 0.24620239
0.0024663156 0.082882904 0.24622677
-0.080887154 0.092261754 0.27476895
-0.080331445 0.092342712 0.27450109
-0.079722114 0.092408918 0.27422926
-0.078947686 0.092482135 0.27386954
-0.078385241 0.092559472 0.27358988
-0.077783078 0.092640243 0.27329174
-0.077384934 0.092690147 0.27309635
-0.076983862 0.092734456 0.27289993
-0.076504104 0.092794903 0.27266359
-0.076115005 0.092839874 0.27247205
-0.075530529 0.09290418 0.27218473
-0.075025871 0.092963837 0.27194151
-0.074538901 0.093034454 0.27169687
-0.074047633 0.093097672 0.27145964
-0.073627442 0.093156345 0.27126342
-0.073292889 0.093209162 0.27109319
-0.072696321 0.093292259 0.27079049
-0.072030969 0.093386419 0.27043891
-0.071559906 0.093459427 0.27018586
-0.071049966 0.09352386 0.26992327
-0.070469774 0.093600303 0.26963094
-0.069715716 0.093700252 0.26925766
-0.068756379 0.093829423 0.26878116
-0.068075247 0.093914635 0.26843551
-0.067438774 0.093987189 0.26810086
0.0020722793 0.084419042 0.24591725
0.0020974595 0.084346041 0.24593714
0.0021305375 0.084218889 0.24596234
0.0021676151 0.084094293 0.24599335
0.002210882 0.083945788 0.24602582
0.0022615546 0.083747722 0.24606276
0.0023092504 0.083573744 0.24610268
-0.079639651 0.092420593 0.27418736
-0.078868799 0.092505731 0.27382606
-0.078345239 0.092569508 0.27356869
-0.077862039 0.092639051 0.27332696
-0.077423953 0.092686862 0.27311528
-0.076985441 0.092761889 0.27289337
-0.076504096 0.092794903 0.27266359
-0.075917073 0.092870377 0.27237383
-0.07537739 0.092936039 0.2721068
-0.074803188 0.09301047 0.27182391
-0.074158564 0.093091749 0.27151388
-0.073716581 0.093160756 0.27128708
-0.073300958 0.093216814 0.27108663
-0.072742574 0.093294442 0.27080482
-0.072184831 0.093371458 0.27051258
-0.071604654 0.093467325 0.27019852
-0.0709823 0.093538538 0.26988226
-0.07054355 0.093589999 0.26966771
-0.07007587 0.093654945 0.26943469
-0.069361851 0.093752027 0.26907656
-0.068581656 0.093864284 0.26868683
-0.067974277 0.093934678 0.26837668
-0.06733235 0.093999676 0.26804614
-0.066765785 0.094061524 0.26775908
-0.066144645 0.094163716 0.2673879
0.001949715 0.084920429 0.24580523
0.0019738148 0.084846996 0.24582393
0.0020104581 0.08474993 0.24584769
0.0020354439 0.084676333 0.24586605
0.0020735797 0.08452443 0.24589874
0.0021133791 0.084347859 0.24593189
0.0021521386 0.084200174 0.24597099
0.0022067537 0.084057279 0.24599995
-0.077862039 0.092639059 0.27332693
-0.077384219 0.092708871 0.27309266
-0.07694333 0.092766605 0.27287394
-0.076387778 0.092828341 0.27260122
-0.075765237 0.092911728 0.27229163
-0.075182468 0.092969544 0.27201065
-0.074432537 0.093065575 0.2716344
-0.073898032 0.093122184 0.27138627
-0.073300958 0.093216836 0.2710866
-0.072929367 0.093273491 0.27089563
-0.072412007 0.093351156 0.27062392
-0.071823761 0.093440458 0.27031204
-0.071208827 0.093530364 0.26998466
-0.070770048 0.093575649 0.26976278
-0.070264176 0.093642659 0.2695066
-0.069726907 0.093719319 0.26923868
-0.069085144 0.093801595 0.26892817
-0.068404019 0.093892075 0.26859322
-0.067797519 0.093959853 0.26828364
-0.067190737 0.094017975 0.26797321
-0.066630013 0.094092846 0.26768324
-0.065938711 0.094202794 0.26726282
-0.06540481 0.094274193 0.26696977
0.0018408709 0.085341707 0.24570386
0.0018582889 0.085318655 0.24570936
0.0018758698 0.085271142 0.24572338
0.0019161972 0.085148685 0.24575299
0.0019407881 0.085075893 0.2457727
0.00198903 0.08490178 0.2458102
0.0020268359 0.084752627 0.24584374
0.0020638981 0.084630594 0.24587516
0.0020769225 0.084555171 0.24589729
-0.076306589 0.092844382 0.27256218
-0.075722158 0.092910551 0.2722733
-0.075109601 0.092993967 0.27196801
-0.074315466 0.093086325 0.27158123
-0.073676117 0.093165204 0.27127171
-0.073154725 0.093245745 0.27100694
-0.072633564 0.093318559 0.27074033
-0.072082542 0.09340214 0.27044636
-0.071534932 0.093484856 0.27015507
-0.070985772 0.093545988 0.26987779
-0.070519097 0.09361469 0.26963332
-0.069909409 0.093698829 0.26932234
-0.06937176 0.093761668 0.26906323
-0.06883613 0.093836054 0.26880422
-0.068263762 0.09391401 0.26851812
-0.067689687 0.093970761 0.26822883
-0.06705147 0.094038785 0.26790211
-0.066394351 0.094138645 0.26752836
-0.065835088 0.09422268 0.26720905
-0.065372474 0.094286755 0.26695356
-0.064834952 0.094359994 0.26667199
-0.064298481 0.094419442 0.26637867
0.0016898776 0.085853696 0.24557401
0.00174556 0.085709289 0.24560568
0.0017747915 0.085638106 0.2456228
0.0018057316 0.085566416 0.24564259
0.0018376329 0.085469581 0.24566811
0.0018523654 0.085421376 0.24568239
0.0018926894 0.085300922 0.24571417
0.0019292509 0.085178882 0.2457473
0.0019525472 0.085105434 0.24576467
0.0019816675 0.084981397 0.24579717
-0.075642191 0.092928238 0.27223513
-0.075069755 0.093001261 0.27195036
-0.07439176 0.093106553 0.27161038
-0.073454186 0.093213156 0.2711539
-0.072898552 0.09329509 0.27086577
-0.072343312 0.093375243 0.27057821
-0.07183101 0.09345106 0.27030626
-0.071356468 0.093514226 0.27005726
-0.070773482 0.093585238 0.26975837
-0.070267677 0.093650095 0.2695027
-0.069730364 0.093726687 0.26923481
-0.069194123 0.093794547 0.26897624
-0.068694688 0.093866348 0.26873222
-0.068123318 0.093935236 0.26844299
-0.06755273 0.094000377 0.26815045
-0.066951178 0.094068997 0.26784387
-0.066187568 0.094188184 0.26741391
-0.065547593 0.094265774 0.26706201
-0.065129764 0.094332688 0.26681605
-0.064661041 0.094384067 0.26657301
-0.06412141 0.09444312 0.26629087
-0.063513741 0.094504423 0.2659795
-0.062948443 0.094578311 0.26568994
-0.062389139 0.094663866 0.26540554
0.0015943073 0.086217381 0.24548025
0.001641909 0.086099312 0.2455049
0.0016778472 0.086006083 0.24553058
0.0016983002 0.085984193 0.24553645
0.0017302631 0.085913263 0.24555741
0.0017469925 0.085865788 0.24556962
0.0017854677 0.085746028 0.24560457
0.0018134157 0.085648783 0.24563071
0.0018606181 0.08550366 0.24566938
-0.074313916 0.093117952 0.27157426
-0.073411673 0.093218468 0.27113476
-0.072743557 0.09331806 0.27078831
-0.072197527 0.093403436 0.27049506
-0.071683541 0.09347637 0.27022603
-0.071248583 0.093534492 0.26999882
-0.07077349 0.093585223 0.2697584
-0.070234604 0.093661971 0.26948044
-0.069697492 0.093737788 0.26921299
-0.069054216 0.09382277 0.26890501
-0.068518817 0.093896188 0.26864001
-0.068019509 0.093957946 0.26838541
-0.067378052 0.094030008 0.2680575
-0.0668099 0.094087265 0.26777035
-0.066049702 0.094211593 0.26732612
-0.065447159 0.094283409 0.26698953
-0.064985432 0.094348766 0.26674825
-0.06430795 0.094439201 0.26637876
-0.063771486 0.094500147 0.2660999
-0.063270591 0.094548717 0.26585689
-0.062774897 0.094612047 0.26560184
-0.062284641 0.094681405 0.26535523
-0.061827917 0.094742067 0.26512915
-0.061338469 0.09481056 0.26488483
-0.060813893 0.094871975 0.26462406
0.0014837231 0.086634643 0.24537663
0.0015446318 0.086489968 0.24541084
0.0015783708 0.086395852 0.24543242
0.001594906 0.086374432 0.2454368
0.0016180589 0.086378224 0.24543895
0.0016288413 0.086330347 0.24545544
0.0016689737 0.086263582 0.24548262
0.0017157929 0.086120196 0.24551891
0.0017587183 0.085974298 0.24555813
-0.070669249 0.09361399 0.26970372
-0.07012751 0.093687356 0.26943183
-0.069522344 0.093773089 0.26912582
-0.068949856 0.093845658 0.26885065
-0.068342507 0.093924463 0.26854753
-0.067696556 0.093989842 0.26821905
-0.067205377 0.094064236 0.26796171
-0.066476911 0.094161943 0.26755849
-0.065844268 0.094258025 0.26720637
-0.065132447 0.094346717 0.26681826
-0.064562678 0.094417781 0.26651227
-0.064053088 0.094461232 0.26625621
-0.063411139 0.094524115 0.2659297
-0.062914856 0.094587013 0.2656734
-0.062424969 0.094658256 0.26542443
-0.061968926 0.094722576 0.26519707
-0.06165316 0.094769321 0.26504216
-0.061235674 0.094831385 0.26483017
-0.060711715 0.094894193 0.26457113
-0.06022374 0.094956659 0.26432797
-0.059632286 0.095031075 0.26403925
-0.059152726 0.095112987 0.26379597
-0.058601331 0.095202953 0.2635172
0.0013336077 0.087190628 0.24523093
0.0013836072 0.087048046 0.245267
0.0014381417 0.086955369 0.24529538
0.0014675696 0.08691109 0.24530767
0.0014849132 0.08691448 0.2453135
0.001515994 0.086847417 0.2453391
0.0015574094 0.086730123 0.24537273
0.0015935861 0.086637743 0.2454005
0.0016399828 0.086490653 0.24544002
-0.069485329 0.093778498 0.2691119
-0.068663195 0.093886867 0.26870796
-0.068128228 0.093955651 0.2684353
-0.067522444 0.094025955 0.26812258
-0.066864647 0.094113342 0.26775733
-0.066163518 0.09420988 0.26736853
-0.065675572 0.094287217 0.26709437
-0.065058798 0.094349913 0.26678282
-0.064346544 0.094437547 0.26639667
-0.063736565 0.094505399 0.26608279
-0.063203573 0.094565704 0.26580825
-0.062673718 0.094639383 0.26554623
-0.062220104 0.09470392 0.26531807
-0.061794549 0.094753303 0.26511249
-0.061339367 0.094811887 0.26488614
-0.060955882 0.094866522 0.26469436
-0.060503185 0.094926827 0.2644648
-0.059947789 0.095004797 0.26418874
-0.059461791 0.095064096 0.26395297
-0.059012786 0.095134884 0.26372734
-0.058504321 0.095234632 0.26346183
-0.057885066 0.095329411 0.26314819
-0.057125311 0.095441408 0.26276439
0.0011993096 0.087710328 0.24508731
0.0012515381 0.087620802 0.24511608
0.0012942994 0.087529734 0.24514563
0.0013276809 0.087461613 0.24516934
0.0013585278 0.087421611 0.24519171
0.0013968017 0.087384418 0.24521951
0.001448215 0.08727362 0.2452576
0.0014781876 0.087205604 0.24528277
0.0015332424 0.087011725 0.24533103
-0.067950979 0.093980439 0.26834258
-0.067153335 0.094088338 0.26790383
-0.066451244 0.094188988 0.26752123
-0.065816343 0.094273441 0.26717129
-0.065308988 0.09433376 0.2669079
-0.064677402 0.094423704 0.26656318
-0.064172208 0.094471112 0.26630032
-0.063592426 0.094526388 0.26601082
-0.062990487 0.094596043 0.26570526
-0.062464304 0.09466707 0.26544103
-0.062044177 0.094731271 0.26523069
-0.061553437 0.094798505 0.26498622
-0.061202254 0.094841428 0.26481265
-0.060677979 0.094903149 0.26455271
-0.060227178 0.094970874 0.26432529
-0.059776444 0.095036104 0.26410016
-0.059189957 0.095120646 0.26380935
-0.058675759 0.09520518 0.2635504
-0.058196407 0.09528584 0.26330471
-0.057540216 0.0953805 0.26297504
-0.05681289 0.095477439 0.26261058
-0.056156073 0.095568351 0.26228276
-0.055566393 0.095634498 0.26199067
-0.055041105 0.095679581 0.26173234
0.0010528871 0.088457003 0.24493827
0.0011221038 0.088295728 0.24498142
0.0011381217 0.088223368 0.24499752
0.0012114006 0.088064834 0.24503811
0.0012526108 0.088000558 0.24506181
0.0012974368 0.087915443 0.2450943
0.0013310532 0.087829866 0.24512783
0.0013850571 0.087639943 0.24517488
0.001442712 0.087478071 0.24522017
-0.066241972 0.094219096 0.26740041
-0.065746769 0.094286531 0.26712686
-0.065033369 0.094373718 0.26673985
-0.064488478 0.094435163 0.26646551
-0.063951522 0.094497532 0.26618463
-0.063346602 0.094563447 0.26587537
-0.062748618 0.094636105 0.26557317
-0.062220503 0.094706073 0.26531422
-0.061695449 0.094784297 0.26505336
-0.061237708 0.094837584 0.2648297
-0.061030835 0.094872817 0.26472342
-0.060541596 0.09493421 0.26447871
-0.059881859 0.095025055 0.26415065
-0.059398629 0.095096037 0.26391128
-0.058922477 0.09518712 0.2636649
-0.058440842 0.09526217 0.26342192
-0.057923403 0.095336735 0.26316381
-0.057196416 0.095435373 0.26279712
-0.056538954 0.095523544 0.26246926
-0.055986729 0.095602505 0.26219189
-0.055430278 0.095663086 0.26191592
-0.054980118 0.095702827 0.26169214
-0.054534227 0.095758297 0.26146156
-0.053947508 0.095818609 0.26117861
0.00094234495 0.08901953 0.24484985
0.00097355468 0.088943131 0.24485429
0.001035011 0.088861659 0.24488178
0.0011010244 0.088611394 0.24491709
0.0011475526 0.088498108 0.24493909
0.0012024643 0.088366866 0.24498138
0.0012319078 0.088274732 0.24500538
0.0012931897 0.088072054 0.24506959
0.0013245494 0.087960221 0.24510948
-0.064851642 0.094396353 0.26664618
-0.064346999 0.094455935 0.26637864
-0.063810691 0.094513424 0.26610747
-0.063238256 0.094569318 0.26582381
-0.062641762 0.094649747 0.26552221
-0.062114608 0.094722733 0.26526269
-0.061624799 0.094793767 0.2650193
-0.061137654 0.094864123 0.26477426
-0.06075307 0.094912037 0.26458251
-0.060230847 0.094982959 0.26432279
-0.05967962 0.095069595 0.26404428
-0.059092313 0.095153973 0.26375356
-0.058682311 0.095227547 0.26354203
-0.058166448 0.095308758 0.26328123
-0.057616919 0.095397547 0.26300189
-0.056991596 0.095476605 0.26268992
-0.056403071 0.09555275 0.26239869
-0.055884734 0.095617428 0.26213875
-0.055401567 0.095681198 0.26189357
-0.055019692 0.095714301 0.26170188
-0.054397304 0.09577132 0.26139349
-0.053753052 0.095851704 0.26108053
-0.053085051 0.095944926 0.26077357
-0.052484009 0.09601628 0.26051617
-0.051768158 0.09612491 0.26019123
0.00088736397 0.089443713 0.2447727
0.00090741069 0.089408092 0.24475987
0.00093054154 0.089276351 0.24478136
0.00098407676 0.089128725 0.24479327
0.0010254889 0.088985384 0.24481344
0.0010708584 0.088867404 0.2448311
0.0011346935 0.088692158 0.24488617
0.0011767377 0.088562593 0.24493791
0.0012130032 0.0884839 0.2449771
-0.063740984 0.094530612 0.26606044
-0.063138857 0.094601147 0.26575679
-0.062541269 0.094676889 0.26546684
-0.061981663 0.094756201 0.26518634
-0.06152365 0.094815649 0.26496381
-0.06106906 0.094877057 0.26473844
-0.060576737 0.094929241 0.264496
-0.060094692 0.095007978 0.26424986
-0.059508689 0.095099971 0.26395515
-0.058993425 0.095182143 0.26369798
-0.058512539 0.095260851 0.26345378
-0.058032066 0.095339619 0.26320875
-0.057374023 0.095425941 0.26287961
-0.056752283 0.095518634 0.262566
-0.056234214 0.095585987 0.26230633
-0.055819646 0.095639221 0.26210022
-0.055404507 0.095690414 0.26188871
-0.054921307 0.095738962 0.26164451
-0.054332655 0.095784836 0.2613568
-0.053651974 0.095863834 0.2610352
-0.052885823 0.09597192 0.2606864
-0.052261919 0.096057259 0.26041153
-0.051644996 0.096149132 0.26012966
-0.05103536 0.096234083 0.25985241
-0.050582062 0.096276999 0.25965524
-0.050116811 0.096345723 0.25944117
0.00076714257 0.089938551 0.24464875
0.00082998176 0.089789338 0.24467394
0.00086254388 0.089651406 0.24467771
0.00088132283 0.089585446 0.244661
0.00094164308 0.089444697 0.2446813
0.00097221287 0.089351729 0.24469516
0.0010197755 0.089206666 0.24471737
0.0010765514 0.088987879 0.24478574
0.0011201602 0.088888884 0.24483974
-0.061422035 0.094838068 0.26490915
-0.060966589 0.094895862 0.26468477
-0.060443893 0.094966471 0.26442215
-0.059927799 0.095048629 0.26415911
-0.059440769 0.095114201 0.26391816
-0.058925766 0.095196091 0.26366228
-0.058448184 0.095281906 0.26341692
-0.057861205 0.095366605 0.26312226
-0.057308659 0.095451362 0.26284006
-0.056719691 0.095535569 0.26254466
-0.056200035 0.095590957 0.26228812
-0.055682324 0.095663562 0.26202857
-0.055196088 0.095709845 0.26178733
-0.054749034 0.095756613 0.26155779
-0.054101381 0.095834643 0.26123294
-0.053426951 0.09591385 0.26091799
-0.052732345 0.096006051 0.26061273
-0.052137084 0.09607511 0.26035801
-0.05148777 0.096171379 0.26005897
-0.050940733 0.096249856 0.25980824
-0.050440002 0.096309453 0.2595855
-0.049942911 0.096383989 0.25935531
-0.049266037 0.096471921 0.25905144
-0.048649505 0.096552879 0.2587693
-0.047891613 0.096630849 0.25843817
-0.047320064 0.09670309 0.25817356
0.0007040872 0.0903432 0.24453852
0.00073737622 0.090221532 0.24453855
0.00077111932 0.090104878 0.24453475
0.00079799106 0.090006158 0.24451445
0.00082857517 0.089938134 0.24452785
0.00086867443 0.089757986 0.24453349
0.0009153508 0.089648493 0.24455145
0.00096096029 0.089539893 0.24457622
-0.058825288 0.095220581 0.26360652
-0.0583754 0.095283397 0.26338446
-0.057968237 0.095362194 0.26317179
-0.057447612 0.09543477 0.26290986
-0.056859348 0.095517904 0.26261589
-0.056303293 0.095582023 0.26234275
-0.055649519 0.095672786 0.26200843
-0.055095088 0.09573599 0.26173174
-0.054576758 0.095777705 0.26147166
-0.054002684 0.095854342 0.26117888
-0.053295363 0.095937617 0.26085198
-0.052537858 0.096041508 0.2605184
-0.051915936 0.096120536 0.26024994
-0.051301472 0.096206769 0.25996909
