# .PCD v0.7 - Point Cloud Data file format
VERSION 0.7
FIELDS x y z
SIZE 4 4 4
TYPE F F F
COUNT 1 1 1
WIDTH 1379
HEIGHT 1
VIEWPOINT 0 0 0 1 0 0 0
POINTS 1379
DATA ascii
0.17213866 -0.08871147 0.29031914
0.17235124 -0.088516429 0.28968084
0.17268823 -0.088386409 0.28925532
0.17315096 -0.088321395 0.28904256
0.17386858 -0.088386409 0.28925532
0.17477956 -0.088548943 0.28978723
0.17575711 -0.088743985 0.29042554
0.17647885 -0.088808998 0.2906383
0.17694223 -0.088743985 0.29042554
0.17720963 -0.08858145 0.28989363
0.17747486 -0.088418916 0.28936172
0.17780338 -0.088288881 0.28893617
0.17826155 -0.088223875 0.28872341
0.17858702 -0.08809384 0.28829786
0.17891078 -0.08796382 0.28787234
0.17923279 -0.087833785 0.2874468
0.17968617 -0.087768771 0.28723404
0.18020546 -0.087736271 0.28712767
0.18072431 -0.087703757 0.28702128
0.18110831 -0.087606236 0.28670213
0.18149102 -0.087508716 0.28638297
0.18173714 -0.087346181 0.28585106
0.18198112 -0.087183647 0.28531915
0.18229096 -0.087053619 0.2848936
0.13084422 -0.089862794 0.29606384
0.1316372 -0.089991949 0.29648936
0.13285898 -0.090411715 0.29787233
0.13518274 -0.091574155 0.30170214
0.13737847 -0.092639722 0.30521277
0.13929993 -0.093511552 0.30808511
0.14103982 -0.094254211 0.31053191
0.14264409 -0.094900012 0.31265956
0.1440133 -0.095384367 0.31425533
0.14514418 -0.09570726 0.31531915
0.14593509 -0.095804133 0.3156383
0.14657909 -0.095804133 0.3156383
0.15203793 -0.09599787 0.31627661
0.15273458 -0.096030161 0.31638297
0.15327697 -0.095965579 0.31617022
0.15355952 -0.095739551 0.31542554
0.15357898 -0.095352069 0.31414893
0.15322767 -0.094738558 0.31212765
0.15286812 -0.094125062 0.3101064
0.15297423 -0.093802154 0.30904254
0.15339328 -0.093672998 0.30861703
0.15386367 -0.093576126 0.30829787
0.15433277 -0.093479253 0.30797872
0.15490761 -0.09344697 0.30787235
0.15548202 -0.093414679 0.30776596
0.15584016 -0.093253233 0.30723405
0.15592523 -0.092930332 0.30617023
0.15600595 -0.092607424 0.30510637
0.15613696 -0.092316821 0.30414894
0.15642853 -0.092123084 0.30351064
0.15699275 -0.092090786 0.30340424
0.15788811 -0.092252247 0.30393618
0.15873015 -0.092381403 0.3043617
0.15935114 -0.092381403 0.3043617
0.15969257 -0.092219949 0.30382979
0.15986341 -0.09196163 0.30297872
0.15986174 -0.091606438 0.30180851
0.15991187 -0.091283545 0.30074468
0.16018479 -0.0910898 0.30010638
0.1606261 -0.090992935 0.29978722
0.16123776 -0.090992935 0.29978722
0.16313061 -0.091025226 0.29989362
0.16362631 -0.090960644 0.29968086
0.16406286 -0.090863779 0.29936171
0.16455661 -0.090799198 0.29914895
0.16504948 -0.090734608 0.29893616
0.1655415 -0.090670034 0.2987234
0.16567762 -0.090411715 0.29787233
0.16569151 -0.090088814 0.29680851
0.16587986 -0.089862794 0.29606384
0.16636427 -0.089798205 0.29585105
0.16690786 -0.089765921 0.29574469
0.1673305 -0.089669049 0.29542553
0.16763091 -0.089507602 0.29489362
0.16811121 -0.089443021 0.29468086
0.16901699 -0.089604475 0.29521278
0.17035279 -0.089991949 0.29648936
0.17163247 -0.090347134 0.29765958
0.17230135 -0.090379432 0.29776597
0.17241469 -0.090121113 0.29691491
0.17227657 -0.08973363 0.29563829
0.17225768 -0.08941073 0.29457447
0.17229685 -0.08912012 0.29361701
0.17226949 -0.088797219 0.29255319
0.17230067 -0.088506617 0.29159576
0.17239098 -0.088248298 0.29074469
0.17273101 -0.088119134 0.29031914
0.17319633 -0.088054553 0.29010639
0.1737245 -0.088022262 0.28999999
0.17444409 -0.088086851 0.29021278
0.17535704 -0.088248298 0.29074469
0.17627214 -0.088409744 0.2912766
0.17699564 -0.088474326 0.29148936
0.17746073 -0.088409744 0.2912766
0.1777949 -0.088280581 0.29085106
0.17812733 -0.088151425 0.29042554
0.17871989 -0.088151425 0.29042554
0.17937812 -0.088183708 0.2905319
0.17997091 -0.088183708 0.2905319
0.18029922 -0.088054553 0.29010639
0.18036047 -0.087796234 0.28925532
0.18041824 -0.087537915 0.28840426
0.1805393 -0.087311886 0.28765959
0.18085827 -0.087182723 0.28723404
0.18130991 -0.087118149 0.28702128
0.1817607 -0.087053567 0.28680852
0.18207532 -0.086924404 0.28638297
0.18218467 -0.086698383 0.2856383
0.18242711 -0.086536929 0.28510639
0.13000616 -0.089098364 0.29553193
0.13065615 -0.089130431 0.29563829
0.13154274 -0.089322872 0.2962766
0.13290644 -0.089836039 0.29797873
0.13489674 -0.090766154 0.30106384
0.13723482 -0.091920771 0.30489361
0.13944423 -0.092979178 0.30840427
0.1412331 -0.093748927 0.31095746
0.14264409 -0.094262086 0.31265956
0.14376955 -0.094582818 0.31372342
0.14475243 -0.094807327 0.31446809
0.1454924 -0.094871469 0.31468084
0.14623326 -0.094935618 0.3148936
0.14687574 -0.094935618 0.3148936
0.14756806 -0.094967693 0.315
0.14791043 -0.094775252 0.31436169
0.14804912 -0.094454527 0.31329787
0.14813296 -0.09410172 0.31212765
0.15301909 -0.095160134 0.3156383
0.15335235 -0.094967693 0.315
0.15312891 -0.092882961 0.30808511
0.15354511 -0.092754662 0.30765957
0.15390629 -0.092594303 0.30712765
0.1544794 -0.092562236 0.30702129
0.15505207 -0.092530154 0.3069149
0.15850824 -0.09163212 0.30393618
0.15884987 -0.091471747 0.30340424
0.15902159 -0.091215163 0.30255318
0.15902145 -0.090862371 0.30138299
0.15907286 -0.090541638 0.30031914
0.15923308 -0.090285055 0.29946807
0.15956017 -0.090124689 0.29893616
0.16022711 -0.090156764 0.29904255
0.16095167 -0.090220906 0.29925531
0.16167711 -0.090285055 0.29946807
0.16240343 -0.090349205 0.29968086
0.16301487 -0.090349205 0.29968086
0.16356823 -0.09031713 0.29957446
0.16406286 -0.090252988 0.29936171
0.16455661 -0.090188839 0.29914895
0.16504948 -0.090124689 0.29893616
0.1655415 -0.090060547 0.2987234
0.16567762 -0.089803964 0.29787233
0.16551334 -0.089387015 0.29648936
0.16570105 -0.089162506 0.29574469
0.16624463 -0.089130431 0.29563829
0.16684783 -0.089130431 0.29563829
0.1673305 -0.089066289 0.29542553
0.16775185 -0.088970073 0.29510638
0.16829327 -0.08893799 0.29499999
0.16919971 -0.089098364 0.29553193
0.17035279 -0.089387015 0.29648936
0.17138711 -0.089611523 0.29723403
0.171932 -0.089579456 0.29712766
0.17198226 -0.089290798 0.2961702
0.17190461 -0.08893799 0.29499999
0.17207104 -0.088713489 0.29425532
0.17242172 -0.088585198 0.2938298
0.17264536 -0.088392757 0.29319149
0.17280355 -0.088168256 0.29244682
0.17302176 -0.087975815 0.29180852
0.17349055 -0.087911673 0.29159576
0.17402199 -0.087879591 0.29148936
0.17468044 -0.087911673 0.29159576
0.17533933 -0.08794374 0.29170212
0.17606281 -0.088007882 0.29191488
0.17672279 -0.088039957 0.29202127
0.17725401 -0.088007882 0.29191488
0.17759036 -0.087879591 0.29148936
0.17792496 -0.087751299 0.29106382
0.17845358 -0.087719232 0.29095745
0.17924362 -0.087815449 0.2912766
0.18016632 -0.087975815 0.29180852
0.18082759 -0.088007882 0.29191488
0.18122485 -0.087911673 0.29159576
0.18128914 -0.08765509 0.29074469
0.18115029 -0.087302282 0.28957447
0.18107344 -0.086981557 0.28851065
0.18132715 -0.086821184 0.28797871
0.18184753 -0.086789116 0.28787234
0.18236746 -0.086757042 0.28776595
0.18275167 -0.086660825 0.2874468
0.1829989 -0.086500458 0.28691489
0.18331201 -0.086372174 0.28648937
0.12991256 -0.088431671 0.29531914
0.13056213 -0.08846353 0.29542553
0.13149551 -0.088686518 0.2961702
0.13290644 -0.089228071 0.29797873
0.13499208 -0.090215594 0.30127659
0.13733058 -0.091362402 0.30510637
0.13949232 -0.09238179 0.30851063
0.14118478 -0.093082622 0.31085107
0.14244996 -0.09349674 0.31223404
0.14342828 -0.093719728 0.31297871
0.14426273 -0.093847156 0.31340426
0.14509891 -0.093974575 0.31382978
0.14598624 -0.094133854 0.31436169
0.1467765 -0.094229423 0.31468084
0.14746839 -0.094261281 0.31478724
0.14781033 -0.094070144 0.31414893
0.14799885 -0.093783446 0.3131915
0.14803199 -0.093401171 0.31191489
0.14841487 -0.0932419 0.31138298
0.14889742 -0.093146332 0.31106383
0.15338583 -0.092031375 0.30734041
0.15374635 -0.091872096 0.3068085
0.15415823 -0.091744676 0.30638298
0.15845998 -0.090629719 0.30265957
0.15857428 -0.090343021 0.30170214
0.15857239 -0.089992605 0.30053192
0.15856573 -0.089642197 0.29936171
0.15883712 -0.08945106 0.2987234
0.15927626 -0.089355491 0.29840425
0.15994211 -0.08938735 0.29851064
0.16078001 -0.089514762 0.29893616
0.16161969 -0.089642197 0.29936171
0.16234578 -0.089705899 0.29957446
0.16289912 -0.089674041 0.29946807
0.16339397 -0.089610331 0.29925531
0.16382964 -0.089514762 0.29893616
0.16432253 -0.08945106 0.2987234
0.16487329 -0.089419208 0.29861704
0.1654236 -0.08938735 0.29851064
0.16567762 -0.089196213 0.29787233
0.16551334 -0.088782087 0.29648936
0.16593945 -0.088686518 0.2961702
0.16660357 -0.088718377 0.2962766
0.16720806 -0.088718377 0.2962766
0.16769205 -0.088654667 0.29606384
0.16817515 -0.08859095 0.29585105
0.16877878 -0.08859095 0.29585105
0.16956513 -0.088686518 0.2961702
0.17047504 -0.088845797 0.29670212
0.17120309 -0.088909514 0.29691491
0.1715011 -0.088750236 0.29638299
0.17154983 -0.08846353 0.29542553
0.17171866 -0.088240542 0.29468086
0.17219546 -0.088176824 0.29446808
0.17279626 -0.088176824 0.29446808
0.17333445 -0.088144973 0.29436171
0.17368358 -0.088017546 0.29393616
0.17390485 -0.087826416 0.29329789
0.17437667 -0.087762699 0.2930851
0.17497465 -0.087762699 0.2930851
0.17563637 -0.087794557 0.29319149
0.17623457 -0.087794557 0.29319149
0.17670445 -0.087730847 0.29297873
0.17710908 -0.087635279 0.29265958
0.17725401 -0.087412283 0.29191488
0.17739591 -0.087189294 0.29117021
0.17766485 -0.087030016 0.2906383
0.17832309 -0.087061875 0.29074469
0.17937455 -0.087284863 0.29148936
0.18029769 -0.087444142 0.29202127
0.1810253 -0.087507851 0.29223403
0.18135709 -0.087380432 0.29180852
0.18155447 -0.087189294 0.29117021
0.18168269 -0.086966306 0.29042554
0.18187465 -0.086775169 0.28978723
0.18219797 -0.086647749 0.28936172
0.18278836 -0.086647749 0.28936172
0.18331131 -0.08661589 0.28925532
0.18383385 -0.086584032 0.28914893
0.18422024 -0.086488463 0.28882977
0.18474148 -0.086456612 0.28872341
0.13056213 -0.087860771 0.29542553
0.13154274 -0.088113882 0.2962766
0.13304879 -0.088715017 0.29829788
0.13518274 -0.089727454 0.30170214
0.13742636 -0.090803176 0.30531916
0.13944423 -0.0917207 0.30840427
0.14094318 -0.092290193 0.31031916
0.14206168 -0.092606574 0.31138298
0.14303826 -0.092828043 0.31212765
0.14387098 -0.092954606 0.3125532
0.14475462 -0.093112797 0.31308511
0.14568983 -0.09330263 0.31372342
0.14657803 -0.093460828 0.31425533
0.14731887 -0.093524098 0.31446809
0.14771022 -0.093365908 0.31393617
0.14784804 -0.093049526 0.31287235
0.14793101 -0.092701495 0.31170213
0.14831346 -0.092543304 0.31117022
0.14889742 -0.092511661 0.31106383
0.1535982 -0.091530859 0.30776596
0.15385298 -0.091309391 0.30702129
0.15415823 -0.091119558 0.30638298
0.15851569 -0.090043843 0.30276597
0.15879793 -0.089854009 0.30212766
0.15874079 -0.08947435 0.30085108
0.15879112 -0.089157954 0.29978722
0.15895025 -0.088904843 0.29893616
0.15933305 -0.088778295 0.29851064
0.15994211 -0.088778295 0.29851064
0.16072281 -0.088873208 0.29882979
0.16167711 -0.089063033 0.29946807
0.16246107 -0.089157954 0.29978722
0.16301487 -0.089126319 0.29968086
0.16345206 -0.089031398 0.29936171
0.16377135 -0.088873208 0.29882979
0.16414696 -0.088746652 0.29840425
0.16463833 -0.088683374 0.29819149
0.16512883 -0.088620096 0.29797873
0.16647591 -0.088366985 0.29712766
0.16708213 -0.088366985 0.29712766
0.16762832 -0.08833535 0.29702127
0.1681741 -0.088303715 0.29691491
0.16865894 -0.08824043 0.29670212
0.16920362 -0.088208795 0.29659575
0.16993058 -0.088272072 0.29680851
0.17053616 -0.088272072 0.29680851
0.17095771 -0.088177152 0.29648936
0.17113174 -0.087955683 0.29574469
0.17124096 -0.087702572 0.29489362
0.17171866 -0.087639302 0.29468086
0.17256872 -0.08776585 0.29510638
0.17348295 -0.087924041 0.29563829
0.17408615 -0.087924041 0.29563829
0.17450076 -0.087829128 0.29531914
0.17478792 -0.08767093 0.29478723
0.17513621 -0.087544382 0.29436171
0.17567328 -0.087512739 0.29425532
0.17633739 -0.087544382 0.29436171
0.17693798 -0.087544382 0.29436171
0.17721775 -0.087386191 0.2938298
0.1773666 -0.087164715 0.2930851
0.17738321 -0.086879969 0.29212767
0.17739591 -0.086595215 0.29117021
0.17766485 -0.086437024 0.2906383
0.17838833 -0.086500302 0.29085106
0.17944002 -0.086721778 0.29159576
0.18036337 -0.086879969 0.29212767
0.1808935 -0.086848326 0.29202127
0.18122485 -0.086721778 0.29159576
0.18168712 -0.086658493 0.29138297
0.18228164 -0.086658493 0.29138297
0.18294293 -0.086690135 0.29148936
0.18353765 -0.086690135 0.29148936
0.18406518 -0.086658493 0.29138297
0.18452485 -0.086595215 0.29117021
0.18491602 -0.086500302 0.29085106
0.18537375 -0.086437024 0.2906383
0.18617095 -0.086531945 0.29095745
0.13079721 -0.087415114 0.29595745
0.13196783 -0.087792173 0.29723403
0.13352329 -0.088420607 0.29936171
0.13556406 -0.089363255 0.30255318
0.13756999 -0.090274483 0.30563828
0.13929993 -0.090997189 0.30808511
0.14060496 -0.091437086 0.30957446
0.1416734 -0.091719888 0.31053191
0.14264825 -0.091939837 0.31127658
0.14352819 -0.09209694 0.3118085
0.1444595 -0.092285477 0.3124468
0.1453934 -0.092474006 0.31308511
0.1462803 -0.092631117 0.31361702
0.14706969 -0.092725381 0.31393617
0.14750999 -0.09259969 0.31351063
0.14779776 -0.092379741 0.31276596
0.14798149 -0.09209694 0.3118085
0.14841487 -0.091971256 0.31138298
0.14894834 -0.091908418 0.31117022
0.14958324 -0.091908418 0.31117022
0.15344615 -0.091185711 0.30872339
0.15381058 -0.091028608 0.30819148
0.15406622 -0.09080866 0.30744681
0.15431882 -0.090588711 0.30670214
0.15467587 -0.090431601 0.30617023
0.15962963 -0.090054534 0.30489361
0.15958074 -0.089677483 0.30361703
0.15952663 -0.089300416 0.30234042
0.15946731 -0.088923357 0.30106384
0.15951592 -0.088609144 0.30000001
0.15973052 -0.088389188 0.29925531
0.16017009 -0.088294916 0.29893616
0.16089447 -0.088357769 0.29914895
0.16190685 -0.088577718 0.29989362
0.16280699 -0.088734828 0.30042553
0.16341995 -0.088734828 0.30042553
0.16374248 -0.088577718 0.29989362
0.16388795 -0.088326342 0.29904255
0.16408846 -0.088106394 0.29829788
0.16440339 -0.087949291 0.29776597
0.1647751 -0.0878236 0.29734042
0.16508593 -0.087666489 0.29680851
0.16569151 -0.087666489 0.29680851
0.1665355 -0.087792173 0.29723403
0.16738124 -0.087917864 0.29765958
0.16804861 -0.087949291 0.29776597
0.16853562 -0.087886438 0.29755318
0.1689613 -0.087792173 0.29723403
0.16944638 -0.087729327 0.29702127
0.17005239 -0.087729327 0.29702127
0.1705973 -0.087697916 0.29691491
0.17083503 -0.087509379 0.2962766
0.1708855 -0.087226585 0.29531914
0.17117918 -0.087069474 0.29478723
0.17196661 -0.087163739 0.29510638
0.17306639 -0.087415114 0.29595745
0.17410722 -0.087635063 0.29670212
0.17477524 -0.087666489 0.29680851
0.17512938 -0.087540805 0.29638299
0.17535563 -0.087352276 0.29574469
0.17551596 -0.08713232 0.29499999
0.17599083 -0.087069474 0.29478723
0.17665604 -0.087100901 0.29489362
0.17719376 -0.087069474 0.29478723
0.17753857 -0.08694379 0.29436171
0.17775288 -0.086755261 0.2937234
0.1777062 -0.086441047 0.29265958
0.17771998 -0.086158246 0.29170212
0.17812005 -0.086063981 0.29138297
0.17884508 -0.086126827 0.29159576
0.17976734 -0.086283937 0.29212767
0.18042904 -0.086315356 0.29223403
0.18082759 -0.086221084 0.29191488
0.18115874 -0.086095408 0.29148936
0.18181981 -0.086126827 0.29159576
0.18294716 -0.086378202 0.29244682
0.18414474 -0.086660996 0.29340425
0.18501131 -0.086786687 0.2938298
0.18554361 -0.086755261 0.2937234
0.18573838 -0.086566731 0.2930851
0.18593056 -0.086378202 0.29244682
0.18632369 -0.086283937 0.29212767
0.18698779 -0.086315356 0.29223403
0.13272355 -0.087684996 0.29893616
0.13418758 -0.088246688 0.30085108
0.1360884 -0.089089207 0.30372339
0.13776153 -0.089775711 0.30606383
0.13920373 -0.090306193 0.30787235
0.14031506 -0.090618238 0.30893618
0.14138219 -0.090899073 0.30989361
0.14240448 -0.091148712 0.31074467
0.14343025 -0.091398351 0.31159574
0.14436112 -0.091585577 0.31223404
0.14519578 -0.091710389 0.31265956
0.1460322 -0.091835216 0.31308511
0.14677066 -0.091897622 0.31329787
0.14735985 -0.091866426 0.3131915
0.14784804 -0.09177281 0.31287235
0.14818345 -0.091585577 0.31223404
0.14856699 -0.091429554 0.31170213
0.14899926 -0.091304734 0.31127658
0.14948095 -0.091211125 0.31095746
0.15150462 -0.090150163 0.30734041
0.15244764 -0.090337388 0.30797872
0.1533404 -0.090493411 0.30851063
0.15391678 -0.090462215 0.30840427
0.15422615 -0.090274982 0.30776596
0.15442587 -0.09002535 0.3069149
0.1547296 -0.089838117 0.30627659
0.15513867 -0.089713305 0.30585107
0.16061649 -0.090337388 0.30797872
0.16057651 -0.089962937 0.30670214
0.16047537 -0.089557283 0.30531916
0.16042474 -0.089182816 0.30404255
0.16036889 -0.088808365 0.30276597
0.16030784 -0.088433906 0.30148935
0.16035514 -0.088121861 0.30042553
0.1605691 -0.087903433 0.29968086
0.16112332 -0.08787223 0.29957446
0.16202173 -0.088028245 0.30010638
0.16321054 -0.08834029 0.3011702
0.1638829 -0.0883715 0.30127659
0.16414908 -0.088184267 0.30063829
0.16406286 -0.087809816 0.29936171
0.16408846 -0.087497771 0.29829788
0.16422719 -0.087248139 0.29744682
0.16448034 -0.087060906 0.29680851
0.16473089 -0.08687368 0.2961702
0.1652758 -0.086842477 0.29606384
0.16623747 -0.087029696 0.29670212
0.1672616 -0.087248139 0.29744682
0.16804861 -0.087341756 0.29776597
0.16859588 -0.087310545 0.29765958
0.16902179 -0.087216929 0.29734042
0.16956775 -0.087185718 0.29723403
0.17023511 -0.087216929 0.29734042
0.17078064 -0.087185718 0.29723403
0.17101906 -0.0869985 0.29659575
0.17107019 -0.086717658 0.29563829
0.17148805 -0.086624041 0.29531914
0.17240055 -0.086780064 0.29585105
0.17356408 -0.087060906 0.29680851
0.17448178 -0.087216929 0.29734042
0.17508845 -0.087216929 0.29734042
0.1755694 -0.087154523 0.29712766
0.17579716 -0.086967289 0.29648936
0.17757744 -0.086655244 0.29542553
0.17798771 -0.086561635 0.29510638
0.17826791 -0.086405613 0.29457447
0.17828757 -0.086124763 0.29361701
0.17849776 -0.085937545 0.29297873
0.17896545 -0.085875124 0.29276595
0.1796933 -0.085937545 0.29297873
0.18035652 -0.08596874 0.2930851
0.18075745 -0.085875124 0.29276595
0.1810253 -0.085719109 0.29223403
0.18135709 -0.085594289 0.29180852
0.18228413 -0.085750312 0.29234043
0.18361266 -0.086093567 0.29351065
0.18507949 -0.086499222 0.29489362
0.18621704 -0.086748861 0.29574469
0.18688764 -0.086780064 0.29585105
0.18701935 -0.086561635 0.29510638
0.18687746 -0.086218379 0.29393616
0.18700221 -0.085999951 0.29319149
0.1873962 -0.085906334 0.29287234
0.13333757 -0.087477908 0.30031914
0.13475697 -0.088004701 0.30212766
0.13651741 -0.088748403 0.30468085
0.13800095 -0.089306183 0.30659574
0.13920373 -0.089678034 0.30787235
0.14026673 -0.089956917 0.30882978
0.14133367 -0.090235814 0.30978724
0.14245324 -0.090545684 0.31085107
0.14352819 -0.090824567 0.3118085
0.1444595 -0.091010496 0.3124468
0.14509699 -0.091010496 0.3124468
0.14568487 -0.090979517 0.31234044
0.14637196 -0.091010496 0.3124468
0.14715962 -0.091103457 0.31276596
0.14794858 -0.091196425 0.31308511
0.14853688 -0.091165431 0.31297871
0.14892192 -0.091010496 0.3124468
0.14915203 -0.090762593 0.31159574
0.14948095 -0.090576679 0.31095746
0.14990997 -0.090452723 0.31053191
0.1503545 -0.089585073 0.3075532
0.15072088 -0.089430138 0.30702129
0.15129486 -0.089399144 0.3069149
0.15213169 -0.089523092 0.30734041
0.15312891 -0.089740008 0.30808511
0.15391678 -0.089832976 0.30840427
0.15438609 -0.089740008 0.30808511
0.15463997 -0.089523092 0.30734041
0.15483709 -0.089275189 0.30648935
0.15513867 -0.089089274 0.30585107
0.15570851 -0.08905828 0.30574468
0.1606513 -0.090080872 0.30925533
0.1608939 -0.089863956 0.30851063
0.16091068 -0.089523092 0.30734041
0.16086678 -0.089151241 0.30606383
0.16087379 -0.088810377 0.30489361
0.16098873 -0.088531494 0.30393618
0.1610432 -0.08822161 0.30287233
0.16109332 -0.08791174 0.30180851
0.16131011 -0.087694831 0.30106384
0.16163829 -0.087539889 0.30053192
0.16361411 -0.087942727 0.3019149
0.16423011 -0.087942727 0.3019149
0.16438143 -0.087694831 0.30106384
0.16417946 -0.087260999 0.29957446
0.16408846 -0.086889155 0.29829788
0.16428591 -0.086672232 0.29755318
0.16453931 -0.086486317 0.29691491
0.16473089 -0.086269394 0.2961702
0.16515701 -0.086176433 0.29585105
0.16593945 -0.086269394 0.2961702
0.16708213 -0.086548291 0.29712766
0.16798857 -0.086703226 0.29765958
0.16871639 -0.0867652 0.29787233
0.16920321 -0.086703226 0.29765958
0.16993189 -0.0867652 0.29787233
0.17078328 -0.086889155 0.29829788
0.17145301 -0.086920135 0.29840425
0.17175515 -0.0867652 0.29787233
0.17187044 -0.086517297 0.29702127
0.17222936 -0.086393349 0.29659575
0.1730205 -0.086486317 0.29691491
0.17393734 -0.086641252 0.29744682
0.17473149 -0.086734213 0.29776597
0.17527638 -0.086703226 0.29765958
0.17582084 -0.086672232 0.29755318
0.17907847 -0.086486317 0.29691491
0.17904046 -0.086176433 0.29585105
0.17906274 -0.08589755 0.29489362
0.17934035 -0.085742615 0.29436171
0.1798759 -0.085711621 0.29425532
0.18047626 -0.085711621 0.29425532
0.18088023 -0.08561866 0.29393616
0.18108588 -0.085432738 0.29329789
0.1812889 -0.085246809 0.29265958
0.1818199 -0.085215822 0.29255319
0.18274847 -0.085370757 0.2930851
0.1840785 -0.085711621 0.29425532
0.18554685 -0.086114459 0.29563829
0.18688688 -0.086455323 0.29680851
0.18776126 -0.086579271 0.29723403
0.18803062 -0.086424336 0.29670212
0.187892 -0.086083479 0.29553193
0.1877486 -0.085742615 0.29436171
0.18800884 -0.085587673 0.2938298
0.13187855 -0.086311296 0.29840425
0.13329035 -0.086834401 0.30021277
0.13489932 -0.087480582 0.30244681
0.13661274 -0.088188298 0.30489361
0.13809672 -0.088742167 0.3068085
0.13929993 -0.089111418 0.30808511
0.14041169 -0.089419127 0.30914894
0.1415278 -0.089726828 0.31021276
0.14269701 -0.0900653 0.31138298
0.14382201 -0.090373009 0.3124468
0.14460705 -0.090465322 0.31276596
0.14504759 -0.090342239 0.31234044
0.14538714 -0.090157613 0.31170213
0.14602311 -0.090157613 0.31170213
0.14695941 -0.090342239 0.31234044
0.14804912 -0.090619169 0.31329787
0.1488903 -0.09074226 0.31372342
0.14932756 -0.090619169 0.31329787
0.14945757 -0.090311468 0.31223404
0.14958324 -0.090003766 0.31117022
0.14985861 -0.089788362 0.31042552
0.15013096 -0.089572974 0.30968085
0.15024491 -0.089265272 0.30861703
0.1503545 -0.08895757 0.3075532
0.15061642 -0.088742167 0.3068085
0.15103266 -0.088619091 0.30638298
0.1518684 -0.088742167 0.3068085
0.15297027 -0.089019105 0.30776596
0.15402296 -0.089265272 0.30861703
0.15465263 -0.089265272 0.30861703
0.15496114 -0.089080647 0.30797872
0.15505207 -0.088772945 0.3069149
0.15530056 -0.088557549 0.30617023
0.15587105 -0.088526778 0.30606383
0.15671308 -0.088649854 0.30648935
0.15777533 -0.088896021 0.30734041
0.15884103 -0.089142188 0.30819148
0.15991022 -0.089388348 0.30904254
0.16048551 -0.089357585 0.30893618
0.16072746 -0.089142188 0.30819148
0.16063219 -0.088742167 0.3068085
0.16064312 -0.088403694 0.30563828
0.16092993 -0.088219076 0.30500001
0.16138317 -0.088126764 0.30468085
0.16177854 -0.088003673 0.30425531
0.16200185 -0.087788284 0.30351064
0.1625071 -0.087726742 0.30329788
0.16428797 -0.087357491 0.30202127
0.1644395 -0.087111332 0.3011702
0.16429606 -0.086711317 0.29978722
0.16432253 -0.086403608 0.2987234
0.16463833 -0.086249761 0.29819149
0.16501093 -0.086126678 0.29776597
0.16526344 -0.085942052 0.29712766
0.16557273 -0.085788205 0.29659575
0.16623747 -0.085818969 0.29670212
0.16732141 -0.086065136 0.29755318
0.16828875 -0.086249761 0.29819149
0.16901767 -0.086311296 0.29840425
0.16968699 -0.086342074 0.29851064
0.17059949 -0.086495921 0.29904255
0.17163597 -0.086711317 0.29978722
0.1723699 -0.086772859 0.30000001
0.17273661 -0.086649776 0.29957446
0.17291693 -0.086434387 0.29882979
0.17327954 -0.086311296 0.29840425
0.17388837 -0.086311296 0.29840425
0.1744972 -0.086311296 0.29840425
0.17504363 -0.086280532 0.29829788
0.17558961 -0.086249761 0.29819149
0.17632373 -0.086311296 0.29840425
0.17737411 -0.086526699 0.29914895
0.18007132 -0.086649776 0.29957446
0.18004093 -0.086342074 0.29851064
0.17994179 -0.086003594 0.29734042
0.17990249 -0.085695893 0.2962766
0.18018292 -0.085542038 0.29574469
0.1807213 -0.085511267 0.29563829
0.18119399 -0.085449725 0.29542553
0.18140396 -0.0852651 0.29478723
0.18147996 -0.08501894 0.29393616
0.1816843 -0.084834322 0.29329789
0.18228272 -0.084834322 0.29329789
0.18327913 -0.08501894 0.29393616
0.18447781 -0.085295878 0.29489362
0.18574716 -0.08560358 0.29595745
0.18708783 -0.085942052 0.29712766
0.18809728 -0.086126678 0.29776597
0.18856996 -0.086065136 0.29755318
0.18856835 -0.085788205 0.29659575
0.18856283 -0.085511267 0.29563829
0.18889375 -0.085388191 0.29521278
0.13154945 -0.085488588 0.29765958
0.13281803 -0.08591634 0.29914895
0.13442482 -0.086557962 0.30138299
0.1360884 -0.087230131 0.30372339
0.13795307 -0.088024519 0.30648935
0.13954042 -0.088635594 0.30861703
0.14065328 -0.088941127 0.30968085
0.14186755 -0.089307778 0.31095746
0.14313577 -0.089704968 0.31234044
0.14426273 -0.090010501 0.31340426
0.14495136 -0.090041049 0.31351063
0.14529461 -0.089857735 0.31287235
0.14548637 -0.089582749 0.31191489
0.14602311 -0.089521646 0.31170213
0.14705952 -0.089766078 0.3125532
0.14819993 -0.090071611 0.31361702
0.14919321 -0.09028548 0.31436169
0.14968249 -0.090193816 0.31404254
0.14981402 -0.089888282 0.31297871
0.14978778 -0.089491092 0.31159574
0.14990997 -0.089185558 0.31053191
0.15002781 -0.088880025 0.30946809
0.15024491 -0.088635594 0.30861703
0.15030248 -0.088299505 0.30744681
0.15045975 -0.088024519 0.30648935
0.15082288 -0.087871753 0.30595744
0.15171042 -0.088024519 0.30648935
0.15291739 -0.088360615 0.30765957
0.15407604 -0.088666141 0.30872339
0.15486586 -0.088757806 0.30904254
0.15522878 -0.088605039 0.30851063
0.15537454 -0.08833006 0.3075532
0.15573224 -0.088177294 0.30702129
0.1562503 -0.088116184 0.3068085
0.15703946 -0.088207848 0.30712765
0.15793917 -0.088360615 0.30765957
0.15889587 -0.088543937 0.30829787
0.15969004 -0.088635594 0.30861703
0.16015391 -0.088543937 0.30829787
0.16028361 -0.088268951 0.30734041
0.1602423 -0.087902315 0.30606383
0.16041946 -0.087657884 0.30521277
0.16104218 -0.087657884 0.30521277
0.16183397 -0.087749548 0.30553192
0.1625139 -0.087780096 0.30563828
0.16296716 -0.087688439 0.30531916
0.1633621 -0.087566219 0.30489361
0.16369809 -0.087413453 0.3043617
0.16385962 -0.087169029 0.30351064
0.16401766 -0.086924598 0.30265957
0.16434585 -0.086771831 0.30212766
0.16455568 -0.086557962 0.30138299
0.16464588 -0.086282976 0.30042553
0.16496624 -0.086130209 0.29989362
0.16551937 -0.086099654 0.29978722
0.16613103 -0.086099654 0.29978722
0.16650602 -0.085977443 0.29936171
0.16676047 -0.085794121 0.2987234
0.16731037 -0.085763574 0.29861704
0.16815892 -0.085885786 0.29904255
0.16894919 -0.085977443 0.29936171
0.16968049 -0.086038552 0.29957446
0.17041264 -0.086099654 0.29978722
0.17132775 -0.086252421 0.30031914
0.17236686 -0.086466298 0.30106384
0.17322561 -0.086588509 0.30148935
0.17371807 -0.086527407 0.30127659
0.17402498 -0.08637464 0.30074468
0.17439148 -0.086252421 0.30031914
0.17488025 -0.086191319 0.30010638
0.17536815 -0.086130209 0.29989362
0.17579274 -0.086038552 0.29957446
0.17634131 -0.08600799 0.29946807
0.17714091 -0.086099654 0.29978722
0.17813104 -0.086282976 0.30042553
0.17918706 -0.086496852 0.3011702
0.17986505 -0.086527407 0.30127659
0.18028857 -0.086435743 0.30095744
0.18064684 -0.086313531 0.30053192
0.18074672 -0.086069107 0.29968086
0.18071435 -0.085763574 0.29861704
0.18067765 -0.085458033 0.29755318
0.18096069 -0.085305266 0.29702127
0.1813716 -0.085213602 0.29670212
0.18171598 -0.085091397 0.2962766
0.18186224 -0.084877521 0.29553193
0.18193975 -0.084633097 0.29468086
0.1821456 -0.084449768 0.29404256
0.18274553 -0.084449768 0.29404256
0.18354447 -0.084541433 0.29436171
0.1846109 -0.084755301 0.29510638
0.18574716 -0.084999733 0.29595745
0.18695387 -0.085274719 0.29691491
0.18796286 -0.085458033 0.29755318
0.18856996 -0.085458033 0.29755318
0.1888389 -0.085305266 0.29702127
0.1890378 -0.085121952 0.29638299
0.18943831 -0.085030288 0.29606384
0.13136138 -0.084759921 0.29723403
0.13239293 -0.085032955 0.29819149
0.13376053 -0.085518338 0.29989362
0.13532573 -0.086125061 0.30202127
0.1378573 -0.087338515 0.30627659
0.13978092 -0.088157602 0.30914894
0.14099149 -0.088521637 0.31042552
0.14225581 -0.088916011 0.3118085
0.14362329 -0.089371063 0.31340426
0.14480139 -0.089704759 0.31457448
0.14559077 -0.089795761 0.3148936
0.14598624 -0.089644082 0.31436169
0.14618106 -0.089371063 0.31340426
0.14652148 -0.089189038 0.31276596
0.14740989 -0.089340724 0.31329787
0.14845128 -0.089583412 0.31414893
0.14934468 -0.089735091 0.31468084
0.14983462 -0.089644082 0.31436169
0.14996679 -0.089340724 0.31329787
0.14989005 -0.088916011 0.3118085
0.14980726 -0.088491306 0.31031916
0.14987309 -0.088157602 0.30914894
0.15008953 -0.087914914 0.30829787
0.15025048 -0.08764188 0.30734041
0.15045975 -0.087399185 0.30648935
0.15077044 -0.087217174 0.30585107
0.15176308 -0.087429531 0.30659574
0.15297027 -0.087763228 0.30776596
0.15412913 -0.088066593 0.30882978
0.15491918 -0.088157602 0.30914894
0.15538935 -0.088066593 0.30882978
0.1558045 -0.087945253 0.30840427
0.1563258 -0.087884568 0.30819148
0.15695462 -0.087884568 0.30819148
0.15758342 -0.087884568 0.30819148
0.15826684 -0.087914914 0.30829787
0.1589507 -0.087945253 0.30840427
0.15952489 -0.087914914 0.30829787
0.15982233 -0.087732889 0.30765957
0.15989524 -0.087429531 0.30659574
0.16007522 -0.087186836 0.30574468
0.16058721 -0.087126166 0.30553192
0.1614351 -0.087247506 0.30595744
0.1624538 -0.08745987 0.30670214
0.16330583 -0.08758121 0.30712765
0.16381891 -0.08752054 0.3069149
0.16398911 -0.087277845 0.30606383
0.16409861 -0.087004818 0.30510637
0.16397448 -0.086610444 0.30372339
0.16419062 -0.086398087 0.30297872
0.16457731 -0.08627674 0.30255318
0.16502038 -0.086185738 0.30223405
0.16546211 -0.08609473 0.3019149
0.16607811 -0.08609473 0.3019149
0.16681159 -0.0861554 0.30212766
0.16754591 -0.08621607 0.30234042
0.16798528 -0.086125061 0.30202127
0.16824518 -0.085943043 0.30138299
0.16862167 -0.085821696 0.30095744
0.16923572 -0.085821696 0.30095744
0.16996984 -0.085882366 0.3011702
0.17058432 -0.085882366 0.3011702
0.17125928 -0.085912704 0.30127659
0.17193468 -0.085943043 0.30138299
0.17279321 -0.086064391 0.30180851
0.17359236 -0.0861554 0.30212766
0.17433147 -0.08621607 0.30234042
0.17488679 -0.086185738 0.30223405
0.17544167 -0.0861554 0.30212766
0.17593412 -0.08609473 0.3019149
0.1763635 -0.086003721 0.30159575
0.17679156 -0.085912704 0.30127659
0.17734361 -0.085882366 0.3011702
0.17802095 -0.085912704 0.30127659
0.17876181 -0.085973375 0.30148935
0.17950355 -0.08603406 0.30170214
0.18011911 -0.08603406 0.30170214
0.18067095 -0.086003721 0.30159575
0.18115841 -0.085943043 0.30138299
0.18138833 -0.085761026 0.30074468
0.18142252 -0.085487992 0.29978722
0.18138821 -0.085184634 0.2987234
0.18154402 -0.084972277 0.29797873
0.18182683 -0.084820598 0.29744682
0.18217272 -0.084699251 0.29702127
0.18238595 -0.084517241 0.29638299
0.18259656 -0.084335215 0.29574469
0.18273868 -0.084122859 0.29499999
0.18314223 -0.08403185 0.29468086
0.1838098 -0.084062181 0.29478723
0.18467747 -0.084183536 0.29521278
0.18581393 -0.084426224 0.29606384
0.18688688 -0.084638581 0.29680851
0.18776126 -0.084759921 0.29723403
0.18836771 -0.084759921 0.29723403
0.18870363 -0.084638581 0.29680851
0.18910564 -0.084547564 0.29648936
0.18957444 -0.084486894 0.2962766
0.13126735 -0.084093235 0.29702127
0.1320623 -0.084213711 0.29744682
0.13304879 -0.084454671 0.29829788
0.13394339 -0.084635377 0.29893616
0.1412331 -0.088038877 0.31095746
0.14235289 -0.088340066 0.31202129
0.14372079 -0.088791855 0.31361702
0.14524211 -0.089334004 0.31553191
0.14613183 -0.089484595 0.31606382
0.14667788 -0.089424357 0.31585106
0.14712384 -0.089303888 0.31542554
0.14731887 -0.089032806 0.31446809
0.14786038 -0.088972576 0.31425533
0.14850156 -0.088972576 0.31425533
0.14919321 -0.089002684 0.31436169
0.1496318 -0.088882215 0.31393617
0.14976311 -0.088581018 0.31287235
0.14973666 -0.088189468 0.31148937
0.14965318 -0.087767795 0.31
0.14976995 -0.087466605 0.30893618
0.15003774 -0.087255761 0.30819148
0.1503545 -0.087075055 0.3075532
0.15056421 -0.086834095 0.30670214
0.15197372 -0.086924456 0.30702129
0.15307602 -0.087195531 0.30797872
0.15396985 -0.087346122 0.30851063
0.15475924 -0.087436482 0.30882978
0.15544289 -0.087466605 0.30893618
0.15612695 -0.08749672 0.30904254
0.15691938 -0.087587081 0.3093617
0.15765892 -0.087647311 0.30957446
0.15823618 -0.087617204 0.30946809
0.15864912 -0.08749672 0.30904254
0.15900552 -0.087346122 0.30851063
0.15935975 -0.087195531 0.30797872
0.15960129 -0.086984694 0.30723405
0.15983976 -0.08677385 0.30648935
0.16029802 -0.086683504 0.30617023
0.16114634 -0.086803973 0.30659574
0.16222095 -0.087044932 0.30744681
0.16329904 -0.087285884 0.30829787
0.16415432 -0.08740636 0.30872339
0.16461387 -0.087316006 0.30840427
0.1646731 -0.087014809 0.30734041
0.16449913 -0.086593144 0.30585107
0.16437653 -0.086201593 0.3044681
0.16459417 -0.085990749 0.30372339
0.16515601 -0.085960634 0.30361703
0.16589165 -0.086020872 0.30382979
0.16656986 -0.086050995 0.30393618
0.16736554 -0.086141348 0.30425531
0.16816251 -0.086231709 0.30457446
0.1688429 -0.086261831 0.30468085
0.16922785 -0.086141348 0.30425531
0.16937353 -0.085900389 0.30340424
0.16957535 -0.08568956 0.30265957
0.17007323 -0.085629322 0.30244681
0.17075033 -0.085659437 0.30255318
0.17142791 -0.08568956 0.30265957
0.17198494 -0.085659437 0.30255318
0.17242019 -0.085569084 0.30223405
0.17303684 -0.085569084 0.30223405
0.17383686 -0.085659437 0.30255318
0.17469953 -0.08577992 0.30297872
0.17556393 -0.085900389 0.30340424
0.17624475 -0.085930511 0.30351064
0.17680201 -0.085900389 0.30340424
0.17723443 -0.085810043 0.30308512
0.17766553 -0.085719682 0.30276597
0.17815797 -0.085659437 0.30255318
0.17877528 -0.085659437 0.30255318
0.17945567 -0.08568956 0.30265957
0.18007319 -0.08568956 0.30265957
0.18069071 -0.08568956 0.30265957
0.18124449 -0.085659437 0.30255318
0.18166997 -0.085569084 0.30223405
0.18190163 -0.08538837 0.30159575
0.18200195 -0.085147411 0.30074468
0.18203418 -0.084876336 0.29978722
0.18212733 -0.084635377 0.29893616
0.182217 -0.084394425 0.29808509
0.18236846 -0.084183589 0.29734042
0.18271327 -0.08406312 0.29691491
0.18312202 -0.08397276 0.29659575
0.18339768 -0.083822161 0.29606384
0.18360505 -0.083641447 0.29542553
0.18400879 -0.083551086 0.29510638
0.18481056 -0.083641447 0.29542553
0.18594746 -0.083882399 0.2962766
0.18702084 -0.084093235 0.29702127
0.18782847 -0.084183589 0.29734042
0.1883003 -0.084123358 0.29712766
0.18856835 -0.08397276 0.29659575
0.18896994 -0.083882399 0.2962766
0.18950637 -0.083852276 0.2961702
0.13196783 -0.083547018 0.29723403
0.13281155 -0.083696537 0.29776597
0.13389574 -0.083995558 0.29882979
0.14108814 -0.087314717 0.31063831
0.14225581 -0.087643631 0.3118085
0.14381829 -0.088211782 0.31382978
0.14563386 -0.088929437 0.31638297
0.14647613 -0.089049049 0.31680852
0.14707312 -0.089019142 0.31670213
0.14742155 -0.088839725 0.31606382
0.14761791 -0.08857061 0.31510639
0.14791043 -0.088361293 0.31436169
0.14840101 -0.088271581 0.31404254
0.1488398 -0.088151976 0.31361702
0.14922616 -0.088002466 0.31308511
0.14945757 -0.08776325 0.31223404
0.14942981 -0.087374516 0.31085107
0.14944775 -0.087015688 0.30957446
0.14971837 -0.086806372 0.30882978
0.15008953 -0.086656861 0.30829787
0.15061454 -0.086597063 0.30808511
0.15291739 -0.086477444 0.30765957
0.15381058 -0.086626954 0.30819148
0.15465263 -0.086746573 0.30861703
0.15554994 -0.086896084 0.30914894
0.15650317 -0.087075494 0.30978724
0.15751296 -0.087284811 0.31053191
0.15836325 -0.087404422 0.31095746
0.15883452 -0.087314717 0.31063831
0.15897681 -0.087045595 0.30968085
0.15900552 -0.086716667 0.30851063
0.1591946 -0.086477444 0.30765957
0.15949076 -0.086298041 0.30702129
0.16000621 -0.086238228 0.3068085
0.16079928 -0.086327933 0.30712765
0.16192916 -0.086597063 0.30808511
0.16311906 -0.086896084 0.30914894
0.16414426 -0.087105393 0.30989361
0.16483311 -0.0871353 0.31
0.16523847 -0.087015688 0.30957446
0.1653001 -0.086716667 0.30851063
0.16512853 -0.086298041 0.30702129
0.16489343 -0.085849501 0.30542552
0.16505538 -0.085610278 0.30457446
0.16573468 -0.085640185 0.30468085
0.16670485 -0.085819602 0.30531916
0.1676193 -0.085969113 0.30585107
0.1684189 -0.086058818 0.30617023
0.1691023 -0.086088717 0.30627659
0.16966826 -0.086058818 0.30617023
0.16993791 -0.0858794 0.30553192
0.16990803 -0.08555048 0.3043617
0.17005219 -0.085311256 0.30351064
0.17055179 -0.085251458 0.30329788
0.17135073 -0.085341163 0.30361703
0.17215098 -0.085430875 0.30393618
0.17258969 -0.085341163 0.30361703
0.17284502 -0.085161746 0.30297872
0.17321955 -0.085042134 0.30255318
0.17402023 -0.085131839 0.30287233
0.17500624 -0.085311256 0.30351064
0.17599484 -0.085490674 0.30414894
0.17667717 -0.085520573 0.30425531
0.17723596 -0.085490674 0.30414894
0.1776699 -0.085400969 0.30382979
0.17810252 -0.085311256 0.30351064
0.1785965 -0.085251458 0.30329788
0.17915244 -0.085221551 0.30319148
0.17983414 -0.085251458 0.30329788
0.18057954 -0.085311256 0.30351064
0.18132582 -0.085371062 0.30372339
0.18188179 -0.085341163 0.30361703
0.18230942 -0.085251458 0.30329788
0.18241495 -0.085012235 0.30244681
0.18251699 -0.084773019 0.30159575
0.18255097 -0.084503897 0.30063829
0.18264584 -0.084264673 0.29978722
0.18317153 -0.08366663 0.29765958
0.18377885 -0.08366663 0.29765958
0.18412256 -0.083547018 0.29723403
0.18426619 -0.083337709 0.29648936
0.18453947 -0.083188199 0.29595745
0.1852764 -0.083247997 0.2961702
0.18641482 -0.08348722 0.29702127
0.18748975 -0.083696537 0.29776597
0.18829887 -0.083786242 0.29808509
0.18863739 -0.08366663 0.29765958
0.18877126 -0.083457321 0.29691491
0.1890378 -0.08330781 0.29638299
0.18950637 -0.083247997 0.2961702
0.13220401 -0.083089001 0.29776597
0.13309623 -0.083267108 0.29840425
0.1343724 -0.083682701 0.29989362
0.1360856 -0.084365465 0.30234042
0.13891512 -0.085730985 0.30723405
0.14094318 -0.086591862 0.31031916
0.14244996 -0.087126195 0.31223404
0.14386705 -0.087601155 0.31393617
0.1455849 -0.088254236 0.31627661
0.14637776 -0.088343285 0.31659573
0.14702371 -0.088343285 0.31659573
0.14732233 -0.088135488 0.31585106
0.14756806 -0.087898009 0.315
0.14776026 -0.087630838 0.31404254
0.14809939 -0.087452732 0.31340426
0.14843589 -0.087274618 0.31276596
0.14882052 -0.087126195 0.31223404
0.14920296 -0.086977765 0.31170213
0.14922525 -0.086621538 0.31042552
0.14934504 -0.086324692 0.3093617
0.14982152 -0.086235635 0.30904254
0.15034848 -0.086176261 0.30882978
0.15092658 -0.086146578 0.30872339
0.15155648 -0.086146578 0.30872339
0.15176684 -0.085909098 0.30787235
0.15197372 -0.085671619 0.30702129
0.15265301 -0.085701302 0.30712765
0.1535982 -0.085879415 0.30776596
0.15470593 -0.086146578 0.30872339
0.15581757 -0.086413749 0.30968085
0.15693313 -0.086680919 0.31063831
0.15805256 -0.086948082 0.31159574
0.15890504 -0.087066822 0.31202129
0.15932406 -0.086948082 0.31159574
0.15930448 -0.086591862 0.31031916
0.15911518 -0.086146578 0.30872339
0.1591946 -0.085849725 0.30765957
0.15965654 -0.085760668 0.30734041
0.16045006 -0.085849725 0.30765957
0.16152336 -0.086087205 0.30851063
0.16276787 -0.086413749 0.30968085
0.16396104 -0.086710595 0.31074467
0.16493315 -0.086888708 0.31138298
0.16551189 -0.086859025 0.31127658
0.16586308 -0.086710595 0.31074467
0.16598411 -0.086443432 0.30978724
0.16581513 -0.086027838 0.30829787
0.16552521 -0.085552871 0.30659574
0.16534364 -0.085137278 0.30510637
0.16602403 -0.085166968 0.30521277
0.1672276 -0.085463814 0.30627659
0.16820233 -0.085641928 0.3069149
0.16894555 -0.085701302 0.30712765
0.16957219 -0.085701302 0.30712765
0.16996302 -0.085582562 0.30670214
0.17005625 -0.085315391 0.30574468
0.17002679 -0.084988855 0.30457446
0.170231 -0.084781058 0.30382979
0.17079107 -0.084751368 0.30372339
0.17171095 -0.084899798 0.30425531
0.17245226 -0.084959172 0.3044681
0.17289205 -0.084870115 0.30414894
0.17314847 -0.084692001 0.30351064
0.17346318 -0.084543578 0.30297872
0.17426473 -0.084632635 0.30329788
0.17531294 -0.084840424 0.30404255
0.17624107 -0.084988855 0.30457446
0.17692427 -0.085018538 0.30468085
0.17742194 -0.084959172 0.3044681
0.17785652 -0.084870115 0.30414894
0.17835224 -0.084810749 0.30393618
0.17884706 -0.084751368 0.30372339
0.1794039 -0.084721692 0.30361703
0.18014953 -0.084781058 0.30382979
0.1810226 -0.084899798 0.30425531
0.18196096 -0.085048229 0.30478725
0.18258281 -0.085048229 0.30478725
0.18288493 -0.084899798 0.30425531
0.18292825 -0.084632635 0.30329788
0.18296765 -0.084365465 0.30234042
0.18300316 -0.084098302 0.30138299
0.18443567 -0.083356164 0.2987234
0.18478157 -0.083237424 0.29829788
0.18492736 -0.083029628 0.29755318
0.18526913 -0.082910888 0.29712766
0.18600847 -0.082970254 0.29734042
0.18714927 -0.083207741 0.29819149
0.18822657 -0.083415531 0.29893616
0.18890369 -0.083445221 0.29904255
0.18917674 -0.083296798 0.29851064
0.18917707 -0.083029628 0.29755318
0.18930921 -0.082821831 0.29680851
0.18971057 -0.082732774 0.29648936
0.13277079 -0.082835078 0.29904255
0.13376053 -0.08307083 0.29989362
0.1350874 -0.08351285 0.30148935
0.1367081 -0.08413168 0.30372339
0.13886701 -0.085074663 0.30712765
0.14099149 -0.085988171 0.31042552
0.14288679 -0.086754352 0.3131915
0.14430581 -0.087225839 0.3148936
0.1455849 -0.087608933 0.31627661
0.14642695 -0.087726802 0.31670213
0.14707312 -0.087726802 0.31670213
0.14742155 -0.087549992 0.31606382
0.14766774 -0.087314241 0.31521276
0.14776026 -0.086990096 0.31404254
0.14794858 -0.086724885 0.31308511
0.14823395 -0.086518608 0.31234044
0.14861768 -0.086371258 0.3118085
0.14997624 -0.085693493 0.3093617
0.15065923 -0.085722968 0.30946809
0.15134265 -0.085752428 0.30957446
0.15192205 -0.085722968 0.30946809
0.15192415 -0.085369341 0.30819148
0.15207905 -0.085104138 0.30723405
0.15254727 -0.085015729 0.3069149
0.15370439 -0.085310407 0.30797872
0.15497249 -0.085664034 0.30925533
0.15629932 -0.08604712 0.31063831
0.15747057 -0.086341798 0.31170213
0.15859218 -0.086607009 0.31265956
0.15944682 -0.086724885 0.31308511
0.15981364 -0.086577542 0.3125532
0.15979598 -0.086223923 0.31127658
0.15966348 -0.085811369 0.30978724
0.15985517 -0.085575625 0.30893618
0.16059603 -0.085634559 0.30914894
0.16155967 -0.085811369 0.30978724
0.16274871 -0.086106054 0.31085107
0.16388616 -0.086371258 0.3118085
0.16491528 -0.086577542 0.3125532
0.16560933 -0.086607009 0.31265956
0.16607757 -0.086518608 0.31234044
0.16631734 -0.086312324 0.31159574
0.1664971 -0.08607658 0.31074467
0.16644453 -0.085722968 0.30946809
0.16751802 -0.084986255 0.3068085
0.16843553 -0.085133597 0.30734041
0.1690626 -0.085133597 0.30734041
0.16963093 -0.085104138 0.30723405
0.16990407 -0.08492732 0.30659574
0.17005625 -0.084691577 0.30574468
0.17008619 -0.084396899 0.30468085
0.17040981 -0.084249556 0.30414894
0.17109019 -0.084279023 0.30425531
0.17189108 -0.084367424 0.30457446
0.17263304 -0.084426366 0.30478725
0.17301299 -0.08430849 0.3043617
0.17326984 -0.08413168 0.30372339
0.17370681 -0.084043272 0.30340424
0.17457035 -0.084161147 0.30382979
0.17555831 -0.084337965 0.3044681
0.17642574 -0.084455833 0.30489361
0.1771096 -0.0844853 0.30500001
0.17760792 -0.084426366 0.30478725
0.17816757 -0.084396899 0.30468085
0.17872678 -0.084367424 0.30457446
0.17922293 -0.08430849 0.3043617
0.17984392 -0.08430849 0.3043617
0.18065414 -0.084396899 0.30468085
0.18159226 -0.084544234 0.30521277
0.18253255 -0.084691577 0.30574468
0.18315636 -0.084691577 0.30574468
0.18339649 -0.084514767 0.30510637
0.18318489 -0.08413168 0.30372339
0.18530875 -0.082864553 0.29914895
0.18552241 -0.082687743 0.29851064
0.18599881 -0.082628809 0.29829788
0.18680708 -0.08271721 0.29861704
0.18788372 -0.082923487 0.29936171
0.18876244 -0.083041355 0.29978722
0.1892397 -0.082982421 0.29957446
0.1894464 -0.082805611 0.29893616
0.18958288 -0.082599334 0.29819149
0.18991989 -0.082481466 0.29776597
0.19045936 -0.082451999 0.29765958
0.13366821 -0.082780711 0.30106384
0.13466208 -0.083014727 0.3019149
0.13594539 -0.083424233 0.30340424
0.13718694 -0.083804511 0.30478725
0.13901131 -0.084535778 0.30744681
0.141523 -0.085676573 0.31159574
0.1434692 -0.086466357 0.31446809
0.14469582 -0.086817369 0.31574467
0.14578077 -0.087080628 0.31670213
0.14667287 -0.087226883 0.31723404
0.14741893 -0.087285385 0.3174468
0.14781852 -0.08713913 0.31691489
0.1480166 -0.086875878 0.31595746
0.14801055 -0.086495608 0.31457448
0.14799885 -0.086115345 0.3131915
0.14823395 -0.085881338 0.31234044
0.15033726 -0.085267067 0.3101064
0.15107356 -0.085325561 0.31031916
0.15181072 -0.085384063 0.31053191
0.15228762 -0.08529631 0.31021276
0.15229125 -0.084945299 0.30893618
0.15218435 -0.084535778 0.30744681
0.15249439 -0.084360272 0.3068085
0.15418224 -0.084945299 0.30893618
0.1555589 -0.085354812 0.31042552
0.15688811 -0.085735075 0.3118085
0.15806176 -0.086027592 0.31287235
0.15907784 -0.086232349 0.31361702
0.15993442 -0.086349346 0.31404254
0.16035758 -0.086232349 0.31361702
0.16056056 -0.085998341 0.31276596
0.16076006 -0.085764326 0.31191489
0.16128638 -0.085705832 0.31170213
0.16219866 -0.085852087 0.31223404
0.16311312 -0.085998341 0.31276596
0.16414115 -0.086203091 0.31351063
0.16506037 -0.086349346 0.31404254
0.16586952 -0.086437099 0.31436169
0.16639823 -0.086378604 0.31414893
0.16664323 -0.086173847 0.31340426
0.16682841 -0.085939839 0.3125532
0.16712411 -0.085764326 0.31191489
0.16843553 -0.084506527 0.30734041
0.1690626 -0.084506527 0.30734041
0.16963093 -0.084477283 0.30723405
0.16996302 -0.084331028 0.30670214
0.17017458 -0.084126264 0.30595744
0.17038313 -0.083921507 0.30521277
0.17082705 -0.083833754 0.30489361
0.17144912 -0.083833754 0.30489361
0.17213124 -0.083863005 0.30500001
0.17269328 -0.083833754 0.30489361
0.17307347 -0.08371675 0.3044681
0.17345192 -0.083599746 0.30404255
0.17401136 -0.083570495 0.30393618
0.1749371 -0.08371675 0.3044681
0.17592634 -0.083892256 0.30510637
0.1767951 -0.08400926 0.30553192
0.17748025 -0.084038511 0.30563828
0.17816584 -0.084067762 0.30574468
0.17885187 -0.08409702 0.30585107
0.1794759 -0.08409702 0.30585107
0.18003729 -0.084067762 0.30574468
0.18059823 -0.084038511 0.30563828
0.18141107 -0.084126264 0.30595744
0.1822885 -0.084243268 0.30638298
0.18304063 -0.08430177 0.30659574
0.18360245 -0.084272519 0.30648935
0.18578687 -0.082195684 0.29893616
0.18633047 -0.082166441 0.29882979
0.18740602 -0.082371198 0.29957446
0.18841787 -0.082546704 0.30021277
0.18909736 -0.082575954 0.30031914
0.18944131 -0.082458951 0.29989362
0.18958126 -0.082254194 0.29914895
0.18985344 -0.082107939 0.29861704
0.19053055 -0.08213719 0.2987234
0.19148038 -0.082283445 0.29925531
0.13461286 -0.082747132 0.30319148
0.13561106 -0.082979403 0.30404255
0.13680342 -0.083327815 0.30531916
0.13780943 -0.083560087 0.30617023
0.13920373 -0.08402463 0.30787235
0.14405161 -0.086173147 0.31574467
0.1451346 -0.086434461 0.31670213
0.14617252 -0.086666733 0.31755319
0.14716473 -0.08686997 0.31829786
0.14796236 -0.086957067 0.31861702
0.14841397 -0.086840935 0.3181915
0.14861465 -0.086579628 0.31723404
0.14846103 -0.086115085 0.31553191
0.14830047 -0.085650533 0.31382978
0.14848639 -0.085389234 0.31287235
0.15100773 -0.085011795 0.31148937
0.15164326 -0.085011795 0.31148937
0.15222678 -0.084982753 0.31138298
0.15270542 -0.084895648 0.31106383
0.15625192 -0.085098885 0.3118085
0.15758398 -0.085476339 0.3131915
0.15865293 -0.085708603 0.31404254
0.15967141 -0.085911848 0.31478724
0.16047621 -0.085998952 0.31510639
0.16111913 -0.085998952 0.31510639
0.16159821 -0.085911848 0.31478724
0.16224046 -0.085911848 0.31478724
0.16299282 -0.08596991 0.315
0.1639671 -0.08614412 0.3156383
0.16483302 -0.086260252 0.31606382
0.16564499 -0.086347356 0.31638297
0.16629051 -0.086347356 0.31638297
0.16682376 -0.086289287 0.31617022
0.16707441 -0.086086057 0.31542554
0.16726546 -0.085853778 0.31457448
0.16750979 -0.085650533 0.31382978
0.16792211 -0.085534401 0.31340426
0.16843553 -0.083879456 0.30734041
0.1690626 -0.083879456 0.30734041
0.16968967 -0.083879456 0.30734041
0.17013989 -0.083792359 0.30702129
0.17052962 -0.083676219 0.30659574
0.17091763 -0.083560087 0.30617023
0.17130388 -0.083443947 0.30574468
