# .PCD v0.7 - Point Cloud Data file format
VERSION 0.7
FIELDS x y z
SIZE 4 4 4
TYPE F F F
COUNT 1 1 1
WIDTH 1340
HEIGHT 1
VIEWPOINT 0 0 0 1 0 0 0
POINTS 1340
DATA ascii
-0.080850482 -0.098260902 0.2905319
-0.080110766 -0.098081 0.28999999
-0.079431564 -0.097973064 0.28968084
-0.078753673 -0.097865127 0.28936172
-0.07807707 -0.09775719 0.28904256
-0.077316217 -0.09754131 0.28840426
-0.076529667 -0.09728945 0.28765959
-0.075746149 -0.097037584 0.28691489
-0.074993551 -0.096821718 0.28627661
-0.074271195 -0.096641809 0.28574467
-0.073605888 -0.09653388 0.28542554
-0.07291466 -0.096389949 0.285
-0.072225168 -0.096246034 0.28457448
-0.07148385 -0.096030153 0.28393617
-0.070692003 -0.095742315 0.28308511
-0.069877282 -0.09541849 0.28212765
-0.069066465 -0.095094681 0.28117022
-0.06825956 -0.094770856 0.28021276
-0.067482255 -0.094483018 0.2793617
-0.066708423 -0.09419518 0.27851063
-0.065912805 -0.09387137 0.2775532
-0.065045945 -0.093439601 0.27627659
-0.064084984 -0.092863925 0.27457446
-0.063032515 -0.092144333 0.27244681
-0.06191555 -0.091316804 0.27000001
-0.06073603 -0.090381324 0.26723406
-0.052626297 -0.084372692 0.24946809
-0.051606134 -0.083545156 0.24702127
-0.050639968 -0.082789578 0.24478723
-0.049704708 -0.082069978 0.24265957
-0.048886005 -0.081530288 0.24106383
-0.048137881 -0.081098527 0.23978724
-0.047458384 -0.08077471 0.23882979
-0.046782792 -0.080450892 0.23787235
-0.046131816 -0.080163054 0.23702128
-0.045484308 -0.079875216 0.23617022
-0.044860549 -0.079623356 0.23542553
-0.044219773 -0.079335518 0.23457447
-0.043602306 -0.079083651 0.23382978
-0.043027118 -0.078903757 0.23329787
-0.042473506 -0.078759834 0.23287234
-0.041921627 -0.078615919 0.2324468
-0.041371487 -0.078471996 0.23202127
-0.040804334 -0.078292102 0.23148936
-0.040239349 -0.0781122 0.23095745
-0.039694849 -0.077968284 0.23053192
-0.039170191 -0.07786034 0.23021276
-0.038664717 -0.077788383 0.23
-0.038160112 -0.077716425 0.22978723
-0.037691273 -0.077716425 0.22978723
-0.037256904 -0.077788383 0.23
-0.036804646 -0.077824362 0.23010638
-0.03628476 -0.077716425 0.22978723
-0.035600364 -0.077248685 0.22840425
-0.035281628 -0.077572502 0.2293617
-0.027318267 -0.074981958 0.22170213
-0.026891708 -0.075053915 0.22191489
-0.026426258 -0.075017937 0.22180851
-0.025936328 -0.074909993 0.22148935
-0.025435459 -0.074766077 0.22106382
-0.024948349 -0.074658141 0.22074468
-0.024486156 -0.074622162 0.2206383
-0.024035985 -0.074622162 0.2206383
-0.023608558 -0.074694119 0.22085106
-0.023191418 -0.074802056 0.22117022
-0.022772975 -0.074909993 0.22148935
-0.02235323 -0.075017937 0.22180851
-0.021953192 -0.075197831 0.22234042
-0.021612704 -0.075593613 0.22351064
-0.021327859 -0.076205269 0.22531915
-0.021084897 -0.076996826 0.22765957
-0.01916402 -0.076744966 0.2269149
-0.018534459 -0.076061353 0.22489361
-0.017973 -0.075629592 0.22361702
-0.017466752 -0.075413719 0.22297873
-0.016995573 -0.075341754 0.22276595
-0.016533162 -0.075305775 0.22265957
-0.016071185 -0.075269796 0.22255319
-0.015617107 -0.075269796 0.22255319
-0.015163029 -0.075269796 0.22255319
-0.014715982 -0.075305775 0.22265957
-0.014275315 -0.07537774 0.22287235
-0.013846973 -0.075521655 0.22329788
-0.013423275 -0.075701557 0.22382979
-0.012991244 -0.075845473 0.22425532
-0.012539638 -0.075881451 0.2243617
-0.012087599 -0.07591743 0.22446808
-0.011629614 -0.07591743 0.22446808
-0.011171629 -0.07591743 0.22446808
-0.010718721 -0.075953409 0.22457446
-0.010275101 -0.076061353 0.22489361
-0.0098301778 -0.07616929 0.22521277
-0.0093928054 -0.076349191 0.22574468
-0.0089448439 -0.076457128 0.22606383
-0.0084915878 -0.076529086 0.22627659
-0.0080299126 -0.076529086 0.22627659
-0.0075646797 -0.076493107 0.22617021
-0.0071065626 -0.076529086 0.22627659
-0.0066511361 -0.076601051 0.22648937
-0.0061977478 -0.076708987 0.2268085
-0.0057484377 -0.076888889 0.22734043
-0.0052944836 -0.077032812 0.22776596
-0.0048387931 -0.077176727 0.22819149
-0.0043772887 -0.077248685 0.22840425
-0.0039167381 -0.077356629 0.22872341
-0.0034580941 -0.077536523 0.22925532
-0.0029972799 -0.077716425 0.22978723
-0.002534295 -0.077896319 0.23031914
-0.0020672325 -0.078004263 0.2306383
-0.0015973947 -0.078040242 0.23074467
-0.0011266035 -0.078040242 0.23074467
-0.00065581221 -0.078040242 0.23074467
-0.00018510627 -0.078076221 0.23085107
0.00028616554 -0.078148179 0.23106383
0.0007583056 -0.078220144 0.2312766
0.001230748 -0.078256123 0.23138298
0.0017044074 -0.07832808 0.23159574
0.0021789351 -0.078400038 0.23180851
0.002656765 -0.078543961 0.23223405
0.0031348972 -0.078651898 0.2325532
0.0036143316 -0.078759834 0.23287234
0.0040932004 -0.078831799 0.23308511
0.004570852 -0.078867778 0.23319149
0.0050512403 -0.078939736 0.23340425
0.0055350158 -0.079047672 0.2337234
0.0060255667 -0.079227574 0.23425531
0.0065182885 -0.079407476 0.23478724
0.0070100096 -0.079551399 0.23521277
0.0074933046 -0.079587378 0.23531915
0.0079734297 -0.079587378 0.23531915
0.0084497323 -0.079551399 0.23521277
0.0089296401 -0.079551399 0.23521277
0.0094180591 -0.079623356 0.23542553
0.0099073462 -0.079695314 0.23563829
0.010402191 -0.079803251 0.23595744
0.01089834 -0.079911195 0.2362766
0.01139579 -0.080019131 0.23659575
0.011894542 -0.080127068 0.23691489
0.012400155 -0.080270991 0.23734042
0.012913279 -0.080450892 0.23787235
0.013434567 -0.080666766 0.23851064
0.013958458 -0.080882646 0.23914893
0.014478529 -0.081062548 0.23968086
0.01498084 -0.081134506 0.23989362
0.015477157 -0.081170484 0.23999999
0.015973911 -0.081206471 0.24010639
0.016478391 -0.081278428 0.24031915
0.016998764 -0.081422344 0.24074468
0.017505417 -0.081494309 0.24095745
0.018012935 -0.081566267 0.24117021
0.018521324 -0.081638224 0.24138297
0.01903058 -0.081710182 0.24159575
0.019540705 -0.08178214 0.2418085
0.020060511 -0.081890084 0.24212766
0.02058162 -0.08199802 0.24244681
0.02111328 -0.082141943 0.24287234
0.021656141 -0.082321838 0.24340425
0.022210855 -0.082537726 0.24404256
0.022748373 -0.082681634 0.24446808
0.023257282 -0.08271762 0.24457447
0.023745956 -0.082681634 0.24446808
0.024244748 -0.082681634 0.24446808
0.024775842 -0.082789578 0.24478723
0.025330206 -0.082969479 0.24531914
0.025886742 -0.083149381 0.24585107
0.026411192 -0.083221339 0.24606383
0.026924875 -0.083257318 0.24617021
0.027450845 -0.083329275 0.24638298
0.027989753 -0.083437219 0.24670213
0.028542249 -0.083581135 0.24712765
0.02909648 -0.08372505 0.24755318
0.02965245 -0.083868973 0.24797872
0.030223096 -0.084048875 0.24851064
0.030782755 -0.084192798 0.24893618
0.031330779 -0.084300727 0.24925531
0.031866517 -0.084372692 0.24946809
0.032403119 -0.08444465 0.24968085
0.032940596 -0.084516615 0.24989362
0.033507418 -0.08466053 0.25031915
0.034104891 -0.084876411 0.25095746
0.034719642 -0.08512827 0.25170213
0.03527787 -0.085236207 0.25202128
0.035807177 -0.085272186 0.25212765
0.036306273 -0.085236207 0.25202128
0.036804929 -0.085200228 0.25191489
0.037334677 -0.085236207 0.25202128
0.03788083 -0.085308164 0.25223404
0.038427856 -0.085380122 0.2524468
0.038992159 -0.085488066 0.25276595
0.039574392 -0.085631989 0.2531915
0.040175207 -0.085811883 0.25372341
0.040761128 -0.085955799 0.25414893
0.041314229 -0.086027756 0.25436169
0.041833207 -0.086027756 0.25436169
0.042387612 -0.086099729 0.25457448
0.042960815 -0.086207666 0.25489363
0.043571614 -0.086387567 0.25542554
0.044166218 -0.086531483 0.25585106
0.044743977 -0.086639419 0.25617021
0.04532304 -0.086747363 0.25648937
0.045903407 -0.0868553 0.25680852
0.04646584 -0.086927257 0.25702128
0.047009695 -0.086963244 0.25712767
0.04759331 -0.087071173 0.2574468
0.048218008 -0.087251082 0.25797874
0.04888507 -0.087502934 0.25872341
0.049575489 -0.087790772 0.25957447
0.050228313 -0.08800666 0.26021278
0.050862987 -0.088186555 0.26074469
0.051478859 -0.08833047 0.26117021
0.0520541 -0.088402428 0.26138297
0.052608807 -0.088438414 0.26148936
0.053120706 -0.088402428 0.26138297
0.053610336 -0.08833047 0.26117021
0.054121155 -0.088294499 0.26106384
0.054676075 -0.08833047 0.26117021
0.055253915 -0.088402428 0.26138297
0.055855338 -0.088510372 0.26170212
0.056503903 -0.088690266 0.26223403
0.057177782 -0.088906147 0.26287234
0.057877615 -0.089158006 0.26361701
0.058580499 -0.089409865 0.26436171
0.059262618 -0.089625739 0.26499999
0.059899334 -0.089769669 0.26542553
0.060489334 -0.089841619 0.26563829
0.061031319 -0.089841619 0.26563829
0.061573304 -0.089841619 0.26563829
0.062140167 -0.089877605 0.26574469
0.062757649 -0.089985549 0.26606384
0.063401744 -0.090129465 0.26648936
0.064022042 -0.090237401 0.26680851
0.064617902 -0.090309359 0.26702127
0.065266557 -0.090453282 0.26744682
0.065943122 -0.090633184 0.26797873
0.066621862 -0.090813078 0.26851064
0.067329384 -0.091028959 0.26914895
0.068012677 -0.09120886 0.26968086
0.068698145 -0.091388755 0.27021277
0.069303989 -0.091460712 0.27042553
0.069855742 -0.091460712 0.27042553
0.070435196 -0.091496699 0.27053192
0.07107091 -0.091604643 0.27085108
0.071792312 -0.091820508 0.27148935
0.07248798 -0.09200041 0.27202126
0.073100127 -0.092072375 0.27223405
0.073655568 -0.092072375 0.27223405
0.074240007 -0.092108354 0.27234042
0.074912541 -0.092252277 0.27276596
0.075645663 -0.09246815 0.27340424
0.076411061 -0.092720009 0.27414894
0.077119745 -0.092899911 0.27468085
0.077740349 -0.092971869 0.27489361
0.078331523 -0.093007848 0.27500001
0.078953646 -0.093079805 0.27521276
0.079607382 -0.093187749 0.27553192
0.080293357 -0.093331665 0.27595744
0.081043422 -0.093547545 0.27659574
0.081827477 -0.093799397 0.27734041
0.082677782 -0.094123222 0.27829787
0.083468348 -0.094375081 0.27904254
0.084197871 -0.094554976 0.27957445
0.084897324 -0.094698898 0.28
0.085630976 -0.0948788 0.28053191
0.086366795 -0.095058694 0.28106382
0.087071888 -0.095202625 0.28148937
0.087679327 -0.095238596 0.28159574
0.088220537 -0.095202625 0.28148937
0.0887613 -0.095166638 0.28138298
0.089335412 -0.095166638 0.28138298
0.089909524 -0.095166638 0.28138298
0.09041521 -0.095094681 0.28117022
0.09085118 -0.094950758 0.28074467
0.091320053 -0.094842814 0.28042552
0.09182249 -0.094770856 0.28021276
0.09239421 -0.094770856 0.28021276
0.092895344 -0.094698898 0.28
0.093431115 -0.09466292 0.27989361
0.094002187 -0.09466292 0.27989361
0.094609208 -0.094698898 0.28
0.095144331 -0.09466292 0.27989361
0.095642641 -0.094590962 0.27968085
0.096103489 -0.094483018 0.2793617
0.09652622 -0.094339103 0.27893618
0.097021282 -0.094267145 0.27872342
0.097478218 -0.094159208 0.27840427
0.097971313 -0.094087243 0.27819148
0.09838818 -0.093943328 0.27776596
0.098803312 -0.093799397 0.27734041
0.099331059 -0.093763426 0.27723405
0.099935032 -0.093799397 0.27734041
0.10061654 -0.093907341 0.27765957
0.10129936 -0.094015285 0.27797872
0.10186653 -0.094015285 0.27797872
0.10231608 -0.093907341 0.27765957
0.10272492 -0.093763426 0.27723405
0.10309239 -0.093583532 0.27670214
0.10349753 -0.093439601 0.27627659
0.10398109 -0.093367644 0.27606383
0.10446377 -0.093295693 0.27585107
0.10498609 -0.093259707 0.27574468
0.10558942 -0.093295693 0.27585107
0.10619317 -0.093331665 0.27595744
0.10675621 -0.093331665 0.27595744
0.10731925 -0.093331665 0.27595744
0.10779911 -0.093259707 0.27574468
0.1082363 -0.093151763 0.27542552
0.10863017 -0.093007848 0.27500001
0.10906453 -0.092899911 0.27468085
0.10958251 -0.092863925 0.27457446
0.11022808 -0.092935897 0.27478725
0.11087451 -0.093007848 0.27500001
0.11156493 -0.093115792 0.27531916
0.11216998 -0.093151763 0.27542552
0.11273193 -0.093151763 0.27542552
0.11333765 -0.093187749 0.27553192
0.11385584 -0.093151763 0.27542552
0.11432941 -0.093079805 0.27521276
0.11475769 -0.092971869 0.27489361
0.11514006 -0.092827953 0.27446809
0.11556552 -0.092720009 0.27414894
0.11603475 -0.092648052 0.27393618
0.1165031 -0.092576087 0.27372339
0.11692509 -0.09246815 0.27340424
0.11743721 -0.092432171 0.27329788
0.1179489 -0.092396192 0.27319148
0.11855244 -0.092432171 0.27329788
0.11911006 -0.092432171 0.27329788
0.11957451 -0.092360213 0.27308512
0.11989769 -0.092180319 0.27255321
0.11993662 -0.091784537 0.27138299
0.11978182 -0.091244832 0.26978722
0.11947818 -0.090597197 0.26787233
0.11916673 -0.089949563 0.26595744
0.11899111 -0.089409865 0.26436171
0.11885708 -0.088906147 0.26287234
0.11881361 -0.088474393 0.26159576
0.11891053 -0.088150576 0.2606383
0.11924731 -0.08800666 0.26021278
0.11987616 -0.088078618 0.26042554
0.12094856 -0.088474393 0.26159576
0.12227275 -0.089050069 0.26329789
0.12375273 -0.089733683 0.26531914
0.12509146 -0.090309359 0.26702127
0.12618686 -0.090705141 0.26819149
0.12693515 -0.090849064 0.26861703
0.12728126 -0.090705141 0.26819149
0.12711857 -0.090201415 0.26670212
0.12664428 -0.089481823 0.26457447
0.12616131 -0.088762231 0.26244682
0.12602915 -0.088294499 0.26106384
0.12640707 -0.088186555 0.26074469
0.12714623 -0.08833047 0.26117021
0.12799115 -0.088546351 0.26180851
0.12873422 -0.088690266 0.26223403
0.12916438 -0.088618308 0.26202127
0.12922506 -0.088294499 0.26106384
0.12891169 -0.087718822 0.25936171
0.128379 -0.086999215 0.25723404
0.12799758 -0.086387567 0.25542554
0.12798344 -0.086027756 0.25436169
0.12844868 -0.085991785 0.25425532
0.12950705 -0.086351581 0.25531915
0.13105738 -0.087035201 0.25734043
0.13299671 -0.087970674 0.26010638
0.13489272 -0.088870168 0.26276594
0.13652544 -0.089589767 0.26489362
0.13789159 -0.090129465 0.26648936
0.13893269 -0.090453282 0.26744682
0.13975577 -0.090633184 0.26797873
0.14046963 -0.09074112 0.26829788
0.14107294 -0.090777099 0.26840425
0.14162058 -0.090777099 0.26840425
0.14216819 -0.090777099 0.26840425
0.14265928 -0.09074112 0.26829788
0.14303634 -0.090633184 0.26797873
0.1434121 -0.09052524 0.26765957
0.14378655 -0.090417303 0.26734042
0.14421715 -0.090345345 0.26712766
0.14470451 -0.090309359 0.26702127
0.14524932 -0.090309359 0.26702127
0.14579412 -0.090309359 0.26702127
0.14628063 -0.090273388 0.2669149
0.14664966 -0.090165444 0.26659575
0.14707613 -0.090093486 0.26638299
0.14750172 -0.090021521 0.2661702
0.14798564 -0.089985549 0.26606384
0.14846909 -0.089949563 0.26595744
0.14889252 -0.089877605 0.26574469
0.14931509 -0.089805648 0.26553193
0.14985685 -0.089805648 0.26553193
0.15057938 -0.089913577 0.26585105
0.15130322 -0.090021521 0.2661702
0.15190698 -0.090057507 0.2662766
0.15238935 -0.090021521 0.2661702
0.15274905 -0.089913577 0.26585105
0.1531688 -0.089841619 0.26563829
0.15364923 -0.089805648 0.26553193
0.15412921 -0.089769669 0.26542553
0.15454678 -0.089697711 0.26521277
0.15496346 -0.089625739 0.26499999
0.15537931 -0.089553781 0.26478723
0.15585692 -0.089517809 0.26468086
0.15633409 -0.089481823 0.26457447
0.15674774 -0.089409865 0.26436171
0.15709724 -0.089301929 0.26404256
0.15744543 -0.089193985 0.2637234
0.15785606 -0.089122027 0.26351064
0.15832976 -0.089086048 0.26340425
0.15873885 -0.089014091 0.26319149
0.15921146 -0.088978104 0.2630851
0.15968366 -0.088942133 0.26297873
0.16028501 -0.088978104 0.2630851
0.16088682 -0.089014091 0.26319149
0.16142382 -0.089014091 0.26319149
0.16196081 -0.089014091 0.26319149
0.16243212 -0.088978104 0.2630851
0.1628371 -0.088906147 0.26287234
0.16324121 -0.088834189 0.26265958
0.16357812 -0.088726252 0.26234043
0.16398028 -0.088654295 0.26212767
0.16438155 -0.088582322 0.26191488
0.16491593 -0.088582322 0.26191488
0.16551754 -0.088618308 0.26202127
0.16611956 -0.088654295 0.26212767
0.16665439 -0.088654295 0.26212767
0.16712135 -0.088618308 0.26202127
0.16745174 -0.088510372 0.26170212
0.16784912 -0.088438414 0.26148936
-0.11937904 -0.10725255 0.31904256
-0.1186489 -0.10718102 0.31882977
-0.11791965 -0.10710949 0.31861702
-0.11719126 -0.10703798 0.31840426
-0.11638586 -0.10689492 0.31797871
-0.11550476 -0.10668035 0.31734043
-0.11454926 -0.10639425 0.31648937
-0.11348236 -0.10600086 0.31531915
-0.11238217 -0.10557169 0.31404254
-0.11132506 -0.10517831 0.31287235
-0.11042324 -0.10492796 0.31212765
-0.10959931 -0.10474915 0.31159574
-0.10874036 -0.10453458 0.31095746
-0.10777304 -0.10421272 0.31
-0.10677287 -0.10385509 0.30893618
-0.10585014 -0.10356899 0.30808511
-0.10500355 -0.10335441 0.30744681
-0.10415956 -0.10313983 0.3068085
-0.10321049 -0.10281797 0.30585107
-0.10222963 -0.10246035 0.30478725
-0.10135951 -0.10221 0.30404255
-0.10059818 -0.10206695 0.30361703
-0.099908635 -0.10199542 0.30340424
-0.099185161 -0.10188814 0.30308512
-0.098393783 -0.10170931 0.30255318
-0.097535819 -0.10145898 0.30180851
-0.096646734 -0.10117288 0.30095744
-0.095727183 -0.10085102 0.30000001
-0.094878979 -0.10060067 0.29925531
-0.094100848 -0.10042186 0.2987234
-0.093358181 -0.10027881 0.29829788
-0.092683405 -0.10020728 0.29808509
-0.092042357 -0.10017152 0.29797873
-0.091336459 -0.10006423 0.29765958
-0.090534583 -0.099849656 0.29702127
-0.089638688 -0.099527799 0.29606384
-0.088714689 -0.099170163 0.29499999
-0.087890372 -0.098919824 0.29425532
-0.087163776 -0.09877678 0.2938298
-0.086438902 -0.098633721 0.29340425
-0.085715771 -0.098490678 0.29297873
-0.084994368 -0.098347619 0.29255319
-0.084366783 -0.098311864 0.29244682
-0.083770104 -0.098311864 0.29244682
-0.083112903 -0.098240331 0.29223403
-0.082336426 -0.098025762 0.29159576
-0.081502907 -0.097739659 0.29074469
-0.080702454 -0.097489312 0.28999999
-0.079993218 -0.097346261 0.28957447
-0.079314888 -0.097238973 0.28925532
-0.078666806 -0.097167455 0.28904256
-0.07799086 -0.097060159 0.28872341
-0.077230655 -0.096845582 0.2880851
-0.076473057 -0.096631005 0.2874468
-0.075718068 -0.096416436 0.28680852
-0.074937806 -0.096166089 0.28606382
-0.074188247 -0.09595152 0.28542554
-0.073468708 -0.095772699 0.2848936
-0.072696917 -0.095522359 0.28414893
-0.071928166 -0.095272027 0.28340426
-0.071055323 -0.094878629 0.28223404
-0.070160687 -0.094449483 0.28095746
-0.069244906 -0.093984559 0.27957445
-0.068360902 -0.093555406 0.27829787
-0.067508027 -0.093162015 0.27712765
-0.066685624 -0.092804387 0.27606383
-0.065867566 -0.092446767 0.27500001
-0.064978048 -0.091981851 0.27361703
-0.06399399 -0.091373876 0.27180851
-0.056253511 -0.085508779 0.25436169
-0.055314951 -0.084865056 0.2524468
-0.054384205 -0.084221326 0.25053191
-0.053484149 -0.083613358 0.2487234
-0.052591477 -0.083005391 0.24691489
-0.051728621 -0.082433186 0.24521276
-0.050850488 -0.081825219 0.24340425
-0.050045758 -0.08132454 0.2419149
-0.049268898 -0.080859624 0.24053192
-0.048583969 -0.080537759 0.23957446
-0.047945671 -0.080287419 0.23882979
-0.047310404 -0.08003708 0.23808511
-0.046678178 -0.07978674 0.23734042
-0.046048991 -0.079536408 0.23659575
-0.04544333 -0.079321824 0.23595744
-0.044840276 -0.079107247 0.23531915
-0.044239827 -0.078892671 0.23468085
-0.043622144 -0.078642339 0.23393618
-0.043046739 -0.078463517 0.23340425
-0.042512313 -0.078356236 0.23308511
-0.041979186 -0.07824894 0.23276596
-0.041428395 -0.078105889 0.23234043
-0.040898092 -0.077998601 0.23202127
-0.040369093 -0.07789132 0.23170213
-0.039878029 -0.07785555 0.23159574
-0.039423604 -0.07789132 0.23170213
-0.039004508 -0.077998601 0.23202127
-0.038654782 -0.07824894 0.23276596
-0.038389262 -0.078678094 0.23404256
-0.039788041 -0.097274743 0.28936172
-0.039067954 -0.09695287 0.28840426
-0.038380161 -0.096702538 0.28765959
-0.037723362 -0.096523724 0.28712767
-0.02698195 -0.074851476 0.22265957
-0.026514981 -0.07481572 0.22255319
-0.026023529 -0.074708425 0.22223404
-0.025508901 -0.074529618 0.22170213
-0.024996443 -0.074350804 0.22117022
-0.024509767 -0.074243516 0.22085106
-0.024059163 -0.074243516 0.22085106
-0.023619929 -0.074279271 0.22095744
-0.023213727 -0.074422322 0.22138298
-0.022794852 -0.074529618 0.22170213
-0.022385394 -0.074672669 0.22212766
-0.02202672 -0.074994534 0.22308511
-0.021756718 -0.075638257 0.22499999
-0.021629952 -0.076818429 0.22851063
-0.018229514 -0.076246224 0.2268085
-0.017625086 -0.075638257 0.22499999
-0.017101085 -0.075352155 0.22414893
-0.016612155 -0.075209111 0.22372341
-0.016148007 -0.075173341 0.22361702
-0.015676828 -0.075101823 0.22340426
-0.015213766 -0.07506606 0.22329788
-0.014758169 -0.07506606 0.22329788
-0.014323012 -0.075173341 0.22361702
-0.013893152 -0.075316392 0.22404255
-0.013474314 -0.075530976 0.22468086
-0.013040546 -0.075674027 0.22510639
-0.012587205 -0.07570979 0.22521277
-0.0121277 -0.07570979 0.22521277
-0.011668196 -0.07570979 0.22521277
-0.011203397 -0.075674027 0.22510639
-0.01074411 -0.075674027 0.22510639
-0.010294543 -0.075745545 0.22531915
-0.0098533956 -0.075888596 0.22574468
-0.0094193639 -0.076103181 0.22638299
-0.0089743091 -0.076246224 0.2268085
-0.0085155414 -0.076281995 0.2269149
-0.0080487886 -0.076246224 0.2268085
-0.0075824703 -0.076210462 0.22670212
-0.007116586 -0.076174699 0.22659574
-0.0066636321 -0.076281995 0.2269149
-0.00621519 -0.076460809 0.22744681
-0.0057672672 -0.076675378 0.2280851
-0.0053142668 -0.076854199 0.22861703
-0.0048545841 -0.07696148 0.22893617
-0.0043915603 -0.077033013 0.22914894
-0.0039294902 -0.077140301 0.22946809
-0.0034677221 -0.077283345 0.22989361
-0.003004218 -0.077426396 0.23031914
-0.0025389772 -0.077569447 0.23074467
-0.0020700931 -0.077640973 0.23095745
-0.0016003406 -0.077712499 0.23117021
-0.0011292006 -0.077748269 0.2312766
-0.0006579287 -0.077819787 0.23148936
-0.00018570338 -0.07785555 0.23159574
0.00028708781 -0.077927075 0.23180851
0.00076074724 -0.077998601 0.23202127
0.0012347091 -0.078034371 0.23212767
0.0017098878 -0.078105889 0.23234043
0.0021869347 -0.078213185 0.23265958
0.0026665011 -0.078356236 0.23308511
0.0031492379 -0.078535043 0.23361702
0.0036308432 -0.078642339 0.23393618
0.0041100141 -0.078678094 0.23404256
0.0045896191 -0.078713857 0.23414893
0.0050696586 -0.078749619 0.23425531
0.0055526514 -0.078821145 0.23446809
0.0060447217 -0.078999959 0.235
0.0065360088 -0.07914301 0.23542553
0.0070290328 -0.079286061 0.23585106
0.0075136297 -0.079321824 0.23595744
0.0079950569 -0.079321824 0.23595744
0.0084726624 -0.079286061 0.23585106
0.0089579104 -0.079321824 0.23595744
0.0094478494 -0.07939335 0.23617022
0.0099431286 -0.079500638 0.23648936
0.010439711 -0.079607926 0.23680851
0.010932689 -0.079679459 0.23702128
0.011431658 -0.07978674 0.23734042
0.01193193 -0.079894029 0.23765957
0.012439062 -0.08003708 0.23808511
0.012953705 -0.080215894 0.23861702
0.013470519 -0.080394708 0.23914893
0.013989505 -0.080573522 0.23968086
0.014504234 -0.080716573 0.24010639
0.015007413 -0.080788098 0.24031915
0.0155046 -0.080823861 0.24042553
0.016002221 -0.080859624 0.24053192
0.016514864 -0.080966912 0.24085106
0.017051345 -0.081181489 0.24148937
0.017582702 -0.081360303 0.24202128
0.018108284 -0.081503354 0.24244681
0.018619277 -0.08157488 0.24265957
0.019131139 -0.081646405 0.24287234
0.019635269 -0.081682168 0.24297872
0.020148652 -0.081753694 0.2431915
0.020653868 -0.081789456 0.24329787
0.021178016 -0.081896745 0.24361703
0.021712933 -0.082039796 0.24404256
0.022259265 -0.08221861 0.24457447
0.022797871 -0.082361661 0.245
0.02331798 -0.082433186 0.24521276
0.023828622 -0.082468949 0.24531914
0.024350252 -0.082540475 0.24553192
0.024883516 -0.082647763 0.24585107
0.025429068 -0.082790814 0.2462766
0.025965152 -0.082898103 0.24659574
0.026491122 -0.082969628 0.24680851
0.027006324 -0.083005391 0.24691489
0.02752196 -0.083041154 0.24702127
0.02806217 -0.083148442 0.24734043
0.02861597 -0.083291493 0.24776596
0.029184008 -0.083470307 0.24829787
0.029741498 -0.083613358 0.2487234
0.030300723 -0.08375641 0.24914894
0.030861685 -0.083899461 0.24957447
0.031411011 -0.084006749 0.24989362
0.031948052 -0.084078282 0.25010639
0.032472152 -0.084114037 0.25021276
0.03301071 -0.084185556 0.25042552
0.033592861 -0.084364384 0.25095746
0.034206092 -0.084614716 0.25170213
0.034822363 -0.084865056 0.2524468
0.035411891 -0.085043862 0.25297871
0.035958264 -0.085115395 0.2531915
0.036459528 -0.085079633 0.25308511
0.036975902 -0.085079633 0.25308511
0.037492272 -0.085079633 0.25308511
0.038040597 -0.085151158 0.25329787
0.03858979 -0.085222676 0.25351062
0.039156266 -0.085329965 0.25382978
0.03974067 -0.085473023 0.25425532
0.040343657 -0.085651837 0.25478724
0.040948812 -0.085830651 0.25531915
0.041521579 -0.08593794 0.2556383
0.042060658 -0.08597371 0.2557447
0.042617884 -0.086045228 0.25595745
0.04319391 -0.086152516 0.25627661
0.043807529 -0.08633133 0.25680852
0.044404954 -0.086474381 0.25723404
0.044985536 -0.08658167 0.25755319
0.045548622 -0.086653188 0.25776595
0.046112578 -0.086724721 0.25797874
0.046677399 -0.086796246 0.2581915
0.047223639 -0.086832002 0.25829786
0.047789983 -0.086903535 0.25851065
0.048396956 -0.087046586 0.25893617
0.049065974 -0.087296918 0.25968084
0.049758345 -0.08758302 0.2605319
0.050413121 -0.087797605 0.26117021
0.05104975 -0.087976411 0.26170212
0.051646613 -0.088083707 0.26202127
0.052223589 -0.088155225 0.26223403
0.052801438 -0.088226758 0.26244682
0.053336911 -0.088226758 0.26244682
0.053894218 -0.088262513 0.26255319
0.054429907 -0.088262513 0.26255319
0.0549656 -0.088262513 0.26255319
0.055523779 -0.088298284 0.26265958
0.0561051 -0.088369809 0.26287234
0.056733131 -0.08851286 0.26329789
0.057386041 -0.088691674 0.2638298
0.058064468 -0.088906243 0.26446807
0.058721934 -0.089085057 0.26499999
0.059429158 -0.089335404 0.26574469
0.060091399 -0.089514218 0.2662766
0.060683131 -0.089585736 0.26648936
0.061202418 -0.089549981 0.26638299
0.061745919 -0.089549981 0.26638299
0.062314298 -0.089585736 0.26648936
0.062958397 -0.089728795 0.2669149
0.06362953 -0.089907609 0.26744682
0.064302847 -0.090086423 0.26797873
0.064952575 -0.090229467 0.26840425
0.065604053 -0.090372525 0.26882979
0.066231087 -0.090479814 0.26914895
0.066859424 -0.090587102 0.2694681
0.067542285 -0.090765916 0.27000001
0.068227313 -0.09094473 0.27053192
0.068914518 -0.091123544 0.27106383
0.069522098 -0.091195062 0.27127659
0.070075586 -0.091195062 0.27127659
0.070656776 -0.091230832 0.27138299
0.071322136 -0.091373876 0.27180851
0.072045505 -0.09158846 0.27244681
0.072743125 -0.091767274 0.27297872
0.073357217 -0.091838792 0.27319148
0.073943399 -0.091874562 0.27329788
0.074530005 -0.091910318 0.27340424
0.075204708 -0.092053376 0.27382979
0.075910576 -0.092232183 0.2743617
0.076648265 -0.092446767 0.27500001
0.077388562 -0.092661344 0.27563831
0.078071289 -0.092804387 0.27606383
0.078695148 -0.092875913 0.27627659
0.079289362 -0.092911683 0.27638298
0.079914741 -0.092983201 0.27659574
0.080571942 -0.093090497 0.27691489
0.081323966 -0.093305074 0.2775532
0.082141362 -0.093591176 0.27840427
0.083025433 -0.093948804 0.27946809
0.083850212 -0.094234906 0.28031915
0.084582344 -0.094413713 0.28085107
0.085252136 -0.094521008 0.28117022
0.085988179 -0.094699822 0.28170213
0.086726382 -0.094878629 0.28223404
0.087433852 -0.09502168 0.28265956
0.088043697 -0.095057443 0.28276595
0.088587284 -0.09502168 0.28265956
0.089130446 -0.094985925 0.2825532
0.089706942 -0.094985925 0.2825532
0.090249442 -0.094950154 0.2824468
0.090757303 -0.094878629 0.28223404
0.0912643 -0.094807111 0.28202128
0.091770425 -0.094735585 0.28180853
0.09231054 -0.094699822 0.28170213
0.092850216 -0.094664052 0.28159574
0.093354173 -0.094592527 0.28138298
0.093928285 -0.094592527 0.28138298
0.094502397 -0.094592527 0.28138298
0.095076501 -0.094592527 0.28138298
0.095614448 -0.094556764 0.28127658
0.096115582 -0.094485238 0.28106382
0.096542656 -0.094342194 0.28063831
0.097004801 -0.094234906 0.28031915
0.097539708 -0.094199136 0.28021276
0.098074183 -0.094163381 0.2801064
0.098570749 -0.094091848 0.27989361
0.098991096 -0.093948804 0.27946809
0.099447601 -0.093841508 0.27914894
0.099979036 -0.093805745 0.27904254
0.1005867 -0.093841508 0.27914894
0.10123336 -0.093913034 0.2793617
0.10184211 -0.093948804 0.27946809
0.10237332 -0.093913034 0.2793617
0.10278651 -0.09376999 0.27893618
0.10319795 -0.093626931 0.27851063
0.10356802 -0.093448117 0.27797872
0.10397577 -0.093305074 0.2775532
0.10438178 -0.093162015 0.27712765
0.10482635 -0.093054727 0.2768085
0.10535063 -0.093018971 0.27670214
0.1059559 -0.093054727 0.2768085
0.10660256 -0.09312626 0.27702129
0.10720892 -0.093162015 0.27712765
0.10781572 -0.093197785 0.27723405
0.10829819 -0.09312626 0.27702129
0.10877978 -0.093054727 0.2768085
0.10913444 -0.092875913 0.27627659
0.10952917 -0.092732869 0.27585107
0.11000708 -0.092661344 0.27563831
0.11061214 -0.092697099 0.27574468
0.11134632 -0.092840157 0.27617022
0.11208222 -0.092983201 0.27659574
0.11273322 -0.093054727 0.2768085
0.11334153 -0.093090497 0.27691489
0.11390653 -0.093090497 0.27691489
0.11442754 -0.093054727 0.2768085
0.11490393 -0.092983201 0.27659574
0.11524622 -0.092804387 0.27606383
0.11563097 -0.092661344 0.27563831
0.11605882 -0.092554055 0.27531916
0.11648537 -0.092446767 0.27500001
0.1169559 -0.092375241 0.27478725
0.11742555 -0.092303708 0.27457446
0.11789434 -0.092232183 0.2743617
0.11845413 -0.092232183 0.2743617
0.11901391 -0.092232183 0.2743617
0.1195737 -0.092232183 0.2743617
0.12008689 -0.09219642 0.27425531
0.12041247 -0.092017606 0.27372339
0.12054782 -0.091695748 0.27276596
0.12053755 -0.091266587 0.27148935
0.12033228 -0.090694383 0.26978722
0.12012006 -0.090122178 0.26808509
0.11985302 -0.089514218 0.2662766
0.11962669 -0.088942014 0.26457447
0.11949005 -0.088441327 0.2630851
0.11954148 -0.088083707 0.26202127
0.11988109 -0.087940656 0.26159576
0.12046378 -0.087976411 0.26170212
0.12139123 -0.088262513 0.26255319
0.12256916 -0.08872743 0.26393616
0.12390159 -0.089299634 0.26563829
0.12529081 -0.089907609 0.26744682
0.1264872 -0.090372525 0.26882979
0.12738758 -0.090622857 0.26957446
0.12783663 -0.090551339 0.2693617
0.12787916 -0.090193711 0.26829788
0.12750997 -0.089549981 0.26638299
0.12697954 -0.088798963 0.26414895
0.12664542 -0.088190995 0.26234043
0.12666495 -0.087833367 0.2612766
0.12699085 -0.087690309 0.26085106
0.12752308 -0.087690309 0.26085106
0.12805529 -0.087690309 0.26085106
0.12837775 -0.087547265 0.26042554
0.12843516 -0.0872254 0.25946808
0.12822431 -0.086724721 0.25797874
0.12800735 -0.086224042 0.25648937
0.12783764 -0.085759126 0.25510639
0.12803698 -0.085544549 0.25446808
0.12855618 -0.085544549 0.25446808
0.12961498 -0.085902177 0.25553191
0.13116573 -0.08658167 0.25755319
0.13305111 -0.087475739 0.26021278
0.13511117 -0.088477097 0.26319149
0.13690923 -0.089299634 0.26563829
0.13844205 -0.089943364 0.26755318
0.13965112 -0.090372525 0.26882979
0.14053251 -0.090587102 0.2694681
0.14124939 -0.090694383 0.26978722
0.14191167 -0.090765916 0.27000001
0.14246257 -0.090765916 0.27000001
0.14295709 -0.090730153 0.26989362
0.14333805 -0.090622857 0.26957446
0.14371772 -0.090515569 0.26925531
0.14403909 -0.090372525 0.26882979
0.14447317 -0.090301 0.26861703
0.14484891 -0.090193711 0.26829788
0.14522338 -0.090086423 0.26797873
0.14565441 -0.090014897 0.26776597
0.14620073 -0.090014897 0.26776597
0.14668874 -0.089979135 0.26765957
0.14723486 -0.089979135 0.26765957
0.14778097 -0.089979135 0.26765957
0.14826812 -0.089943364 0.26755318
0.14881401 -0.089943364 0.26755318
0.14930052 -0.089907609 0.26744682
0.14966738 -0.089800321 0.26712766
0.15009277 -0.089728795 0.2669149
0.15057731 -0.089693032 0.26680851
0.15118195 -0.089728795 0.2669149
0.15190795 -0.089836083 0.26723406
0.15257457 -0.089907609 0.26744682
0.15312025 -0.089907609 0.26744682
0.15348254 -0.089800321 0.26712766
0.15384355 -0.089693032 0.26680851
0.15432635 -0.089657262 0.26670212
0.15474696 -0.089585736 0.26648936
0.15510471 -0.089478448 0.2661702
0.15546115 -0.08937116 0.26585105
0.15594114 -0.089335404 0.26574469
0.15648335 -0.089335404 0.26574469
0.1570884 -0.08937116 0.26585105
0.15756775 -0.089335404 0.26574469
0.15792008 -0.089228116 0.26542553
0.15820757 -0.089085057 0.26499999
0.15855707 -0.088977776 0.26468086
0.15896921 -0.088906243 0.26446807
0.15944465 -0.088870488 0.26436171
0.15998404 -0.088870488 0.26436171
0.16052341 -0.088870488 0.26436171
0.1611276 -0.088906243 0.26446807
0.16173223 -0.088942014 0.26457447
0.16227205 -0.088942014 0.26457447
0.16274638 -0.088906243 0.26446807
0.16315463 -0.088834725 0.26425532
0.163562 -0.0887632 0.26404256
0.16396849 -0.088691674 0.2638298
0.16437411 -0.088620141 0.26361701
0.16471234 -0.08851286 0.26329789
0.16518277 -0.088477097 0.26319149
0.16565277 -0.088441327 0.2630851
0.16618955 -0.088441327 0.2630851
0.16679375 -0.088477097 0.26319149
0.16726311 -0.088441327 0.2630851
0.16773203 -0.088405572 0.26297873
0.16813244 -0.088334039 0.26276594
0.16860029 -0.088298284 0.26265958
-0.11990991 -0.10649497 0.31872341
-0.11898097 -0.10624614 0.31797871
-0.11813425 -0.10606842 0.3174468
-0.11728969 -0.10589068 0.31691489
-0.11648647 -0.10574851 0.31648937
-0.11572392 -0.10564187 0.31617022
-0.11484651 -0.10542859 0.31553191
-0.11389469 -0.10514423 0.31468084
-0.11279321 -0.10471769 0.31340426
-0.11169691 -0.10429113 0.31212765
-0.11064371 -0.10390013 0.31095746
-0.10970817 -0.10361577 0.3101064
-0.10892577 -0.10347358 0.30968085
-0.10810792 -0.10329586 0.30914894
-0.10721827 -0.10304704 0.30840427
-0.10629489 -0.10276267 0.3075532
-0.10541153 -0.10251384 0.3068085
-0.10460388 -0.10233612 0.30627659
-0.10376228 -0.10212284 0.30563828
-0.10288738 -0.10187402 0.30489361
-0.10197985 -0.10158966 0.30404255
-0.10114671 -0.10137638 0.30340424
-0.10042194 -0.10126975 0.30308512
-0.099733479 -0.10119865 0.30287233
-0.099011086 -0.10109201 0.30255318
-0.098255396 -0.10094983 0.30212766
-0.09743268 -0.10073656 0.30148935
-0.096578412 -0.10048774 0.30074468
-0.095727183 -0.10023893 0.30000001
-0.094912715 -0.10002565 0.29936171
-0.094167866 -0.09988346 0.29893616
-0.093424775 -0.09974128 0.29851064
-0.092716485 -0.09963464 0.29819149
-0.091976643 -0.099492468 0.29776597
-0.091238528 -0.099350274 0.29734042
-0.090404876 -0.099101461 0.29659575
-0.089542054 -0.098817095 0.29574469
-0.088682704 -0.098532729 0.29489362
-0.087922156 -0.098355003 0.29436171
-0.087195329 -0.098212816 0.29393616
-0.086438902 -0.098035082 0.29340425
-0.085653514 -0.097821809 0.29276595
-0.084932558 -0.09767963 0.29234043
-0.084274717 -0.097608544 0.29212767
-0.083648205 -0.09757299 0.29202127
-0.082961626 -0.09746635 0.29170212
-0.082186222 -0.097253077 0.29106382
-0.081353799 -0.096968718 0.29021278
-0.080584042 -0.096755445 0.28957447
-0.079905055 -0.096648805 0.28925532
-0.079256542 -0.096577711 0.28904256
-0.078579947 -0.096471079 0.28872341
-0.077904649 -0.096364439 0.28840426
-0.077202134 -0.096222252 0.28797871
-0.076473057 -0.096044526 0.2874468
-0.075746149 -0.095866792 0.28691489
-0.074965678 -0.09561798 0.28617021
-0.074132934 -0.095298059 0.28521276
-0.073304109 -0.094978154 0.28425533
-0.072451971 -0.094622701 0.2831915
-0.071550168 -0.094196148 0.28191489
-0.070573226 -0.093662962 0.28031915
-0.069523104 -0.093023144 0.27840427
-0.068454444 -0.092347771 0.27638298
-0.067420162 -0.091707952 0.27446809
-0.066471435 -0.091174759 0.27287233
-0.065554924 -0.090677127 0.27138299
-0.058148943 -0.085487448 0.25585106
-0.057099774 -0.084705435 0.25351062
-0.056131396 -0.084030077 0.25148937
-0.055241846 -0.083461344 0.24978724
-0.054382548 -0.082928158 0.24819149
-0.053552859 -0.082430519 0.24670213
-0.052752119 -0.081968419 0.24531914
-0.051957022 -0.081506327 0.24393617
-0.051190015 -0.081079781 0.24265957
-0.05045044 -0.080688775 0.24148937
-0.049759656 -0.080368869 0.24053192
-0.049094573 -0.080084503 0.23968086
-0.048476104 -0.079871222 0.23904255
-0.0478816 -0.079693496 0.23851064
-0.047289267 -0.07951577 0.23797873
-0.046678178 -0.07930249 0.23734042
-0.046090402 -0.079124764 0.23680851
-0.045484308 -0.078911491 0.23617022
-0.044880819 -0.078698218 0.23553191
-0.044279937 -0.078484945 0.23489362
-0.043701492 -0.078307219 0.23436171
-0.04312522 -0.078129485 0.23382978
-0.042589925 -0.078022853 0.23351064
-0.042075116 -0.077951759 0.23329787
-0.041599117 -0.077951759 0.23329787
-0.041160621 -0.078022853 0.23351064
-0.04077686 -0.078200579 0.23404256
-0.0404642 -0.078520484 0.235
-0.041345295 -0.096186712 0.28787234
-0.04114956 -0.097110897 0.2906383
-0.040482342 -0.096933171 0.29010639
-0.039788041 -0.096684352 0.28936172
-0.039082363 -0.096399985 0.28851065
-0.038394354 -0.096151158 0.28776595
-0.037709385 -0.095902346 0.28702128
-0.036999933 -0.095582426 0.28606382
-0.036240216 -0.095120333 0.28468084
-0.026578352 -0.074539371 0.22308511
-0.026085816 -0.074432731 0.22276595
-0.025582343 -0.074290544 0.22234042
-0.02505656 -0.074077271 0.22170213
-0.024556993 -0.073935091 0.2212766
-0.024093932 -0.073899545 0.22117022
-0.023665417 -0.073970638 0.22138298
-0.023247194 -0.074077271 0.22170213
-0.022827666 -0.074183911 0.22202128
-0.022417556 -0.074326098 0.22244681
-0.022079239 -0.074717097 0.22361702
-0.021900736 -0.075676829 0.22648937
-0.017933421 -0.076494381 0.22893617
-0.017287761 -0.075712375 0.22659574
-0.016738543 -0.075321369 0.22542553
-0.016232511 -0.075108096 0.22478724
-0.015751479 -0.075001463 0.22446808
-0.015271749 -0.074894823 0.22414893
-0.014814416 -0.074894823 0.22414893
-0.014377524 -0.075001463 0.22446808
-0.013952523 -0.075179189 0.22499999
-0.013525354 -0.075356923 0.22553192
-0.01308985 -0.075499102 0.22595745
-0.012640717 -0.075570196 0.22617021
-0.012179258 -0.075570196 0.22617021
-0.011717801 -0.075570196 0.22617021
-0.011251048 -0.075534649 0.22606383
-0.010789808 -0.075534649 0.22606383
-0.010333427 -0.075570196 0.22617021
-0.0098905433 -0.075712375 0.22659574
-0.009450349 -0.075890101 0.22712766
-0.0090037743 -0.076032288 0.22755319
-0.0085474802 -0.076103382 0.22776596
-0.0080789905 -0.076067828 0.22765957
-0.0076038195 -0.075961195 0.22734043
-0.0071366327 -0.075925648 0.22723404
-0.0066792527 -0.075996742 0.22744681
-0.0062326319 -0.076210015 0.2280851
-0.0057887868 -0.076494381 0.22893617
-0.0053365231 -0.076707661 0.22957447
-0.0048771426 -0.076849841 0.23
-0.0044119484 -0.076920927 0.23021276
-0.0039458857 -0.07699202 0.23042554
-0.0034805597 -0.07709866 0.23074467
-0.0030125438 -0.077169754 0.23095745
-0.0025436594 -0.07724084 0.23117021
-0.0020739071 -0.077311933 0.23138298
-0.0016040229 -0.077418573 0.23170213
-0.001132317 -0.077489659 0.23191489
-0.00066004525 -0.077596299 0.23223405
-0.00018638581 -0.077667393 0.2324468
0.00028814183 -0.077738486 0.23265958
0.00076318887 -0.077774025 0.23276596
0.0012381042 -0.077774025 0.23276596
0.0017145852 -0.077845119 0.23297872
0.0021929345 -0.077951759 0.23329787
0.0026750201 -0.078129485 0.23382978
0.0031592767 -0.078307219 0.23436171
0.0036440522 -0.078449398 0.23478724
0.0041249599 -0.078484945 0.23489362
0.0046063014 -0.078520484 0.235
0.0050857747 -0.078520484 0.235
0.0055728061 -0.078627124 0.23531915
0.0060638767 -0.078769311 0.23574468
0.0065566832 -0.078911491 0.23617022
0.0070480555 -0.079018123 0.23648936
0.0075339559 -0.079053678 0.23659575
0.0080202892 -0.079089217 0.23670213
0.0085032359 -0.079089217 0.23670213
0.0089942589 -0.07916031 0.23691489
0.0094946632 -0.07930249 0.23734042
0.0099923303 -0.07940913 0.23765957
0.01048661 -0.079480223 0.23787235
0.010976851 -0.07951577 0.23797873
0.011472649 -0.079586856 0.23819149
0.011974658 -0.079693496 0.23851064
0.012483527 -0.079835683 0.23893617
0.012988357 -0.079942316 0.23925532
0.013506473 -0.080120042 0.23978724
0.014020551 -0.080262229 0.24021277
0.014536366 -0.080404408 0.2406383
0.01504063 -0.080475502 0.24085106
0.015538902 -0.080511048 0.24095745
0.016037608 -0.080546595 0.24106383
0.016558632 -0.080688775 0.24148937
0.017103925 -0.080937594 0.24223404
0.01765226 -0.081186414 0.24297872
0.018179795 -0.081328601 0.24340425
0.018700905 -0.081435241 0.24372341
0.019214936 -0.081506327 0.24393617
0.019729836 -0.08157742 0.24414894
0.020227976 -0.08157742 0.24414894
0.020735146 -0.081612967 0.24425532
0.021261249 -0.081719607 0.24457447
0.021788651 -0.08182624 0.24489361
0.022317357 -0.081932873 0.24521276
0.022857266 -0.082075059 0.2456383
0.023378678 -0.082146153 0.24585107
0.02391129 -0.082252786 0.24617021
0.024434656 -0.082323879 0.24638298
0.024969656 -0.082430519 0.24670213
0.025494974 -0.082501605 0.24691489
0.026032362 -0.082608245 0.24723405
0.026559634 -0.082679339 0.24744681
0.027087774 -0.082750432 0.24765958
0.027616782 -0.082821518 0.24787234
0.028158728 -0.082928158 0.24819149
0.028701978 -0.083034799 0.24851064
0.029259034 -0.083176978 0.24893618
0.029817823 -0.083319165 0.24936171
0.030391289 -0.083496891 0.24989362
0.030940615 -0.083603524 0.25021276
0.031491242 -0.083710164 0.25053191
0.032029584 -0.08378125 0.25074467
0.032554988 -0.083816797 0.25085106
0.033108875 -0.083923437 0.25117022
0.033678297 -0.084065616 0.25159574
0.03430729 -0.084349982 0.2524468
0.034925085 -0.084598809 0.2531915
0.035531022 -0.084812075 0.25382978
0.036079135 -0.084883176 0.25404257
0.036597461 -0.084883176 0.25404257
0.037115786 -0.084883176 0.25404257
0.037634112 -0.084883176 0.25404257
0.038184389 -0.084954262 0.25425532
0.038735539 -0.085025355 0.25446808
0.039303966 -0.085131995 0.25478724
0.039890319 -0.085274167 0.25521275
0.040495262 -0.085451908 0.2557447
0.041102372 -0.085629635 0.25627661
0.041711651 -0.085807361 0.25680852
0.042270612 -0.085878454 0.25702128
0.042865865 -0.086020626 0.2574468
0.043462861 -0.08616282 0.25787234
0.044061586 -0.086304992 0.25829786
0.044625327 -0.086376093 0.25851065
0.045189932 -0.086447187 0.25872341
0.045736603 -0.086482726 0.25882977
0.046302732 -0.086553819 0.25904256
0.046869725 -0.086624913 0.25925532
0.047437582 -0.086695999 0.25946808
0.048006311 -0.086767092 0.25968084
0.048595794 -0.086873725 0.25999999
0.049246881 -0.087087005 0.2606383
0.049900573 -0.087300286 0.2612766
0.050577402 -0.087549098 0.26202127
0.051195018 -0.087691285 0.26244682
0.051772427 -0.087762378 0.26265958
0.052350707 -0.087833464 0.26287234
0.052951258 -0.087940104 0.26319149
0.053553112 -0.088046744 0.26351064
0.054134429 -0.08811783 0.2637234
0.054694563 -0.088153377 0.2638298
0.055255126 -0.088188916 0.26393616
0.055793639 -0.088188916 0.26393616
0.056377567 -0.088260017 0.26414895
0.057008199 -0.088402197 0.26457447
0.057640571 -0.088544376 0.26499999
0.058251321 -0.088651016 0.26531914
0.058886956 -0.088793203 0.26574469
0.059571903 -0.089006476 0.26638299
0.06025945 -0.089219749 0.26702127
0.06085271 -0.089290842 0.26723406
0.061397951 -0.089290842 0.26723406
0.061943192 -0.089290842 0.26723406
0.062513307 -0.089326382 0.26734042
0.063184224 -0.089504115 0.26787233
0.063882634 -0.089717388 0.26851064
0.06460917 -0.089966208 0.26925531
0.065312997 -0.090179481 0.26989362
0.065915585 -0.090250574 0.27010638
0.06649287 -0.090286121 0.27021277
0.067044191 -0.090286121 0.27021277
0.067675345 -0.090392761 0.27053192
0.068361461 -0.090570487 0.27106383
0.069049746 -0.090748213 0.27159575
0.069685683 -0.090854853 0.2719149
0.070295431 -0.090925939 0.27212766
0.070906051 -0.090997033 0.27234042
0.071601279 -0.091174759 0.27287233
0.072326817 -0.091388039 0.27351063
0.073026612 -0.091565765 0.27404255
0.073642872 -0.091636851 0.27425531
0.074260011 -0.091707952 0.27446809
0.07484901 -0.091743492 0.27457446
0.075496875 -0.091850132 0.27489361
0.076204918 -0.092027858 0.27542552
0.076974429 -0.092276685 0.27617022
0.077717111 -0.09248995 0.2768085
0.078402229 -0.092632137 0.27723405
0.078998171 -0.092667677 0.27734041
0.079564035 -0.092667677 0.27734041
0.080129892 -0.092667677 0.27734041
0.080819577 -0.092809863 0.27776596
0.08157333 -0.093023144 0.27840427
0.082423843 -0.093343049 0.2793617
0.083309874 -0.093698502 0.28042552
0.084136605 -0.093982868 0.28127658
0.084902734 -0.094196148 0.28191489
0.085606955 -0.094338335 0.28234044
0.086345382 -0.094516061 0.28287235
0.087118663 -0.094729327 0.28351063
0.087795831 -0.094835967 0.28382978
0.08840806 -0.094871521 0.28393617
0.088954039 -0.094835967 0.28382978
0.08946602 -0.094764881 0.28361702
0.090044692 -0.094764881 0.28361702
0.090623356 -0.094764881 0.28361702
0.091167815 -0.094729327 0.28351063
0.091711842 -0.094693787 0.28340426
0.092255428 -0.094658241 0.28329787
0.092763722 -0.094587155 0.28308511
0.093271151 -0.094516061 0.28287235
0.093813002 -0.094480515 0.28276595
0.094389938 -0.094480515 0.28276595
0.094966866 -0.094480515 0.28276595
0.095543794 -0.094480515 0.28276595
0.096048407 -0.094409421 0.2825532
0.09651576 -0.094302788 0.28223404
0.096981816 -0.094196148 0.28191489
0.097483382 -0.094125055 0.28170213
0.098058142 -0.094125055 0.28170213
0.098595649 -0.094089508 0.28159574
0.099170193 -0.094089508 0.28159574
0.099631689 -0.093982868 0.28127658
0.10012978 -0.093911782 0.28106382
0.10062701 -0.093840696 0.28085107
0.10120004 -0.093840696 0.28085107
0.10177306 -0.093840696 0.28085107
0.10234609 -0.093840696 0.28085107
0.10284115 -0.093769602 0.28063831
0.10325692 -0.093627416 0.28021276
0.10367098 -0.093485236 0.27978724
0.10408328 -0.093343049 0.2793617
0.10449386 -0.09320087 0.27893618
0.10490269 -0.093058683 0.27851063
0.1053098 -0.092916504 0.27808511
0.10579617 -0.092845418 0.27787235
0.10636312 -0.092845418 0.27787235
0.10705287 -0.092952043 0.27819148
0.10770278 -0.093023144 0.27840427
0.10835356 -0.09309423 0.27861702
0.10888043 -0.093058683 0.27851063
0.10936507 -0.092987597 0.27829787
0.1097648 -0.092845418 0.27787235
0.11012053 -0.092667677 0.27734041
0.11055903 -0.092561051 0.27702129
0.11112424 -0.092561051 0.27702129
0.11186101 -0.092703231 0.27744681
0.11259953 -0.092845418 0.27787235
0.11325312 -0.092916504 0.27808511
0.11390759 -0.092987597 0.27829787
0.1144754 -0.092987597 0.27829787
0.11499923 -0.092952043 0.27819148
0.11543426 -0.092845418 0.27787235
0.11577915 -0.092667677 0.27734041
0.11612187 -0.09248995 0.2768085
0.11650727 -0.092347771 0.27638298
0.11693599 -0.092241131 0.27606383
0.11740869 -0.092170045 0.27585107
0.11788052 -0.092098959 0.27563831
0.11839719 -0.092063405 0.27553192
0.11891343 -0.092027858 0.27542552
0.11952154 -0.092063405 0.27553192
0.1200837 -0.092063405 0.27553192
0.12055272 -0.091992319 0.27531916
0.12097406 -0.091885678 0.27500001
0.12120603 -0.091636851 0.27425531
0.12134051 -0.091316946 0.27329788
0.12128127 -0.090854853 0.2719149
0.12112107 -0.090321667 0.27031916
0.12085858 -0.089717388 0.26851064
0.1204925 -0.089042015 0.26648936
0.12026314 -0.088473283 0.26478723
0.12022097 -0.088046744 0.26351064
0.1205636 -0.08790455 0.2630851
0.12110038 -0.08790455 0.2630851
0.12193228 -0.08811783 0.2637234
0.12291498 -0.088437743 0.26468086
0.12419932 -0.088970929 0.2662766
0.12554 -0.089539662 0.26797873
0.12678753 -0.090037301 0.2694681
0.12778977 -0.090357207 0.27042553
0.12844248 -0.0904283 0.27063829
0.12869045 -0.090215035 0.27000001
0.12857935 -0.089752935 0.26861703
0.12820688 -0.089113109 0.26670212
0.12777527 -0.088437743 0.26468086
0.12749012 -0.087869011 0.26297873
0.12745698 -0.087478012 0.26180851
0.12752308 -0.087158091 0.26085106
0.12763749 -0.086873725 0.25999999
0.12769601 -0.086553819 0.25904256
0.12764528 -0.08616282 0.25787234
0.12758979 -0.085771814 0.25670213
0.12763572 -0.085451908 0.2557447
0.12778433 -0.085203081 0.255
0.12814403 -0.085096441 0.25468084
0.12882489 -0.085203081 0.255
0.12988478 -0.085558534 0.25606382
0.13143662 -0.086233906 0.2580851
0.13337748 -0.087158091 0.26085106
0.13543884 -0.088153377 0.2638298
0.13734788 -0.089042015 0.26648936
0.13888243 -0.089681841 0.26840425
0.14009324 -0.090108395 0.26968086
0.14103182 -0.090357207 0.27042553
0.14180638 -0.090499401 0.27085108
0.14252673 -0.090606026 0.2711702
0.14313613 -0.090641573 0.27127659
0.14357693 -0.090570487 0.27106383
0.14396028 -0.090463847 0.27074468
0.14434233 -0.090357207 0.27042553
0.14466611 -0.090215035 0.27000001
0.14504533 -0.090108395 0.26968086
0.14530839 -0.089930668 0.26914895
0.14562693 -0.089788482 0.2687234
0.14600161 -0.089681841 0.26840425
0.14649116 -0.089646302 0.26829788
0.14709686 -0.089681841 0.26840425
0.14770301 -0.089717388 0.26851064
0.1483096 -0.089752935 0.26861703
0.1489166 -0.089788482 0.2687234
0.14946489 -0.089788482 0.2687234
0.15001316 -0.089788482 0.2687234
0.15050185 -0.089752935 0.26861703
0.15093026 -0.089681841 0.26840425
0.15135781 -0.089610748 0.26819149
0.151905 -0.089610748 0.26819149
0.15251268 -0.089646302 0.26829788
0.15318146 -0.089717388 0.26851064
0.15379022 -0.089752935 0.26861703
0.15421604 -0.089681841 0.26840425
0.15464097 -0.089610748 0.26819149
0.1550035 -0.089504115 0.26787233
0.15536471 -0.089397475 0.26755318
0.15572464 -0.089290842 0.26723406
