# .PCD v0.7 - Point Cloud Data file format
VERSION 0.7
FIELDS x y z
SIZE 4 4 4
TYPE F F F
COUNT 1 1 1
WIDTH 1334
HEIGHT 1
VIEWPOINT 0 0 0 1 0 0 0
POINTS 1334
DATA ascii
-0.016693845 -0.00083095516 0.2823489
-0.01552207 -0.00075102545 0.28057525
-0.014771021 -0.00078582903 0.27945638
-0.014175938 -0.00080805836 0.27859408
-0.013695812 -0.00079855381 0.27789295
-0.013323993 -0.00080161297 0.27739277
-0.013008374 -0.00079475145 0.27694878
-0.01273999 -0.00078735105 0.27656135
-0.012424596 -0.00077868678 0.27612343
-0.011901517 -0.00077171676 0.27538654
-0.011244872 -0.00078204164 0.2744419
-0.010446569 -0.00078267098 0.27329946
-0.0098127834 -0.00081316242 0.27239779
-0.0092777452 -0.00084947614 0.27164549
-0.0089899777 -0.00085560099 0.27124533
-0.0083736852 -0.00086802139 0.27037475
-0.0076767472 -0.00088558206 0.26937193
-0.0066353227 -0.00093611318 0.267836
-0.0059286072 -0.0009710067 0.26677522
-0.0052118688 -0.0010432731 0.26575869
-0.0045317863 -0.0010431641 0.26479521
-0.0038558447 -0.0010011299 0.26382124
-0.0032654037 -0.00097956439 0.26291293
-0.0025539375 -0.0010121765 0.26184246
-0.0019989761 -0.0010467719 0.26105127
-0.0016398396 -0.001042782 0.26053229
-0.0012780988 -0.001005656 0.25999829
-0.00073540915 -0.00098933862 0.25921312
-0.00023816289 -0.00098003179 0.25848594
0.00024899645 -0.00098971394 0.257761
0.00046390053 -0.00093999901 0.25745377
0.00091035914 -0.00096628087 0.25678426
0.0013563059 -0.00095453754 0.25610572
0.0018588006 -0.00096414005 0.25532693
0.0024215083 -0.00095385144 0.25445396
0.0030401009 -0.00092773855 0.25351214
0.0035119085 -0.0009126956 0.25281602
0.0042309733 -0.00091358897 0.25180298
0.0048081973 -0.00088984467 0.25097731
0.0054402431 -0.0008608856 0.25007179
0.0062222988 -0.0008131683 0.24902612
0.0066977814 -0.00084578048 0.2483781
0.0073619504 -0.00088931917 0.24747394
0.0078605358 -0.0009043169 0.24679902
0.0084801279 -0.00093741476 0.24599974
0.0088784639 -0.00093954138 0.24544606
0.0091574779 -0.00093021529 0.24505568
0.0094748577 -0.00094342721 0.24463454
0.00979055 -0.00097001466 0.24422312
0.010099422 -0.00095604581 0.24379456
0.010269371 -0.0009765065 0.24355699
0.010604091 -0.00097323855 0.24308793
0.01079739 -0.0010026899 0.24281684
0.011044214 -0.0009852337 0.24245936
0.011403614 -0.00099432596 0.24194716
0.011966859 -0.00098508561 0.2411287
0.012691567 -0.0010043414 0.2400676
0.013329429 -0.0010259592 0.23917502
0.013878043 -0.0010026478 0.23841521
0.014302026 -0.0010033016 0.23785041
0.014582308 -0.00099415553 0.23744874
0.015398953 -0.0010294062 0.23635377
0.016103948 -0.0010275876 0.23539135
0.016769662 -0.0010324823 0.23447917
0.017522434 -0.0010777301 0.23338924
0.018015938 -0.0010630774 0.23268385
0.018416936 -0.0010668625 0.23209314
0.018750742 -0.0010378746 0.23160686
0.019051211 -0.0010067405 0.23112065
0.019541884 -0.00093615591 0.23041157
0.020008512 -0.00089205749 0.2297022
0.020184878 -0.00087772275 0.22942623
0.020308008 -0.00088246702 0.22924197
0.020671226 -0.00085361162 0.22867055
0.021091599 -0.00084162055 0.22799672
0.021719273 -0.00087307667 0.22705451
0.022961617 -0.0009110418 0.22554481
0.024456443 -0.00073579268 0.22425684
0.025202353 -0.00079204026 0.22382988
0.025723919 -0.00076290412 0.22356178
0.026199069 -0.00068032678 0.22335842
0.026666934 -0.00057644426 0.2231686
0.027124897 -0.00052428845 0.22299184
0.027526421 -0.00055288669 0.2228224
0.02781407 -0.00056667696 0.22268759
0.028201625 -0.00058883557 0.22243868
0.028482553 -0.00063129963 0.2222442
0.028675437 -0.0006773721 0.22211517
0.028836895 -0.00071754516 0.22200035
0.028962273 -0.00072445639 0.22193688
0.029062241 -0.00079652941 0.22193092
0.02915876 -0.00083659054 0.22194979
0.029246427 -0.00083820731 0.22195469
0.029373206 -0.00094061403 0.22192049
0.029530555 -0.00098217872 0.22184572
0.029671833 -0.0010559108 0.22177209
0.029871078 -0.0011745967 0.22168766
0.030007171 -0.0012587885 0.22163965
0.030146847 -0.0013634014 0.2216118
0.030307228 -0.0014449868 0.22155164
0.030487692 -0.0015093109 0.22147243
0.030654676 -0.0015826669 0.22141165
0.030807832 -0.001608848 0.22138515
0.03104273 -0.0016856268 0.22136238
0.031325236 -0.0017928286 0.22138162
0.031621601 -0.0018784039 0.22138737
0.060280956 -0.0014721408 0.24105716
0.061106671 -0.0012833235 0.24187019
0.062137883 -0.001086975 0.24286623
0.063083686 -0.00088793726 0.24381061
0.064305253 -0.00057194883 0.2450334
0.065475382 -0.00027112776 0.24617533
0.066292092 -3.9249648e-05 0.24698338
0.06665571 5.9528033e-05 0.24733771
0.067017011 0.00015319836 0.24772027
0.067455687 0.00023561156 0.2481392
0.068099745 0.0004048867 0.24879599
0.068421938 0.0005033114 0.24914174
0.068586439 0.00053354417 0.24932157
0.068793543 0.00061622611 0.24954854
0.069013976 0.00066989788 0.24978705
0.069327421 0.00075591647 0.25008842
0.069634214 0.00086699048 0.25037107
-0.035502132 -0.00098491751 0.30962825
-0.035041653 -0.00094521896 0.30907726
-0.034652427 -0.00092800928 0.30859789
-0.034249764 -0.00095800712 0.3080641
-0.033651102 -0.00098225975 0.30736604
-0.033126306 -0.0010125363 0.30672386
-0.032643903 -0.0009763437 0.3061403
-0.032216739 -0.00096596265 0.30559769
-0.031660501 -0.00092319067 0.30487162
-0.031386878 -0.00090353703 0.30450186
-0.031209625 -0.00089381897 0.3042542
-0.031111114 -0.00088381267 0.3041271
-0.030878982 -0.00087799871 0.30383748
-0.030509258 -0.00087642972 0.30333206
-0.029568853 -0.00089392078 0.30207866
-0.028431263 -0.00095263659 0.30045125
-0.026330918 -0.00091015088 0.29748985
-0.025396634 -0.00096727192 0.29615629
-0.024739154 -0.00096769386 0.29520842
-0.024230195 -0.0009730946 0.29444981
-0.023425054 -0.00091616111 0.2932274
-0.022579387 -0.00084596296 0.29181689
-0.021880073 -0.00084308977 0.29056194
-0.021281907 -0.0008546618 0.28952518
-0.020958673 -0.0008103741 0.28898388
-0.020255491 -0.00078531279 0.28782806
-0.019775612 -0.00079129467 0.28704178
-0.018969357 -0.00076104124 0.28577098
-0.017673742 -0.0007954918 0.2838026
-0.016889753 -0.00079593615 0.28266022
-0.015628926 -0.00073980098 0.2807433
-0.014827009 -0.00078389712 0.27952468
-0.01434006 -0.0008008827 0.27882329
-0.013857848 -0.00079408224 0.27815676
-0.01342664 -0.00078260963 0.27752957
-0.013162028 -0.00078256213 0.27716973
-0.012843171 -0.00077174022 0.27671689
-0.012629867 -0.00076529809 0.27641514
-0.0087464256 -0.00086021604 0.27090305
-0.0083736852 -0.00086802128 0.27037475
-0.0077664172 -0.00088017766 0.2695089
-0.006831944 -0.00089861371 0.26814577
-0.0059701269 -0.0009543231 0.2668303
-0.0052118688 -0.001043273 0.26575866
-0.0045704711 -0.0010364215 0.26484501
-0.0037719945 -0.00098938774 0.26369101
-0.0031858266 -0.00097584608 0.2627919
-0.0025539377 -0.0010121763 0.26184243
-0.001925807 -0.0010319366 0.2609399
-0.0015635055 -0.0010474186 0.26041245
-0.0012420419 -0.001016658 0.25994125
-0.00073540921 -0.00098933862 0.25921312
-0.00019999643 -0.00097320019 0.2584354
8.3626364e-05 -0.00095990329 0.25801253
0.00036067722 -0.00096977671 0.25761148
0.00078258954 -0.00093553663 0.25698757
0.0012924146 -0.00094568322 0.25621262
0.001791133 -0.0009481404 0.25543135
0.0025241852 -0.00092786911 0.25430167
0.0031442367 -0.00091248937 0.25337303
0.0038327831 -0.00090517191 0.25235403
0.0043889387 -0.00088981789 0.25157723
0.0049830182 -0.00085961132 0.2507084
0.005618738 -0.00081873231 0.24981092
0.0062222984 -0.00081316801 0.24902613
0.0066977809 -0.00084578025 0.24837808
0.0072800806 -0.00087167101 0.24758072
0.0078342836 -0.00090203766 0.24683586
0.0085336911 -0.00092447491 0.24590887
0.0087846806 -0.00091777585 0.24554878
0.009022695 -0.0009438931 0.24525121
0.0092745591 -0.00092937978 0.24491118
0.0095894728 -0.00093570573 0.24447785
0.0099304365 -0.00095334108 0.24401976
0.010240689 -0.00097112567 0.24359636
0.010550089 -0.00095806288 0.24316318
0.010794927 -0.00098516699 0.24281891
0.010823903 -0.00099313352 0.24278034
0.010771377 -0.00097791699 0.24285936
0.010746767 -0.00097296102 0.24289672
0.011734554 -0.00098456023 0.2415002
0.01234855 -0.00097235735 0.24061693
0.013210428 -0.001005104 0.23937245
0.014506389 -0.00098264229 0.23758286
0.015939705 -0.001017255 0.23561303
0.016871722 -0.0010270014 0.23434025
0.017652411 -0.0010471048 0.23319712
0.018132141 -0.0010500307 0.23251063
0.018463958 -0.0010407097 0.23201974
0.01882929 -0.0010204455 0.23147228
0.019292446 -0.00096915418 0.23078093
0.019726124 -0.0009316082 0.230112
0.020115031 -0.00088051136 0.22953086
0.020294014 -0.00087453239 0.2292632
0.02051031 -0.00085945759 0.2289257
0.020727811 -0.00083912071 0.22858679
0.021087456 -0.00081861421 0.22801471
0.021557359 -0.00081936206 0.22730075
0.02264107 -0.00073828321 0.22588332
0.024351778 -0.00043474173 0.224347
0.025151288 -0.00058871438 0.223848
0.025726829 -0.00050040788 0.22352955
0.026278118 -0.00041157225 0.22327045
0.02673688 -0.00032104747 0.22309725
0.027176617 -0.00026072728 0.22292151
0.027502699 -0.00027335287 0.22280882
0.027765684 -0.00028009914 0.22269842
0.02813171 -0.00031443563 0.22246256
0.028432077 -0.00034641885 0.22227629
0.028639633 -0.00033860706 0.22212517
0.028772572 -0.00040315898 0.22203873
0.028915118 -0.00045812177 0.2219812
0.029040748 -0.0004661534 0.22195312
0.029138869 -0.00054718007 0.22195239
0.029202433 -0.00057386968 0.22194125
0.029360749 -0.0006576727 0.22187153
0.029479221 -0.00071876845 0.22180834
0.029616117 -0.00074706663 0.22175224
0.029790938 -0.00086742075 0.22168881
0.029896254 -0.00096061552 0.22166215
0.030011624 -0.0010260189 0.22162199
0.030207099 -0.0011045319 0.22153397
0.030377638 -0.0011608195 0.22145049
0.030552257 -0.0012353724 0.22138238
0.030740971 -0.0012898943 0.22135486
0.03094469 -0.0013812098 0.22136186
0.031201707 -0.001449993 0.22135706
0.031424291 -0.0015013579 0.22136015
0.063324057 -0.00081408437 0.24405138
0.064962417 -0.00038476652 0.24567759
0.065867215 -0.00012711546 0.2465816
0.066542119 4.8833921e-05 0.24725008
0.067017004 0.00015319839 0.24772026
0.067341499 0.00022371821 0.24803609
0.067825511 0.0003505841 0.24851948
0.068212472 0.00042904596 0.24890152
0.06853243 0.00052193261 0.24926208
0.06863603 0.00056200894 0.24937758
0.068960831 0.00065645162 0.24973245
0.069116451 0.00070642726 0.24989057
0.069379449 0.00077121868 0.25013697
0.069634221 0.00086699054 0.25037107
0.069987081 0.0010013466 0.2506907
0.070404477 0.0011155176 0.25113413
0.070665702 0.0012016911 0.25136313
-0.034885142 -0.00093503407 0.30890095
-0.03444403 -0.00091134669 0.30834842
-0.033919826 -0.00095503411 0.30767426
-0.033348043 -0.00097702176 0.30698571
-0.032828219 -0.00098281214 0.3063454
-0.032262452 -0.00096509286 0.30565137
-0.032032941 -0.00093717349 0.30535966
-0.031520627 -0.00091317151 0.30468744
-0.031344488 -0.00088321359 0.30444598
0.00074962043 -0.00093579409 0.25704023
0.0050775548 -0.00085035426 0.25057316
0.0057418165 -0.00080423302 0.24967097
0.0061963764 -0.0008076856 0.24906169
0.0067587621 -0.00083674071 0.24828528
0.0088452334 -0.00093006686 0.24547236
0.0091028353 -0.00093337707 0.24512589
0.0094482908 -0.00094146252 0.24466908
0.0097314231 -0.00094692427 0.24428742
0.010130044 -0.00095735572 0.24375072
0.010577692 -0.0009558216 0.24312496
0.010742374 -0.00096994697 0.24289784
0.0097620897 -0.00093913224 0.24422753
0.016896784 -0.0010235941 0.23430555
0.017701032 -0.0010465255 0.23312278
0.018200552 -0.0010335217 0.23241042
0.018555859 -0.0010269004 0.23188609
0.019036736 -0.00097849767 0.23112641
0.019466836 -0.00095111906 0.23050821
0.019941768 -0.0008831725 0.22980808
0.020270793 -0.00087093504 0.22929603
0.020505887 -0.00084521802 0.2289394
0.02070741 -0.00083696016 0.22861375
0.020843711 -0.00081087841 0.22840592
0.021092054 -0.00080915587 0.22800694
0.021546712 -0.0007887531 0.22731648
0.02260335 -0.00056869554 0.22596593
0.024259625 -0.00023788444 0.22445299
0.025134014 -0.00026532632 0.2238667
0.025769508 -0.00023900931 0.22349538
0.026377827 -0.00015821158 0.22319537
0.026820706 -4.1271316e-05 0.22301625
0.027170314 -2.0405778e-05 0.22287713
0.027488649 4.5439239e-05 0.22274633
0.027852986 7.3539217e-05 0.22254336
0.028104743 3.1403844e-05 0.22241804
0.028374959 -5.8166179e-06 0.22229825
0.028528154 -2.9373548e-05 0.2222293
0.028701501 -8.0784928e-05 0.22212559
0.028860822 -0.00010342548 0.2220422
0.028973376 -0.00013094408 0.22200055
0.029080143 -0.00021597878 0.22195102
0.029190661 -0.00024045288 0.22189049
0.029307943 -0.00029318215 0.22184181
0.029406207 -0.00038857764 0.22181241
0.029517919 -0.00043425377 0.22176383
0.029676011 -0.00054848084 0.22171427
0.029772058 -0.0006070144 0.22167818
0.02989848 -0.00069257244 0.22163607
0.030083286 -0.00074374373 0.22154796
0.030279627 -0.00081277062 0.22145273
0.030433035 -0.00089607434 0.22139615
0.030626172 -0.00092922512 0.22136384
0.030845353 -0.0010302583 0.22136174
0.03107724 -0.0010802881 0.2213532
0.066960357 0.00014913705 0.24766414
0.067234501 0.00019618731 0.24793053
0.067605913 0.00029909998 0.24830836
0.06798365 0.00039257744 0.24869211
0.068365492 0.00049621536 0.24908084
0.068586431 0.00053354417 0.24932152
0.068845727 0.00063350517 0.24960479
0.069062673 0.00069680921 0.24983884
0.069271766 0.00075464725 0.25004074
0.069427483 0.00080096035 0.25018543
0.069634221 0.00086699048 0.2503711
0.069987081 0.0010013467 0.2506907
0.070404485 0.0011155176 0.2511341
0.070665702 0.0012016911 0.25136313
0.070991531 0.001288038 0.25163233
0.071213409 0.0013487033 0.25182074
0.0093066432 -0.00092545978 0.2448485
0.019982386 -0.00087603234 0.2297471
0.020315666 -0.00087281753 0.22923091
0.020600887 -0.00081149081 0.22878449
0.020780303 -0.00081591954 0.22850427
0.020897917 -0.00079273572 0.22832166
0.021176632 -0.00078714674 0.2278845
0.021559315 -0.00075184344 0.22729515
0.022665672 -0.00037859744 0.22597115
0.02422953 -2.5786496e-05 0.22453913
0.025131736 4.8389662e-05 0.22391686
0.025839342 5.8075533e-05 0.2234766
0.026424304 0.00010791874 0.22315435
0.026869217 0.00022274166 0.22296017
0.027258685 0.00027449097 0.22274256
0.027647065 0.00035222174 0.22250293
0.027883731 0.00035241849 0.22235903
0.028049694 0.00037536255 0.22236612
0.028336976 0.00033617282 0.22229953
0.028476685 0.00026219993 0.22226819
0.028670399 0.00021130555 0.2221559
0.028751967 0.00018656392 0.22211239
0.028933255 0.00013281692 0.22201079
0.02902706 8.0957754e-05 0.22195689
0.029173143 2.3751114e-05 0.22185966
0.029265702 -3.1303716e-05 0.22182834
0.029325714 -4.0849132e-05 0.22181892
0.02942895 -0.00012544202 0.22179615
0.029522903 -0.0001754425 0.2217633
0.029669687 -0.00025786186 0.22170274
0.029816614 -0.00033280175 0.22166343
0.030011822 -0.00042244338 0.22158825
0.030209053 -0.00048249311 0.22150637
0.030356601 -0.00052558375 0.22145005
0.030562339 -0.00059130677 0.22141865
0.030769859 -0.00063723867 0.22138834
0.030972643 -0.00069613045 0.22136413
0.067768887 0.00033604176 0.24847431
0.068089709 0.00042064974 0.2488099
0.068475038 0.00051860977 0.24920271
0.068793543 0.000616226 0.24954852
0.069013961 0.000669898 0.24978702
0.069166198 0.00072969066 0.24994132
0.069427483 0.00080096023 0.25018543
0.069529802 0.00083814777 0.25028002
0.069680527 0.00089425209 0.25041795
0.069987081 0.0010013466 0.25069073
0.070450827 0.0011430515 0.25118521
0.070665687 0.0012016912 0.25136319
0.071041338 0.0013152804 0.25168198
0.071328133 0.0013679659 0.25191611
0.071676984 0.0014323713 0.25221387
0.027525792 0.00058618328 0.22263896
0.027718376 0.00061307789 0.22263385
0.027797537 0.00055803184 0.22270389
0.028092831 0.00057196623 0.22252753
0.028398037 0.0005486462 0.22231786
0.02860672 0.00048937829 0.22216475
0.028719414 0.00044899416 0.22212134
0.028881811 0.00042942428 0.22201607
0.028972732 0.00040834164 0.22196226
0.029123649 0.00033730944 0.22186364
0.029213371 0.00025921615 0.2218319
0.029263148 0.00022944898 0.22185308
0.029325839 0.00020640658 0.2218421
0.029413991 0.00013110221 0.22182932
0.029585019 8.8769135e-05 0.22176784
0.029718002 4.322884e-05 0.22173171
0.029895745 1.7559665e-05 0.22164571
0.030055374 -3.8388094e-05 0.22159304
0.030273562 -9.6031043e-05 0.22153594
0.030472707 -0.00014967166 0.22148757
0.030679615 -0.00022156407 0.22143809
0.069166191 0.00072969066 0.24994132
0.069317915 0.00078368495 0.25008741
0.069475904 0.00082652341 0.25023276
0.069579594 0.00085972261 0.25032717
0.06977991 0.00093526015 0.25051022
0.070033766 0.0010267681 0.2507388
0.07045082 0.0011430515 0.25118518
0.070770636 0.0012330991 0.25145409
0.071103044 0.0013175905 0.25172481
0.071441017 0.001395195 0.25201237
0.071734838 0.001451676 0.25226837
0.02743629 0.0008599257 0.22290729
0.027536247 0.00091446406 0.22295208
0.027932802 0.00084131747 0.22266951
0.028276894 0.00086302997 0.22236457
0.028546112 0.00088539004 0.22212437
0.028669599 0.00080018025 0.22210833
0.028815927 0.00075609464 0.22201936
0.028946171 0.00072486524 0.22192454
0.029053079 0.00065573031 0.2218799
0.029142199 0.00060193671 0.22185189
0.029206641 0.00055390276 0.22186898
0.029270073 0.00056702318 0.22187807
0.029335037 0.00052175706 0.22188973
0.029432733 0.00052370189 0.22187041
0.029591141 0.00054958463 0.22181529
0.029747099 0.00046823759 0.22174418
0.029930579 0.00046221406 0.22168931
0.030123068 0.00045145224 0.22163916
0.03032806 0.00035475509 0.22156659
0.069579609 0.00085972238 0.25032717
0.069732219 0.00091204315 0.2504636
0.069876753 0.00097797485 0.25060079
0.070186265 0.0010635277 0.25095835
0.07045082 0.0011430514 0.25118515
0.07126724 0.0013648777 0.25186992
0.072603233 0.0017323239 0.25307915
0.074284337 0.0020563477 0.25450638
0.074284337 0.0020563477 0.25450632
0.027794292 0.0012345562 0.22281234
0.028197795 0.0011688045 0.22242361
0.028464794 0.0012291069 0.22207244
0.028648498 0.0011709081 0.22205287
0.028768018 0.0011320579 0.22200711
0.02889481 0.0010632561 0.22192734
0.028989395 0.0010556455 0.22188407
0.029087156 0.00093453622 0.22187825
0.029156791 0.0009486326 0.22190109
0.029230446 0.00097255153 0.22192729
0.029305464 0.00094744051 0.22193591
0.029360432 0.00096924254 0.22192653
0.029482506 0.00099894789 0.22188182
0.029637162 0.00098391715 0.22182204
0.029807156 0.00096505485 0.22176373
0.02998613 0.00095305673 0.22171262
0.030155199 0.0010074705 0.22166933
0.070390806 0.0011374097 0.25114456
0.070607521 0.0011951389 0.25132349
0.071553126 0.0014311273 0.25211403
0.028275877 0.0015269059 0.22225292
0.028442252 0.0015990013 0.22195855
0.028609298 0.0015154169 0.22199301
0.028719777 0.0015092454 0.22197996
0.02883995 0.0014937351 0.22193936
0.028943518 0.0014439349 0.22190706
0.029039191 0.0014042074 0.22190155
0.029127499 0.0013844811 0.22193114
0.02919754 0.0013797937 0.22195794
0.029252881 0.0014114315 0.22197738
0.029326059 0.0014321967 0.22195911
0.02945401 0.0014457188 0.22191046
0.029591337 0.0014328964 0.22185691
0.029749563 0.0014504292 0.22180417
0.029878853 0.0014863379 0.22176282
0.030035377 0.0015399246 0.22172733
0.028427647 0.0019676734 0.22192168
0.028526887 0.001972066 0.22195834
0.028695684 0.0019272239 0.22194709
0.028836846 0.0019013103 0.22191986
0.028913304 0.0018629758 0.22193262
0.029011587 0.0018778251 0.22194886
0.029092358 0.0018268902 0.22197016
0.029157734 0.0018165291 0.22199506
0.029235262 0.0018471295 0.22199318
0.029321782 0.0019015253 0.22198245
0.029454093 0.0019022647 0.22192498
0.0295795 0.0019147142 0.22187403
0.029736588 0.0018863812 0.22181317
0.029835859 0.0019639139 0.22179237
0.029956335 0.0020463213 0.22177428
0.028570851 0.0023489248 0.22190368
0.028651323 0.0023717447 0.22191164
0.028789269 0.0023397773 0.22193487
0.028908577 0.0022741032 0.22195862
0.029006224 0.0022654969 0.22198564
0.029068084 0.0022852777 0.22201246
0.029129637 0.0022775761 0.22201732
0.029224236 0.0023040676 0.22201791
0.02931948 0.0023415489 0.22198415
0.029450767 0.0023497231 0.22193262
0.029569032 0.0023753124 0.22188565
0.029712437 0.0023809567 0.22183031
0.029821493 0.002462416 0.2218132
0.029973146 0.0025293347 0.22179532
0.028673271 0.0028136219 0.22191112
0.0287534 0.0027564657 0.22196095
0.028876297 0.0027182158 0.22201051
0.028983783 0.0026968138 0.22202748
0.029043317 0.0027142467 0.22204965
0.029132033 0.002750593 0.22203593
0.029223954 0.0027640436 0.22201557
0.029314753 0.0027936795 0.22198415
0.029439857 0.0028144137 0.22193688
0.029567868 0.0028350367 0.2218861
0.029671226 0.00288293 0.2218554
0.029810611 0.002952714 0.22182375
0.029955277 0.0029873906 0.22180757
0.028761143 0.0031494689 0.22202428
0.02886695 0.0031300322 0.22204855
0.028953969 0.0031784486 0.22206044
0.029046046 0.0031797451 0.22205244
0.029117394 0.0032177304 0.22203624
0.02924048 0.0032459169 0.22200525
0.029358257 0.0032656947 0.22196405
0.029455844 0.0033188118 0.22192742
0.029580899 0.003331234 0.22188064
0.029695511 0.003377917 0.22185925
0.029823026 0.0034509923 0.22184275
0.029970588 0.0035324933 0.22184123
0.028771054 0.0036323287 0.22206116
0.028856168 0.0036153728 0.22206096
0.028978873 0.0036116096 0.22204839
0.029048651 0.0036340917 0.22203889
0.029163104 0.0036589049 0.22200824
0.029268615 0.003700125 0.22197613
0.029373148 0.0037778739 0.22194448
0.029496484 0.0038392502 0.22190824
0.029610425 0.0038694926 0.2218805
0.029729225 0.0039314833 0.2218671
0.029854879 0.0040019462 0.22186579
0.028813571 0.0040870016 0.22204207
0.028893415 0.0040661208 0.22203444
0.02900729 0.0040575862 0.22200277
0.029091556 0.0040537966 0.22198932
0.029215187 0.0041354294 0.22196643
0.029322172 0.0042108675 0.22194155
0.029407399 0.0042756693 0.22192746
0.029552776 0.0043692132 0.22190547
0.029660799 0.0044674277 0.2218982
0.0297856 0.0045487504 0.2219066
0.029903762 0.0046408162 0.22192444
0.028859386 0.0045994436 0.22200716
0.02895263 0.0045448351 0.22197787
0.029053031 0.0045478786 0.22195189
0.029113952 0.0045400229 0.22194625
0.029235279 0.0046049892 0.22192757
0.029338377 0.0046970667 0.2219239
0.029461922 0.0048083737 0.22192192
0.029590938 0.0049221995 0.22193113
0.029717434 0.0050276737 0.22193789
0.02981678 0.0050646062 0.22194009
0.029924545 0.0051430473 0.22196013
0.028915286 0.0050901966 0.22197337
0.028986944 0.0050548194 0.22195831
0.029104162 0.0050576036 0.22192019
0.029161682 0.0050510266 0.22191326
0.029252801 0.0051048226 0.22190759
0.029372877 0.005240703 0.22191367
0.029496824 0.0053547635 0.22193845
0.029620491 0.0054521854 0.22194681
0.029762512 0.0055502625 0.22196853
0.029847872 0.0055951769 0.22196995
0.028985754 0.005580001 0.22196439
0.029056534 0.0055635502 0.22194618
0.029131163 0.0056139869 0.22192198
0.029187847 0.0056123878 0.22192362
0.029296879 0.0056968117 0.22191651
0.029404277 0.0058324928 0.22194046
0.029553656 0.0059207939 0.22197002
0.029668169 0.0060029686 0.22198181
0.029780658 0.006075609 0.22199965
0.029851198 0.0061093066 0.2220057
0.029008852 0.0061245663 0.22198865
0.029080773 0.0061301277 0.22196266
0.029147232 0.0061410652 0.22195479
0.029254697 0.0061908071 0.22195137
0.029370081 0.0063163117 0.22195782
0.029451562 0.0064125294 0.22198243
0.029570118 0.0064523416 0.22199135
0.029689102 0.0065465276 0.22200535
0.0297755 0.0065630041 0.22201578
0.029852165 0.0066125975 0.22204258
0.029043667 0.0067136437 0.22203304
0.029131696 0.0067655146 0.22201729
0.029192932 0.0067614736 0.22200312
0.029300464 0.0068885046 0.22200072
0.02938273 0.0069149826 0.22199389
0.029481143 0.0069696056 0.22201216
0.029589107 0.0070102382 0.2220213
0.02968692 0.007122715 0.2220434
0.029753687 0.0071052932 0.2220518
0.02981681 0.0070872707 0.22206314
0.029095855 0.0074274265 0.22210109
0.029149031 0.0074107838 0.22207506
0.029225433 0.0074414294 0.22205059
0.029322026 0.007513694 0.22204542
0.029386077 0.0075331717 0.22204775
0.029485375 0.0075617945 0.22204866
0.029583707 0.0075812209 0.22205825
0.029657479 0.0075520608 0.22206403
0.029697414 0.0075511956 0.22206888
0.029751034 0.0075735035 0.22208947
0.029069146 0.008096599 0.22219306
0.029108312 0.0080597522 0.22217125
0.029185472 0.0080788024 0.22213909
0.029256513 0.0081252782 0.22212313
0.029329551 0.0081718527 0.22210713
0.029397113 0.008143696 0.22209758
0.029475212 0.0081991181 0.22210543
0.029540369 0.0081752734 0.2221076
0.029609682 0.00811511 0.22210948
0.029639961 0.0080853002 0.2221134
0.029706391 0.0080726855 0.22211576
0.029119156 0.0087769944 0.22225522
0.029156176 0.0087704333 0.22223473
0.029192783 0.0087226098 0.22220595
0.02927557 0.0087101981 0.22217582
0.029349307 0.0087556522 0.2221718
0.02939561 0.0087585263 0.22216976
0.02945835 0.0087435516 0.22216761
0.029514946 0.008757418 0.22217849
0.029562946 0.0086555984 0.22216922
0.029605104 0.008603516 0.2221586
0.029178774 0.009415945 0.22230785
0.029215081 0.0094223078 0.22229406
0.029241979 0.0093948497 0.22227995
0.029297164 0.0093110465 0.22224483
0.029343849 0.0092945071 0.22223435
0.029388912 0.0093184914 0.22224417
0.029439718 0.0092900954 0.22224063
0.029483218 0.0093255062 0.22225578
0.029520255 0.0092893401 0.22224461
0.029590895 0.0092181247 0.22222786
0.029251099 0.010051339 0.22237481
0.029281145 0.010034336 0.22236568
0.029284827 0.010047168 0.22235578
0.029315449 0.0099420371 0.2223286
0.029342005 0.0098693073 0.22231646
0.029373975 0.0098430635 0.22231379
0.029416766 0.0098689059 0.22232245
0.029466318 0.0098878285 0.22231683
0.02949862 0.0098916152 0.2223255
0.029554864 0.0098056262 0.22230889
0.029267944 0.010613857 0.22243299
0.029273173 0.010603554 0.22242507
0.029294658 0.010570773 0.22241281
0.029310331 0.010499087 0.22239532
0.029340936 0.010459544 0.22238675
0.0293728 0.010433488 0.22237669
0.029411614 0.010441791 0.2223704
0.029438401 0.010447151 0.22239828
0.02948408 0.010436512 0.22239672
0.029536316 0.010459561 0.22240937
0.029237729 0.011180608 0.22246079
0.029259728 0.011141044 0.22246668
0.02929646 0.011107144 0.22245064
0.029326573 0.011047565 0.22243905
0.029348256 0.011025379 0.22242849
0.029366793 0.010981299 0.22243018
0.029404916 0.011010474 0.2224423
0.029442638 0.011000088 0.22245125
0.029489832 0.01098932 0.22246513
0.029521776 0.011015777 0.22248459
0.029181439 0.011721586 0.22248328
0.029228617 0.011727802 0.22247215
0.029256634 0.011670741 0.22247422
0.02927505 0.011632084 0.22247282
0.029312281 0.011611987 0.22246948
0.029333172 0.011568039 0.22247414
0.029353995 0.011523558 0.2224683
0.029391035 0.011495134 0.22248635
0.029417936 0.011529882 0.22250253
0.029447962 0.011541056 0.22251712
0.029480619 0.011552068 0.22254182
0.029173596 0.012297437 0.22249627
0.029206404 0.012241436 0.22249322
0.029221492 0.01222709 0.22249383
0.029252987 0.01224818 0.22249693
0.029283134 0.012185288 0.22250415
0.029310109 0.0121615 0.2225094
0.029330725 0.012116147 0.22251666
0.029364496 0.012092539 0.22252363
0.029384924 0.012065814 0.22253893
0.029411344 0.012062082 0.22255644
0.029438699 0.012055226 0.22257644
0.029144278 0.012862294 0.22250442
0.029167518 0.012763382 0.22249912
0.029182404 0.012808204 0.2225098
0.029213881 0.012790544 0.2225219
0.029252803 0.012768777 0.22253752
0.029273955 0.01274662 0.22254123
0.0292926 0.012702446 0.22254843
0.029313833 0.012617673 0.22255076
0.0293338 0.012591511 0.22256625
0.029359616 0.012588715 0.22258352
0.029386884 0.012524861 0.22259168
0.029094253 0.013414682 0.22253165
0.029121719 0.013335126 0.22253321
0.029140035 0.013315076 0.22253984
0.029171525 0.013319083 0.22255319
0.029199246 0.013278228 0.22255926
0.029224109 0.013254457 0.22257294
0.029238084 0.01319003 0.22257388
0.029264318 0.013145929 0.22258744
0.029274315 0.013080824 0.22258957
0.029299242 0.013078475 0.22260535
0.029325819 0.013014522 0.22261234
0.02903693 0.013952712 0.22255148
0.029056014 0.013934038 0.22255838
0.029079873 0.01385055 0.22256142
0.029109718 0.013832834 0.22256982
0.029138507 0.013770153 0.22257899
0.029158365 0.01370508 0.22258674
0.029176889 0.013660568 0.2225952
0.029198045 0.013574795 0.22259867
0.029213568 0.013573707 0.22260964
0.029237494 0.013490297 0.22261114
0.029261233 0.013448167 0.22261889
0.028965209 0.014495661 0.22256164
0.028985651 0.014432432 0.22256592
0.029009202 0.014348229 0.22257061
0.029033637 0.014285209 0.22257371
0.029063201 0.014244019 0.22258317
0.029092843 0.014158282 0.2225938
0.029106984 0.014093191 0.22259699
0.029130075 0.014028289 0.22260517
0.029140742 0.013985503 0.22260754
0.029168436 0.013943427 0.22261703
0.028904 0.014953797 0.22255693
0.028920863 0.014912232 0.22256032
0.028943134 0.014827211 0.22256705
0.028965665 0.014740838 0.22256961
0.028994221 0.01467844 0.22257498
0.029009527 0.014636208 0.22257936
0.029036604 0.014549582 0.22258969
0.029057598 0.014462968 0.22259517
0.029077657 0.014421196 0.22260161
0.029093059 0.014357144 0.22260535
0.028839963 0.015368341 0.22253822
0.028853424 0.015326414 0.22254276
0.028869387 0.015239302 0.22254413
0.028892597 0.015175948 0.22254962
0.028923014 0.015113733 0.22255771
0.028939093 0.015071397 0.22256249
0.028961936 0.014985523 0.22256856
0.028981969 0.014900128 0.22257401
0.028994644 0.014878263 0.2225783
0.029010646 0.014814167 0.22258262
0.028768707 0.015781738 0.22251585
0.028790578 0.015674524 0.22252241
0.028797714 0.01567621 0.22252344
0.028819138 0.015634228 0.22252582
0.028851107 0.015572413 0.22253586
0.028866785 0.015529945 0.2225396
0.02888881 0.015466548 0.22254379
0.028900646 0.015401228 0.22254711
0.02891814 0.015314876 0.22255218
0.02894461 0.015252589 0.22255802
0.028707938 0.016221935 0.22250065
0.028728604 0.016137196 0.22250603
0.028735649 0.016137969 0.22250527
0.028759951 0.016119391 0.22250946
0.028777389 0.016077276 0.22251382
0.028793041 0.01601213 0.22251756
0.028815951 0.01592611 0.22252244
0.028832993 0.015815936 0.22252761
0.028844086 0.015774107 0.22252962
0.028621137 0.016745223 0.22248068
0.028641395 0.016637372 0.22248501
0.028660256 0.016597619 0.2224863
0.028670348 0.016643681 0.2224862
0.028697353 0.01658126 0.22249323
0.02871581 0.016494261 0.22249949
0.028730465 0.016428985 0.2225042
0.028743358 0.016386729 0.22250544
0.028760048 0.016276328 0.22250891
0.028778583 0.01618972 0.22251527
0.028561506 0.01716491 0.22246879
0.028567197 0.017143698 0.22246611
0.028586708 0.017147386 0.2224686
0.028607482 0.017083714 0.22247383
0.028632985 0.016998278 0.22248107
0.028651254 0.016910965 0.22248775
0.028665034 0.016868003 0.22249092
0.028678538 0.016803058 0.22249459
0.0286927 0.016714778 0.2224987
0.028714299 0.016628701 0.22250278
0.028440729 0.017775726 0.22244407
0.028465895 0.017690843 0.22244732
0.028484369 0.0176486 0.22245002
0.028508613 0.017607005 0.22245239
0.028534057 0.01752162 0.22245938
0.028559545 0.01743624 0.22246657
0.028575897 0.017371243 0.22247171
0.028600056 0.017285373 0.22247785
0.028616915 0.017197635 0.22248213
0.028629648 0.017109089 0.22248547
0.028648557 0.017045081 0.22249113
0.028370235 0.018214889 0.22242464
0.028396048 0.018129557 0.22242901
0.028418256 0.01806584 0.22243282
0.028441457 0.018002035 0.22243844
0.028468646 0.017938808 0.22244421
0.028485822 0.017874159 0.22244972
0.028501971 0.017809147 0.22245456
0.02852577 0.017723257 0.22246066
0.028545182 0.017613159 0.2224655
0.028563526 0.01752652 0.22246984
0.028576806 0.017484371 0.22247304
0.028314739 0.018589444 0.22240996
0.028335318 0.018525481 0.22241265
0.028350487 0.018482426 0.22241621
0.028367531 0.018439746 0.22241947
0.028394764 0.018376596 0.2224246
0.02841167 0.018311892 0.22242935
0.028427539 0.018246846 0.2224334
0.028456099 0.018093411 0.22243983
0.02846715 0.018027581 0.22244345
0.02848994 0.017941948 0.22244951
0.028509293 0.017902249 0.2224533
0.028248709 0.019005738 0.22239383
0.028269608 0.018942086 0.2223959
0.02828482 0.018899146 0.22239782
0.028301895 0.018856606 0.2223995
0.02832072 0.018814133 0.22240335
0.028337363 0.018749377 0.22240733
0.028354157 0.018661862 0.22241092
0.028382502 0.018531661 0.22241715
0.028393136 0.018442959 0.22242193
0.028414512 0.018379461 0.2224281
0.028434834 0.018360896 0.22243056
0.028182235 0.019466177 0.22237194
0.028204385 0.019402439 0.22237267
0.028220635 0.019359345 0.22237277
0.028238734 0.019316619 0.22237268
0.02825609 0.019252028 0.22237585
0.028272459 0.019187178 0.22237876
0.028292121 0.019055322 0.22238483
0.028309347 0.018990686 0.2223897
0.028323812 0.01892522 0.22239535
0.028346166 0.018816628 0.22240447
0.028116731 0.019903904 0.22234429
0.028139211 0.019840129 0.22234428
0.028155478 0.019775279 0.22234668
0.02817269 0.019732405 0.22234495
0.028189626 0.019645104 0.22234996
0.028207365 0.019579744 0.22234994
0.02822705 0.019492669 0.22235282
0.028243812 0.019427946 0.22235724
0.028259471 0.019340526 0.2223648
0.028279966 0.01925399 0.22237329
0.028041113 0.020360099 0.22230884
0.02806478 0.02029814 0.22230992
0.028081188 0.020233411 0.22231238
0.028107107 0.020147812 0.22231528
0.028124129 0.020082112 0.22231582
0.028142877 0.019994773 0.22231896
0.028161623 0.019929595 0.22231801
0.028177908 0.019864777 0.22232196
0.028190821 0.019776719 0.22233362
0.028213207 0.01969072 0.22233774
0.027973158 0.020796418 0.22227252
0.027990308 0.02075479 0.22227286
0.028007183 0.020711571 0.22227128
0.028033016 0.020626374 0.22227436
0.028050888 0.020539224 0.22227894
0.028068729 0.020452125 0.2222832
0.028095091 0.020344416 0.22228785
0.028110804 0.020256594 0.2222953
0.02812594 0.020191312 0.22229782
0.028143436 0.020149561 0.22229861
0.02786986 0.021293122 0.22223675
0.02789695 0.021231703 0.22224087
0.027914912 0.021190355 0.2222425
0.027932271 0.02114738 0.22224225
0.027958116 0.02106216 0.22224532
0.027976274 0.020952836 0.22225292
0.027994115 0.02086593 0.22225742
0.028020065 0.020780142 0.22225894
0.028035255 0.020714646 0.22226098
0.028058659 0.020629195 0.22226326
0.028071975 0.020563422 0.22226703
0.02778584 0.021750286 0.22220483
0.027814938 0.021689052 0.22221002
0.02783967 0.021625994 0.2222133
0.02785706 0.021560762 0.22221747
0.0278829 0.021475816 0.22222102
0.027901191 0.021366859 0.22222868
0.027919643 0.021302028 0.22223054
0.027945291 0.021216154 0.22223215
0.027959617 0.021173296 0.22223163
0.027987553 0.021043047 0.22223644
0.028003985 0.021023454 0.22223225
0.027699698 0.022251535 0.22216943
0.027731543 0.02216823 0.22217675
0.027755521 0.022082234 0.22218297
0.027782202 0.021996221 0.22218724
0.027808702 0.021889171 0.22219399
0.027828155 0.021824656 0.22219744
0.027846685 0.021759875 0.22220093
0.027872268 0.021673987 0.2222041
0.027886385 0.021631105 0.22220418
0.027905276 0.021545306 0.22220419
0.027937043 0.0214379 0.22220568
0.027616546 0.022732129 0.22213162
0.027639454 0.022666676 0.2221365
0.02766449 0.022603057 0.22214097
0.027699731 0.022496877 0.22214851
0.027726214 0.022367347 0.22215791
0.027745619 0.022303067 0.22216247
0.027771045 0.022240279 0.22216563
0.027793201 0.022154449 0.2221718
0.02781417 0.022067545 0.222177
0.027831616 0.022026598 0.22217473
0.027850736 0.021918507 0.22217895
0.02754101 0.023188977 0.22208999
0.027557472 0.023145182 0.22209331
0.027584024 0.023081714 0.22209857
0.027611518 0.022995476 0.22210392
0.027631784 0.022886848 0.22211237
0.027653089 0.022823237 0.22211851
0.027682293 0.02273923 0.22212656
0.027710343 0.022632401 0.2221356
0.027735779 0.022547863 0.22214122
0.027754873 0.022483872 0.22214524
0.027458033 0.02366459 0.22204377
0.02748285 0.023621578 0.22204623
0.027508225 0.023514185 0.2220556
0.027527131 0.023427712 0.22206306
0.02754721 0.023341808 0.22207068
0.027568525 0.023278195 0.22207792
0.027597606 0.02319425 0.22208747
0.027624963 0.023109537 0.22209738
0.02765077 0.023003105 0.22210631
0.027680902 0.022897838 0.22211434
0.027350986 0.024183495 0.22200142
0.027389122 0.024078513 0.22200939
0.027414734 0.024014857 0.22201476
0.027433004 0.023926128 0.22202055
0.027453115 0.023839999 0.22202747
0.027474163 0.023754293 0.22203507
0.027495267 0.023668563 0.22204286
0.027521877 0.023606852 0.22205134
0.027539643 0.023565361 0.22205831
0.027565051 0.023458876 0.22206825
0.027290164 0.024577647 0.22197329
0.027313421 0.024513312 0.22197822
0.027338812 0.024426771 0.22198437
0.02735734 0.024339836 0.22199075
0.027378788 0.02427539 0.22199617
0.02739978 0.024189672 0.22200328
0.027420815 0.024103921 0.22201063
0.027448036 0.02401977 0.22201985
0.027464122 0.02397774 0.2220263
0.027485976 0.023892891 0.22203566
0.027223671 0.024992291 0.22194904
0.02724795 0.024906781 0.22195476
0.027264772 0.024863835 0.22195967
0.027282974 0.024798442 0.22196558
0.027302573 0.024711994 0.22197083
0.027322514 0.024625849 0.22197704
0.027347466 0.024472905 0.22198458
0.027376465 0.024387941 0.22199251
0.027387604 0.024390081 0.22199707
0.027409971 0.024328029 0.22200643
0.027147178 0.025405839 0.22192428
0.0271718 0.025320759 0.22193058
0.027188946 0.025278131 0.22193576
0.027216969 0.025215566 0.22194436
0.027227649 0.025172263 0.22194846
0.027247511 0.025040647 0.22195406
0.027272912 0.024909372 0.22196114
0.027300695 0.02482402 0.22196928
0.027311545 0.024803853 0.22197403
0.027333384 0.024741337 0.22198272
0.027071038 0.025818532 0.22189996
0.027095744 0.025755621 0.22190653
0.027114263 0.025713343 0.22191253
0.027141627 0.02562914 0.22192091
0.027160078 0.025565308 0.22192785
0.027170641 0.02552193 0.221931
0.027204828 0.02537081 0.22194049
0.027225239 0.025239075 0.22194965
0.027241532 0.025196714 0.22195658
0.027266391 0.025111858 0.221965
0.026995195 0.026230326 0.22187541
0.0270203 0.026167756 0.22188166
0.027039008 0.026125588 0.22188683
0.027057709 0.026061986 0.22189188
0.027076866 0.025998393 0.22189853
0.027099771 0.025889982 0.22190593
0.027130138 0.025761945 0.22191517
0.027150044 0.025675343 0.2219262
0.027175952 0.025568381 0.22193666
0.027198859 0.02550518 0.22194503
0.026888147 0.026768597 0.22184217
0.026920374 0.026664173 0.22184941
0.026945846 0.026601519 0.22185463
0.026964743 0.026559256 0.22185868
0.026983544 0.026495649 0.22186336
0.027004566 0.026409622 0.22187026
0.027026545 0.026301544 0.22187746
0.027051937 0.026217412 0.22188544
0.027070638 0.026131559 0.22189488
0.027101582 0.026025319 0.22190915
0.027134076 0.025898049 0.22192225
0.026812371 0.027201669 0.2218121
0.026844941 0.027118633 0.22181566
0.026871605 0.027055841 0.22181898
0.026889665 0.026992045 0.22182393
0.026908603 0.026928499 0.22182836
0.026930947 0.026798153 0.22183609
0.026952002 0.026712617 0.22184393
0.026976945 0.026628448 0.22185126
0.027000777 0.026542904 0.22186384
0.02702672 0.026436452 0.22187504
0.02674618 0.027637988 0.22177596
0.026768981 0.027550811 0.22177869
0.026795357 0.027465159 0.22178087
0.026813967 0.027379178 0.22178647
0.026834439 0.027293993 0.22179221
0.026857067 0.027230581 0.221799
0.026878817 0.027166925 0.22180609
0.026908034 0.027060967 0.22181584
0.026926843 0.026996782 0.22182398
0.026952377 0.02689019 0.2218352
0.026679562 0.028073702 0.22173622
0.026702965 0.027986666 0.22173932
0.026720112 0.027899591 0.22174518
0.026739161 0.027813338 0.22175114
0.026760077 0.027727913 0.22175734
0.026781082 0.027642138 0.22176445
0.026803637 0.027578203 0.22177075
0.026833273 0.027493577 0.22177885
0.026851568 0.027428942 0.22178607
0.0268752 0.027343422 0.2217951
0.026611453 0.028489018 0.22169913
0.026635606 0.028402215 0.22170331
0.026653126 0.028315138 0.2217095
0.02667255 0.028228903 0.22171594
0.026685046 0.028163634 0.2217219
0.026706109 0.028077476 0.22172877
0.026728539 0.028013185 0.22173451
0.026757827 0.027927978 0.22174132
0.026769839 0.027884724 0.22174622
0.026791822 0.027798625 0.22175461
0.026542775 0.028904907 0.22165969
0.026567833 0.02881851 0.22166613
0.026585782 0.028731497 0.22167324
0.026605606 0.028645284 0.22168033
0.026618311 0.028579988 0.22168656
0.026639462 0.028493663 0.22169369
0.026661769 0.028429145 0.22169916
0.026681885 0.028364437 0.22170487
0.026699128 0.02829886 0.22171021
0.026714372 0.028233927 0.22171539
0.026473531 0.029321166 0.22161756
0.026499296 0.029234996 0.22162466
0.0265177 0.029148111 0.22163293
0.026537955 0.029061986 0.22164088
0.0265509 0.028996691 0.22164768
0.026572196 0.028910337 0.22165585
0.026593417 0.028823912 0.22166328
0.026614157 0.028758895 0.22166921
0.026632033 0.028693002 0.22167477
0.026654704 0.028605659 0.22168107
0.026379423 0.029799493 0.22157195
0.026403738 0.029737607 0.22157295
0.02643002 0.029651508 0.22157922
0.026448797 0.029564667 0.22158794
0.026469434 0.029478585 0.22159635
0.02648261 0.029413324 0.22160374
0.026500724 0.029349266 0.22161046
0.02652551 0.029240662 0.22162193
0.026545959 0.029175516 0.22162877
0.026562281 0.029131005 0.22163221
0.026580013 0.029064892 0.22163504
0.026300645 0.030238384 0.22152701
0.026317766 0.030194541 0.22153175
0.026352586 0.030111412 0.22153284
0.026379382 0.029981369 0.22154067
0.026400162 0.029895179 0.22154789
0.026409326 0.029852036 0.22155264
0.026440289 0.029745063 0.2215637
0.026454363 0.029679706 0.22157201
0.026475593 0.029614827 0.22158065
0.026490523 0.029569203 0.22158654
0.026507221 0.029481584 0.22159524
0.026221775 0.030676808 0.22148117
0.026247807 0.030613407 0.22148347
0.026274601 0.030549876 0.22148618
0.026301812 0.030419789 0.22149232
0.026314424 0.030354107 0.22150001
0.02634437 0.030247105 0.22150837
0.026362762 0.03018296 0.22151457
0.026385115 0.030096533 0.22152266
0.026406104 0.030031562 0.22153273
0.02641779 0.029964088 0.22154342
0.026152758 0.031118607 0.22142993
0.026170516 0.031074869 0.22143489
0.026195275 0.030966135 0.22144206
0.02621552 0.030856768 0.22144897
0.026235994 0.030770274 0.22145565
0.026266074 0.030663101 0.22146347
0.026286006 0.03062072 0.22146754
0.026316402 0.030513123 0.22147733
0.026337149 0.030447626 0.22148792
0.026362684 0.030359456 0.2214988
0.026040496 0.031644117 0.22136556
0.026072837 0.031559668 0.22137444
0.026098106 0.031472385 0.22138138
0.026116468 0.031384662 0.22139089
0.026130747 0.031319506 0.22139513
0.026153661 0.031232746 0.22140677
0.026185013 0.031125339 0.22141467
0.026208693 0.031060277 0.22142078
0.026230533 0.030973405 0.22143286
0.026266206 0.030864604 0.22144197
0.026284795 0.030799028 0.22145247
0.025967795 0.03208654 0.22130367
0.02599317 0.032022018 0.22131218
0.026018783 0.031913396 0.22132541
0.026030976 0.031847641 0.22133236
0.026058828 0.031739324 0.22134306
0.026075481 0.031674143 0.22135338
0.026098233 0.031587243 0.22136353
0.026129631 0.031479683 0.22137561
0.026160931 0.031393081 0.22138286
0.026187679 0.031304859 0.22139263
0.026205461 0.031238932 0.22140285
0.025896398 0.032506935 0.22124995
0.025916772 0.032418802 0.22125988
0.025936717 0.032354347 0.22126944
0.02595794 0.032267336 0.22128069
0.025980843 0.032180853 0.22129007
0.026004713 0.032094378 0.22130167
0.026028285 0.032007545 0.22131059
0.026056761 0.031899489 0.22132564
0.026079731 0.03183401 0.22133398
0.026108643 0.031747334 0.22134458
0.026133619 0.031658787 0.22135314
0.025828987 0.032883234 0.22120965
0.025846319 0.032818262 0.22121635
0.025867911 0.03275279 0.22122458
0.025890308 0.032666296 0.22123528
0.025905821 0.032600641 0.22124308
0.025934691 0.032491758 0.22125539
0.025958348 0.032404982 0.22126481
0.025981069 0.032318465 0.22127663
0.026002558 0.032252651 0.22128485
0.026029842 0.032165512 0.22129551
0.026053743 0.032100368 0.22130103
0.01042837 0.053433675 0.31758547
0.010449024 0.053464681 0.31755981
0.02575996 0.033303939 0.22117099
0.02577783 0.033239294 0.22117639
0.025799558 0.033173859 0.22118245
0.025821993 0.033087455 0.22119136
0.025842374 0.032999553 0.22119935
0.025865916 0.032912899 0.2212083
0.025877774 0.032869708 0.22121364
0.025901025 0.032783329 0.2212245
0.025922963 0.032717708 0.2212324
0.025951125 0.032585707 0.22124794
0.010348496 0.0538547 0.3174009
0.010392076 0.053851884 0.31738544
0.010411388 0.053818706 0.31738949
0.025691958 0.033745833 0.22113265
0.025719071 0.033659294 0.22113787
0.025738642 0.033572085 0.22114506
0.025754355 0.033507872 0.22115076
0.025769792 0.033442341 0.22115614
0.025794115 0.033355899 0.22116384
0.025809623 0.033290174 0.22116961
0.025833793 0.033225328 0.22117661
0.025855213 0.033159565 0.22118376
0.025882209 0.033072758 0.22119419
0.010328605 0.054163635 0.31732908
0.010350992 0.05412861 0.31732386
0.010368573 0.054093484 0.31732112
0.025616152 0.034209721 0.22109173
0.02564379 0.034123059 0.22109635
0.025663577 0.034035902 0.22110301
0.025685268 0.033949584 0.22110985
0.025703847 0.033885047 0.22111478
0.025728004 0.033798404 0.22112101
0.025743281 0.033732545 0.22112598
0.025760975 0.033689272 0.22112972
0.025780847 0.033623394 0.22113602
0.025804365 0.03355829 0.22114323
0.010303277 0.054384839 0.31731912
0.010303277 0.054384843 0.3173191
0.010319345 0.054347098 0.31730843
0.010319344 0.054347098 0.31730837
0.025504375 0.034801915 0.22103621
0.025540162 0.034671597 0.22104639
0.025566965 0.034563694 0.22105585
0.025587188 0.034476697 0.22106339
0.025603889 0.034412637 0.22106965
0.025628043 0.034325968 0.22107585
0.0256522 0.034239318 0.22108206
0.025670873 0.034174562 0.22108629
0.025693078 0.034130864 0.22108871
0.025701055 0.034085613 0.22109373
0.010295585 0.054577224 0.31730756
0.010295584 0.054577228 0.31730753
0.010295583 0.054577228 0.31730756
0.025433684 0.035220638 0.22098628
0.02544976 0.035153985 0.2209906
0.025481828 0.035024337 0.22100416
0.025503533 0.034937743 0.22101317
0.025527097 0.034851924 0.22102205
0.025551433 0.03476556 0.22102998
0.025575725 0.034679141 0.22103742
0.025593914 0.034614362 0.22104159
0.025615441 0.034570638 0.22104377
0.025631007 0.0344822 0.22105579
0.010288208 0.054777548 0.31728998
0.010288208 0.054777563 0.31729001
0.010288208 0.054777563 0.31728998
0.010288206 0.054777566 0.31729001
0.010288206 0.054777563 0.31729004
0.025365166 0.035614006 0.22093049
0.025382731 0.035547927 0.22093324
0.025402946 0.035460763 0.22094308
0.025425041 0.035374384 0.22095281
0.025448993 0.035288788 0.22096245
0.025473522 0.035202831 0.22097234
0.025498014 0.035116814 0.22098167
0.025521316 0.035030697 0.22099
0.02553881 0.034964781 0.2209989
0.025558306 0.03487733 0.2210118
0.010266921 0.055026852 0.31727326
0.010266922 0.055026866 0.31727329
0.010266922 0.055026859 0.31727332
0.010280957 0.054984033 0.31726202
0.010280957 0.054984029 0.31726205
0.010290929 0.054942012 0.31725785
0.010296762 0.054900695 0.31726021
0.025293497 0.036027282 0.22086449
0.025311725 0.035961606 0.22086704
0.025332181 0.035874821 0.22087689
0.025354508 0.03578883 0.22088665
0.025370058 0.035723813 0.22089493
0.025394687 0.035638183 0.22090596
0.025419286 0.035552502 0.22091657
0.025442498 0.035466895 0.22092724
0.025459485 0.035401586 0.2209391
0.025484925 0.035292931 0.2209571
0.010222593 0.055285133 0.31727445
0.010229823 0.055324282 0.31726456
0.010229825 0.055324282 0.31726459
0.010247224 0.055281248 0.31725451
0.01026067 0.05523818 0.31724697
0.010260669 0.05523818 0.317247
0.010283857 0.055155065 0.3172338
0.010289471 0.055112362 0.31723663
0.025222115 0.036439482 0.22079837
0.02524133 0.036374681 0.22080337
0.025262039 0.036288239 0.22081327
0.025284577 0.036202557 0.22082286
0.025300168 0.03613767 0.22083059
0.025324706 0.036052275 0.22084138
0.025340566 0.035987679 0.22085069
0.025355499 0.035922818 0.22086008
0.025379553 0.035880297 0.22086719
0.025413973 0.035774067 0.22088186
0.010196162 0.055625115 0.31726259
0.010196161 0.055625115 0.31726259
0.010212626 0.055582035 0.31725425
0.01022532 0.055539064 0.31724906
0.010242141 0.055498745 0.31723914
0.010264315 0.055414643 0.3172304
0.010269545 0.055370834 0.31723177
0.025143901 0.036897764 0.22073336
0.025172967 0.036812007 0.22074391
0.025194064 0.036725678 0.22075456
0.025217047 0.036640175 0.22076537
0.025232764 0.036575288 0.22077303
0.025257234 0.036489766 0.22078313
0.02527287 0.036425006 0.22079158
0.025287591 0.036360033 0.22080036
0.02530569 0.036317211 0.22080614
0.025335135 0.036232471 0.22081815
0.010165874 0.055931456 0.31727901
0.010165873 0.055931464 0.31727907
0.01018144 0.055887882 0.31726983
0.010193398 0.05584453 0.31726432
0.010217777 0.055760339 0.31725377
0.010234929 0.055675104 0.31724814
0.010252409 0.055590879 0.31723776
0.025067089 0.037356682 0.22067793
0.025095252 0.037249796 0.22069225
0.025116758 0.037163623 0.22070359
0.025140129 0.037078213 0.22071488
0.025164705 0.036992505 0.22072551
0.025189314 0.036906805 0.22073612
0.025204785 0.036841724 0.22074403
0.025219297 0.036776319 0.22075179
0.025237046 0.036733031 0.22075665
0.025265524 0.036624216 0.22076926
0.010127509 0.056156486 0.31730336
0.010138399 0.056241747 0.31730679
