# .PCD v0.7 - Point Cloud Data file format
VERSION 0.7
FIELDS x y z
SIZE 4 4 4
TYPE F F F
COUNT 1 1 1
WIDTH 1396
HEIGHT 1
VIEWPOINT 0 0 0 1 0 0 0
POINTS 1396
DATA ascii
-0.096504427 0.12565383 0.29861704
-0.095860995 0.12560907 0.29851064
-0.095184051 0.12551954 0.29829788
-0.094474241 0.12538524 0.29797873
-0.093799248 0.12529571 0.29776597
-0.09312512 0.12520617 0.29755318
-0.092484944 0.12516142 0.29744682
-0.091746613 0.12498236 0.29702127
-0.090944745 0.12471378 0.29638299
-0.090177886 0.12448995 0.29585105
-0.089509845 0.12440042 0.29563829
-0.088906646 0.12440042 0.29563829
-0.088303454 0.12440042 0.29563829
-0.087637141 0.1243109 0.29542553
-0.086940356 0.1241766 0.29510638
-0.08621376 0.12399755 0.29468086
-0.085488886 0.12381849 0.29425532
-0.084765755 0.12363943 0.2938298
-0.084074832 0.12350514 0.29351065
-0.08335495 0.12332607 0.2930851
-0.082636811 0.12314702 0.29265958
-0.081950232 0.12301273 0.29234043
-0.08126495 0.12287843 0.29202127
-0.080610357 0.12278891 0.29180852
-0.079956643 0.12269938 0.29159576
-0.079245873 0.12252031 0.29117021
-0.078536853 0.12234126 0.29074469
-0.077858083 0.12220697 0.29042554
-0.077180617 0.12207267 0.29010639
-0.076560624 0.1220279 0.28999999
-0.075968929 0.1220279 0.28999999
-0.075349592 0.12198315 0.28989363
-0.074730687 0.12193838 0.28978723
-0.074084997 0.12184885 0.28957447
-0.073440172 0.12175933 0.28936172
-0.072769433 0.12162503 0.28904256
-0.07207343 0.12144597 0.28861701
-0.071405515 0.12131167 0.28829786
-0.070712775 0.12113262 0.28787234
-0.070021763 0.12095355 0.2874468
-0.069306791 0.12072974 0.28691489
-0.068543032 0.12041639 0.28617021
-0.06780757 0.12014779 0.28553191
-0.067124814 0.11996874 0.28510639
-0.066493444 0.11987921 0.2848936
-0.065887563 0.11983445 0.28478724
-0.065257721 0.11974493 0.28457448
-0.064628735 0.11965539 0.28436169
-0.063976675 0.1195211 0.28404257
-0.063325904 0.11938681 0.28372341
-0.062676437 0.11925251 0.28340426
-0.062051587 0.11916298 0.2831915
-0.06145069 0.11911822 0.28308511
-0.060804479 0.11898392 0.28276595
-0.060182232 0.1188944 0.2825532
-0.059538409 0.1187601 0.28223404
-0.058895886 0.1186258 0.28191489
-0.058276679 0.11853628 0.28170213
-0.057680126 0.11849152 0.28159574
-0.057105582 0.11849152 0.28159574
-0.056531038 0.11849152 0.28159574
-0.055914219 0.11840199 0.28138298
-0.055256423 0.11822294 0.28095746
-0.054641765 0.1181334 0.28074467
-0.054048475 0.11808864 0.28063831
-0.05345561 0.11804387 0.28053191
-0.052843131 0.11795434 0.28031915
-0.052191839 0.11777528 0.27989361
-0.051522668 0.11755146 0.2793617
-0.050855666 0.11732764 0.27882978
-0.050210025 0.11714859 0.27840427
-0.049566116 0.11696952 0.27797872
-0.048942696 0.11683523 0.27765957
-0.048302047 0.11665618 0.27723405
-0.047644813 0.11643235 0.27670214
-0.04698975 0.11620853 0.27617022
-0.046390507 0.116119 0.27595744
-0.045809802 0.11607423 0.27585107
-0.045229528 0.11602947 0.27574468
-0.044666924 0.11602947 0.27574468
-0.044087306 0.11598472 0.27563831
-0.043524917 0.11598472 0.27563831
-0.042962529 0.11598472 0.27563831
-0.04236741 0.11589517 0.27542552
-0.04175701 0.11576088 0.27510637
-0.041131988 0.11558183 0.27468085
-0.040492989 0.115358 0.27414894
-0.039871652 0.11517894 0.27372339
-0.039282613 0.11508942 0.27351063
-0.038709503 0.11504465 0.27340424
-0.038136832 0.11499989 0.27329788
-0.037535332 0.11486559 0.27297872
-0.03692073 0.11468654 0.27255321
-0.03630786 0.11450748 0.27212766
-0.035682749 0.11428366 0.27159575
-0.03505981 0.11405984 0.27106383
-0.034452584 0.11388077 0.27063829
-0.033873748 0.11379124 0.27042553
-0.033321995 0.11379124 0.27042553
-0.032783136 0.11383601 0.27053192
-0.032231163 0.11383601 0.27053192
-0.031666737 0.11379124 0.27042553
-0.031090504 0.11370172 0.27021277
-0.030491089 0.11352266 0.26978722
-0.029905224 0.11338837 0.2694681
-0.029320657 0.11325408 0.26914895
-0.028726019 0.11307501 0.2687234
-0.02813312 0.11289597 0.26829788
-0.027541954 0.1127169 0.26787233
-0.02697397 0.11262737 0.26765957
-0.026406854 0.11253785 0.26744682
-0.025840607 0.11244832 0.26723406
-0.025265155 0.11231402 0.2669149
-0.024700858 0.11222449 0.26670212
-0.024137432 0.11213496 0.26648936
-0.023574874 0.11204544 0.2662766
-0.023022383 0.11200067 0.2661702
-0.022470329 0.11195591 0.26606384
-0.021909939 0.11186637 0.26585105
-0.021358971 0.11182161 0.26574469
-0.020791769 0.11168732 0.26542553
-0.020233985 0.11159779 0.26521277
-0.019677069 0.11150826 0.26499999
-0.019121021 0.11141873 0.26478723
-0.018550914 0.11123968 0.26436171
-0.017975293 0.11101586 0.2638298
-0.0034719254 0.13277137 0.31553191
-0.0027966758 0.13129415 0.31202129
-0.002146062 0.13044363 0.31
-0.0015094097 0.13008551 0.30914894
-0.00087804458 0.12999599 0.30893618
-0.00024814476 0.1302198 0.30946809
0.00038458436 0.13066745 0.31053191
0.0010244451 0.1314732 0.3124468
0.0016777783 0.13272662 0.31542554
0.0023471811 0.13420384 0.31893617
0.014331931 0.090648025 0.21542554
0.014800644 0.090827085 0.21585107
0.015256071 0.090916611 0.21606383
0.015696909 0.090916611 0.21606383
0.016137747 0.090916611 0.21606383
0.016578585 0.090916611 0.21606383
0.017019423 0.090916611 0.21606383
0.017443066 0.090827085 0.21585107
0.017848214 0.090648025 0.21542554
0.018242596 0.090424202 0.21489362
0.018653302 0.090289906 0.21457447
-0.18291552 0.1221248 0.28882977
-0.18232623 0.1221248 0.28882977
-0.1818708 0.12221477 0.28904256
-0.18148124 0.12234972 0.28936172
-0.18115686 0.12252963 0.28978723
-0.18083076 0.12270956 0.29021278
-0.18037076 0.12279953 0.29042554
-0.17984405 0.1228445 0.2905319
-0.17938256 0.12293448 0.29074469
-0.1789856 0.12306941 0.29106382
-0.17865254 0.12324934 0.29148936
-0.1781228 0.12329432 0.29159576
-0.17752786 0.12329432 0.29159576
-0.17686836 0.12324934 0.29148936
-0.17627363 0.12324934 0.29148936
-0.17587125 0.12338429 0.29180852
-0.17553146 0.12356421 0.29223403
-0.17525361 0.12378911 0.29276595
-0.17484668 0.12392406 0.2930851
-0.17437521 0.12401403 0.29329789
-0.17377679 0.12401403 0.29329789
-0.17324117 0.12405901 0.29340425
-0.17276773 0.12414896 0.29361701
-0.17241818 0.1243289 0.29404256
-0.17206688 0.12450882 0.29446808
-0.17171387 0.12468875 0.29489362
-0.17142084 0.12491366 0.29542553
-0.17100261 0.12504861 0.29574469
-0.1705218 0.12513857 0.29595745
-0.16997904 0.12518355 0.29606384
-0.16943581 0.12522852 0.2961702
-0.16901347 0.12536347 0.29648936
-0.16871066 0.12558837 0.29702127
-0.1684057 0.12581328 0.29755318
-0.16809855 0.12603819 0.29808509
-0.1676697 0.12617314 0.29840425
-0.16700131 0.12612817 0.29829788
-0.16579926 0.12567833 0.29723403
-0.16412859 0.12486867 0.29531914
-0.1622301 0.12387908 0.29297873
-0.16039984 0.12293448 0.29074469
-0.15892953 0.12225974 0.28914893
-0.15781528 0.12185492 0.2881915
-0.15699512 0.12167498 0.28776595
-0.15652362 0.12176494 0.28797871
-0.1563969 0.1221248 0.28882977
-0.15666841 0.12279953 0.29042554
-0.15727644 0.12374414 0.29265958
-0.15787534 0.12468875 0.29489362
-0.15835167 0.1255434 0.29691491
-0.15859365 0.12621813 0.29851064
-0.15866022 0.12675789 0.29978722
-0.15855333 0.12716272 0.30074468
-0.15827493 0.12743263 0.30138299
-0.15793827 0.12765753 0.3019149
-0.1573777 0.1277025 0.30202127
-0.15665105 0.12761255 0.30180851
-0.15592527 0.12752259 0.30159575
-0.15530993 0.12752259 0.30159575
-0.15480371 0.12761255 0.30180851
-0.15440533 0.12779248 0.30223405
-0.15395105 0.12792741 0.30255318
-0.15349549 0.12806235 0.30287233
-0.15303864 0.1281973 0.30319148
-0.15268743 0.12842222 0.30372339
-0.15228081 0.12860215 0.30414894
-0.15187243 0.12878206 0.30457446
-0.15146233 0.128962 0.30500001
-0.15105048 0.12914191 0.30542552
-0.1506369 0.12932184 0.30585107
-0.15032592 0.12959173 0.30648935
-0.14996041 0.12981665 0.30702129
-0.14948921 0.12995158 0.30734041
-0.14881063 0.12990661 0.30723405
-0.14802983 0.12977166 0.3069149
-0.14725035 0.12963672 0.30659574
-0.14647217 0.12950176 0.30627659
-0.14584728 0.12950176 0.30627659
-0.14527282 0.12954675 0.30638298
-0.14489883 0.12977166 0.3069149
-0.14462267 0.13008653 0.30765957
-0.14439328 0.13044637 0.30851063
-0.14411084 0.13076125 0.30925533
-0.14362793 0.1308962 0.30957446
-0.1429963 0.1308962 0.30957446
-0.14236467 0.1308962 0.30957446
-0.14183046 0.13098617 0.30978724
-0.14134386 0.13112111 0.3101064
-0.14085595 0.13125604 0.31042552
-0.14031871 0.13134602 0.31063831
-0.13982843 0.13148096 0.31095746
-0.13928922 0.13157092 0.31117022
-0.13879654 0.13170587 0.31148937
-0.13825537 0.13179582 0.31170213
-0.13766636 0.1318408 0.3118085
-0.13712369 0.13193077 0.31202129
-0.13658014 0.13202074 0.31223404
-0.1359894 0.13206571 0.31234044
-0.13539822 0.1321107 0.3124468
-0.13480662 0.13215569 0.3125532
-0.13430592 0.13229063 0.31287235
-0.13375846 0.13238059 0.31308511
-0.13325536 0.13251553 0.31340426
-0.13270596 0.13260549 0.31361702
-0.13220048 0.13274044 0.31393617
-0.13164911 0.1328304 0.31414893
-0.13105251 0.13287538 0.31425533
-0.13041134 0.13287538 0.31425533
-0.12977016 0.13287538 0.31425533
-0.1292164 0.13296534 0.31446809
-0.12870528 0.13310029 0.31478724
-0.12823613 0.13328022 0.31521276
-0.12776524 0.13346015 0.3156383
-0.12720694 0.13355011 0.31585106
-0.12651986 0.13350512 0.31574467
-0.12579083 0.13341516 0.31553191
-0.12493607 0.13319026 0.315
-0.12399954 0.13287538 0.31425533
-0.12298252 0.13247055 0.31329787
-0.12188633 0.13197576 0.31212765
-0.12079491 0.13148096 0.31095746
-0.1198727 0.13116609 0.31021276
-0.11907621 0.13098617 0.30978724
-0.11836278 0.1308962 0.30957446
-0.11765024 0.13080624 0.3093617
-0.11689833 0.13067128 0.30904254
-0.11618774 0.13058132 0.30882978
-0.11543821 0.13044637 0.30851063
-0.1146504 0.13026646 0.30808511
-0.11378557 0.12999657 0.30744681
-0.11296251 0.12977166 0.3069149
-0.11214162 0.12954675 0.30638298
-0.11136162 0.12936682 0.30595744
-0.11050635 0.12909694 0.30531916
-0.10969197 0.12887204 0.30478725
-0.10880361 0.12855716 0.30404255
-0.10799401 0.12833224 0.30351064
-0.10722421 0.12815233 0.30308512
-0.10653098 0.12806235 0.30287233
-0.10580142 0.12792741 0.30255318
-0.10499919 0.1277025 0.30202127
-0.10416238 0.12743263 0.30138299
-0.10336471 0.12720771 0.30085108
-0.10267821 0.12711774 0.30063829
-0.10210093 0.12716272 0.30074468
-0.10152322 0.12720771 0.30085108
-0.10090939 0.12720771 0.30085108
-0.10018916 0.12707277 0.30053192
-0.099329241 0.12675789 0.29978722
-0.098472364 0.12644303 0.29904255
-0.097653337 0.12617314 0.29840425
-0.096940711 0.12603819 0.29808509
-0.096298151 0.12599321 0.29797873
-0.095621854 0.12590325 0.29776597
-0.094946422 0.12581328 0.29755318
-0.094204411 0.12563336 0.29712766
-0.093464121 0.12545343 0.29670212
-0.092792168 0.12536347 0.29648936
-0.092088006 0.12522852 0.2961702
-0.091385141 0.12509358 0.29585105
-0.090618297 0.12486867 0.29531914
-0.089853622 0.12464377 0.29478723
-0.08915554 0.12450882 0.29446808
-0.088554733 0.12450882 0.29446808
-0.087953925 0.12450882 0.29446808
-0.087321565 0.12446384 0.29436171
-0.086626947 0.1243289 0.29404256
-0.085933641 0.12419395 0.2937234
-0.085179813 0.12396905 0.29319149
-0.084489539 0.1238341 0.29287234
-0.083800569 0.12369915 0.29255319
-0.083112903 0.12356421 0.29223403
-0.082426533 0.12342926 0.29191488
-0.081741482 0.12329432 0.29159576
-0.081028111 0.12311439 0.29117021
-0.080316484 0.12293448 0.29074469
-0.079606585 0.12275454 0.29031914
-0.078898437 0.12257462 0.28989363
-0.078192011 0.12239469 0.28946808
-0.077487335 0.12221477 0.28904256
-0.076840982 0.1221248 0.28882977
-0.076195516 0.12203483 0.28861701
-0.075578779 0.12198986 0.28851065
-0.074962474 0.12194487 0.28840426
-0.074319176 0.12185492 0.2881915
-0.073676735 0.12176494 0.28797871
-0.073062174 0.12171997 0.28787234
-0.072394475 0.12158503 0.28755319
-0.071728073 0.12145007 0.28723404
-0.071062982 0.12131513 0.28691489
-0.070425324 0.12122517 0.28670213
-0.069762617 0.12109023 0.28638297
-0.069049813 0.12086532 0.28585106
-0.068288229 0.12055045 0.28510639
-0.067529671 0.12023557 0.28436169
-0.066849299 0.12005565 0.28393617
-0.066220328 0.11996569 0.28372341
-0.065616824 0.11992071 0.28361702
-0.064989373 0.11983075 0.28340426
-0.064362779 0.11974078 0.2831915
-0.063713096 0.11960584 0.28287235
-0.063064717 0.11947089 0.2825532
-0.062441166 0.11938094 0.28234044
-0.06184179 0.11933595 0.28223404
-0.061242849 0.11929096 0.28212765
-0.06062147 0.119201 0.28191489
-0.06000096 0.11911104 0.28170213
-0.059358872 0.11897609 0.28138298
-0.058695868 0.11879618 0.28095746
-0.058078606 0.1187062 0.28074467
-0.057462219 0.11861625 0.28053191
-0.05686827 0.11857126 0.28042552
-0.056274761 0.11852628 0.28031915
-0.055660546 0.11843632 0.2801064
-0.055026274 0.11830138 0.27978724
-0.054393303 0.11816643 0.27946809
-0.053802609 0.11812145 0.2793617
-0.053212356 0.11807647 0.27925533
-0.052602474 0.1179865 0.27904254
-0.051973633 0.11785156 0.27872342
-0.051326469 0.11767163 0.27829787
-0.050681043 0.11749171 0.27787235
-0.050037351 0.11731178 0.27744681
-0.049414363 0.11717683 0.27712765
-0.048811432 0.11708687 0.27691489
-0.048172299 0.11690694 0.27648935
-0.047516584 0.11668203 0.27595744
-0.046863042 0.11645713 0.27542552
-0.046229556 0.11627721 0.27500001
-0.045615468 0.11614226 0.27468085
-0.045055032 0.11614226 0.27468085
-0.044494599 0.11614226 0.27468085
-0.043968193 0.11623222 0.27489361
-0.043424126 0.11627721 0.27500001
-0.042863037 0.11627721 0.27500001
-0.042252857 0.11614226 0.27468085
-0.041611686 0.11591735 0.27414894
-0.040972687 0.11569245 0.27361703
-0.04035157 0.11551251 0.27319148
-0.039732188 0.1153326 0.27276596
-0.039160382 0.11528761 0.27265957
-0.038589012 0.11524264 0.27255321
-0.03801807 0.11519765 0.27244681
-0.03741831 0.11506271 0.27212766
-0.03679103 0.1148378 0.27159575
-0.036151726 0.11456791 0.27095744
-0.035529003 0.11434299 0.27042553
-0.034908455 0.11411809 0.26989362
-0.034317158 0.11398315 0.26957446
-0.033740491 0.11389319 0.2693617
-0.033204019 0.11393818 0.2694681
-0.032667108 0.11398315 0.26957446
-0.032129768 0.11402813 0.26968086
-0.031579535 0.11402813 0.26968086
-0.031004822 0.11393818 0.2694681
-0.030430974 0.1138482 0.26925531
-0.029834386 0.11366828 0.26882979
-0.029227944 0.11344337 0.26829788
-0.028623672 0.11321846 0.26776597
-0.028032724 0.11303853 0.26734042
-0.027454451 0.11290359 0.26702127
-0.026898924 0.11285862 0.2669149
-0.026333325 0.11276864 0.26670212
-0.025758311 0.11263371 0.26638299
-0.025174526 0.11245377 0.26595744
-0.024602331 0.11231883 0.26563829
-0.024041075 0.11222887 0.26542553
-0.023480687 0.11213891 0.26521277
-0.022921165 0.11204894 0.26499999
-0.022371499 0.11200396 0.26489362
-0.021831034 0.11200396 0.26489362
-0.021282017 0.11195898 0.26478723
-0.020716768 0.11182403 0.26446807
-0.020160938 0.11173407 0.26425532
-0.019598076 0.11159912 0.26393616
-0.019036517 0.11146418 0.26361701
-0.018468797 0.11128426 0.26319149
-0.017895563 0.11105935 0.26265958
-0.017317468 0.11078946 0.26202127
-0.0041490123 0.13449472 0.3180851
-0.0034543669 0.13274044 0.31393617
-0.0027890475 0.13157092 0.31117022
-0.002143116 0.1308962 0.30957446
-0.0015094097 0.13071626 0.30914894
-0.00087895169 0.13076125 0.30925533
-0.00024840067 0.13098617 0.30978724
0.0003851114 0.13148096 0.31095746
0.0010258403 0.13229063 0.31287235
0.00167891 0.13346015 0.3156383
0.0023471811 0.13485457 0.31893617
0.014310698 0.090952612 0.21510638
0.014786055 0.091177523 0.21563829
0.015248559 0.091312468 0.21595745
0.015689181 0.091312468 0.21595745
0.016129801 0.091312468 0.21595745
0.016578585 0.091357447 0.21606383
0.017011043 0.091312468 0.21595745
0.017434468 0.091222502 0.21574467
0.0178394 0.091042578 0.21531914
0.018233564 0.090817668 0.21478723
0.018653302 0.090727709 0.21457447
-0.18183759 0.12199093 0.28712767
-0.18125176 0.12199093 0.28712767
-0.1807998 0.12208132 0.28734043
-0.18034697 0.12217172 0.28755319
-0.18002628 0.12235251 0.28797871
-0.17977017 0.12257852 0.28851065
-0.17944579 0.1227593 0.28893617
-0.17911969 0.1229401 0.28936172
-0.17866056 0.1230305 0.28957447
-0.178266 0.12316609 0.28989363
-0.17793532 0.12334688 0.29031914
-0.17747295 0.12343728 0.2905319
-0.17688017 0.12343728 0.2905319
-0.17615829 0.12334688 0.29031914
-0.17550163 0.12330169 0.29021278
-0.17497362 0.12334688 0.29031914
-0.17457297 0.12348248 0.2906383
-0.17429839 0.12370847 0.29117021
-0.17402163 0.12393446 0.29170212
-0.17355296 0.12402486 0.29191488
-0.17302041 0.12407006 0.29202127
-0.17248741 0.12411527 0.29212767
-0.17207918 0.12425086 0.29244682
-0.17166962 0.12438644 0.29276595
-0.17119662 0.12447685 0.29297873
-0.1707847 0.12461245 0.29329789
-0.17037144 0.12474804 0.29361701
-0.16995691 0.12488363 0.29393616
-0.16941848 0.12492884 0.29404256
-0.16887961 0.12497403 0.29414892
-0.1684012 0.12506443 0.29436171
-0.16810383 0.12529042 0.29489362
-0.16786471 0.12556162 0.29553193
-0.1676832 0.12587801 0.2962766
-0.16737866 0.126104 0.29680851
-0.1669524 0.1262396 0.29712766
-0.1662866 0.12619439 0.29702127
-0.16514653 0.12578762 0.29606384
-0.16347821 0.12497403 0.29414892
-0.16158211 0.12397967 0.29180852
-0.15969555 0.1229853 0.28946808
-0.15811092 0.12221693 0.28765959
-0.15694143 0.12176493 0.28659573
-0.15600845 0.12149375 0.28595746
-0.1553672 0.12144855 0.28585106
-0.1551296 0.12171974 0.28648937
-0.15534848 0.12235251 0.28797871
-0.15596151 0.12330169 0.29021278
-0.15667932 0.12434126 0.29265958
-0.15727367 0.12529042 0.29489362
-0.15763281 0.12605879 0.29670212
-0.15781569 0.12669158 0.29819149
-0.15776815 0.12714356 0.29925531
-0.15754865 0.12745996 0.30000001
-0.15710349 0.12759554 0.30031914
-0.15649076 0.12759554 0.30031914
-0.15571237 0.12745996 0.30000001
-0.15499027 0.12736955 0.29978722
-0.1544334 0.12741475 0.29989362
-0.15409435 0.12764075 0.30042553
-0.15375313 0.12786674 0.30095744
-0.15335561 0.12804754 0.30138299
-0.15284853 0.12813793 0.30159575
-0.15239426 0.12827353 0.3019149
-0.15193872 0.12840913 0.30223405
-0.15148184 0.12854472 0.30255318
-0.15097064 0.12863512 0.30276597
-0.15056422 0.1288159 0.30319148
-0.15020867 0.1290419 0.30372339
-0.14985096 0.12926789 0.30425531
-0.14954326 0.12953909 0.30489361
-0.14912903 0.12971988 0.30531916
-0.1486613 0.12985547 0.30563828
-0.1480377 0.12985547 0.30563828
-0.14731149 0.12976508 0.30542552
-0.14648396 0.12958428 0.30500001
-0.14565815 0.12940349 0.30457446
-0.14498608 0.12935829 0.3044681
-0.1444153 0.12940349 0.30457446
-0.144045 0.12962948 0.30510637
-0.14382255 0.12999107 0.30595744
-0.14359663 0.13035266 0.3068085
-0.14331767 0.13066906 0.3075532
-0.14288758 0.13084984 0.30797872
-0.14230835 0.13089505 0.30808511
-0.14163084 0.13084984 0.30797872
-0.14105117 0.13089505 0.30808511
-0.14056805 0.13103065 0.30840427
-0.14013189 0.13121143 0.30882978
-0.13964595 0.13134703 0.30914894
-0.13911086 0.13143742 0.3093617
-0.13862252 0.13157302 0.30968085
-0.13813289 0.13170862 0.31
-0.13759476 0.13179901 0.31021276
-0.13705577 0.1318894 0.31042552
-0.13646916 0.13193461 0.31053191
-0.13588211 0.13197981 0.31063831
-0.13524832 0.13197981 0.31063831
-0.13461451 0.13197981 0.31063831
-0.13398072 0.13197981 0.31063831
-0.13343824 0.13207021 0.31085107
-0.13298582 0.13225099 0.31127658
-0.13253164 0.13243181 0.31170213
-0.13198571 0.1325222 0.31191489
-0.1314837 0.1326578 0.31223404
-0.13089123 0.13270299 0.31234044
-0.13025396 0.13270299 0.31234044
-0.12961668 0.13270299 0.31234044
-0.12897941 0.13270299 0.31234044
-0.12847327 0.13283858 0.31265956
-0.12800933 0.13301937 0.31308511
-0.12758695 0.13324536 0.31361702
-0.12703319 0.13333577 0.31382978
-0.12643573 0.13338096 0.31393617
-0.1257952 0.13338096 0.31393617
-0.12506984 0.13329057 0.31372342
-0.12434535 0.13320017 0.31351063
-0.12349582 0.13297418 0.31297871
-0.12256493 0.1326578 0.31223404
-0.12155398 0.13225099 0.31127658
-0.12050562 0.13179901 0.31021276
-0.11954383 0.13143742 0.3093617
-0.11870818 0.13121143 0.30882978
-0.11795604 0.13107583 0.30851063
-0.11720521 0.13094024 0.30819148
-0.11649592 0.13084984 0.30797872
-0.11574748 0.13071425 0.30765957
-0.11496054 0.13053346 0.30723405
-0.11409615 0.13026227 0.30659574
-0.11319499 0.12994587 0.30585107
-0.11233602 0.12967469 0.30521277
-0.11155755 0.12949389 0.30478725
-0.11081953 0.12935829 0.3044681
-0.11004429 0.1291775 0.30404255
-0.10919423 0.12890629 0.30340424
-0.10834678 0.12863512 0.30276597
-0.10753978 0.12840913 0.30223405
-0.10684785 0.12831873 0.30202127
-0.1061568 0.12822832 0.30180851
-0.1054294 0.12809274 0.30148935
-0.10459237 0.12782155 0.30085108
-0.10372116 0.12750515 0.30010638
-0.10288955 0.12723395 0.29946807
-0.10216954 0.12709837 0.29914895
-0.1015953 0.12714356 0.29925531
-0.10102063 0.12718876 0.29936171
-0.10044551 0.12723395 0.29946807
-0.099763572 0.12714356 0.29925531
-0.098976761 0.12691757 0.2987234
-0.098157085 0.12664637 0.29808509
-0.097374827 0.12642038 0.29755318
-0.09669853 0.12632999 0.29734042
-0.096091866 0.12632999 0.29734042
-0.095416874 0.1262396 0.29712766
-0.094674855 0.12605879 0.29670212
-0.093900844 0.1258328 0.2961702
-0.093129009 0.12560681 0.29563829
-0.092425928 0.12547122 0.29531914
-0.09172415 0.12533562 0.29499999
-0.091023684 0.12520003 0.29468086
-0.090291865 0.12501924 0.29425532
-0.089529365 0.12479324 0.2937234
-0.088801242 0.12461245 0.29329789
-0.088138834 0.12452205 0.2930851
-0.087540843 0.12452205 0.2930851
-0.086942859 0.12452205 0.2930851
-0.086313538 0.12447685 0.29297873
-0.0856224 0.12434126 0.29265958
-0.084932558 0.12420566 0.29234043
-0.084213331 0.12402486 0.29191488
-0.083526321 0.12388927 0.29159576
-0.082870856 0.12379886 0.29138297
-0.082186222 0.12366327 0.29106382
-0.081502907 0.12352768 0.29074469
-0.080791272 0.12334688 0.29031914
-0.080051996 0.12312089 0.28978723
-0.079285711 0.1228497 0.28914893
-0.078522041 0.12257852 0.28851065
-0.077818438 0.12239771 0.2880851
-0.077116579 0.12221693 0.28765959
-0.076473057 0.12212652 0.2874468
-0.075830407 0.12203612 0.28723404
-0.075188622 0.12194573 0.28702128
-0.074547708 0.12185533 0.28680852
-0.073907658 0.12176493 0.28659573
-0.073295698 0.12171974 0.28648937
-0.072657175 0.12162934 0.28627661
-0.07201951 0.12153894 0.28606382
-0.071382716 0.12144855 0.28585106
-0.070746794 0.12135815 0.2856383
-0.070111744 0.12126776 0.28542554
-0.069477551 0.12117735 0.28521276
-0.068792842 0.12099656 0.28478724
-0.06803342 0.12068018 0.28404257
-0.067277037 0.12036378 0.28329787
-0.06659884 0.12018299 0.28287235
-0.065972023 0.12009258 0.28265956
-0.065370701 0.12004739 0.2825532
-0.064769812 0.12000219 0.2824468
-0.06414517 0.11991179 0.28223404
-0.063497446 0.1197762 0.28191489
-0.062827274 0.11959541 0.28148937
-0.062205888 0.119505 0.28127658
-0.061608691 0.11945981 0.28117022
-0.061035015 0.11945981 0.28117022
-0.060438462 0.11941461 0.28106382
-0.059819687 0.11932421 0.28085107
-0.059179336 0.11918861 0.28053191
-0.058495842 0.11896262 0.28
-0.057836518 0.11878182 0.27957445
-0.057200734 0.11864624 0.27925533
-0.056587812 0.11855583 0.27904254
-0.055997126 0.11851064 0.27893618
-0.055385731 0.11842024 0.27872342
-0.054775197 0.11832984 0.27851063
-0.054144833 0.11819424 0.27819148
-0.053536259 0.11810385 0.27797872
-0.052928556 0.11801346 0.27776596
-0.05234177 0.11796825 0.27765957
-0.051735584 0.11787786 0.27744681
-0.051130265 0.11778747 0.27723405
-0.050487008 0.11760666 0.2768085
-0.049864672 0.11747106 0.27648935
-0.049243644 0.11733548 0.27617022
-0.048642661 0.11724507 0.27595744
-0.048024025 0.11710948 0.27563831
-0.047370043 0.11688349 0.27510637
-0.046718236 0.1166575 0.27457446
-0.046068598 0.1164315 0.27404255
-0.045456465 0.1162959 0.27372339
-0.044863086 0.11620551 0.27351063
-0.044322275 0.11625072 0.27361703
-0.043815058 0.11638631 0.27393618
-0.043289736 0.11647671 0.27414894
-0.042730387 0.11647671 0.27414894
-0.042105578 0.1162959 0.27372339
-0.041482508 0.11611512 0.27329788
-0.040829312 0.11584392 0.27265957
-0.04021015 0.11566313 0.27223405
-0.039592721 0.11548233 0.27180851
-0.039007589 0.11539194 0.27159575
-0.038438387 0.11534674 0.27148935
-0.037869621 0.11530154 0.27138299
-0.037272032 0.11516595 0.27106383
-0.036646921 0.11493996 0.27053192
-0.036009789 0.11466876 0.26989362
-0.035389237 0.11444277 0.2693617
-0.034784615 0.11426197 0.26893616
-0.034195274 0.11412638 0.26861703
-0.033633884 0.11408118 0.26851064
-0.033086039 0.11408118 0.26851064
-0.032551087 0.11412638 0.26861703
-0.032015696 0.11417157 0.2687234
-0.031479876 0.11421677 0.26882979
-0.030919138 0.11417157 0.2687234
-0.030346813 0.11408118 0.26851064
-0.029739935 0.11385519 0.26797873
-0.029135229 0.1136292 0.26744682
-0.02852132 0.113358 0.26680851
-0.027932329 0.11317721 0.26638299
-0.027377885 0.11313201 0.2662766
-0.026823876 0.1130868 0.2661702
-0.026249293 0.11295121 0.26585105
-0.025665728 0.11277042 0.26542553
-0.025083896 0.11258962 0.26499999
-0.024503805 0.11240883 0.26457447
-0.023944719 0.11231843 0.26436171
-0.023386501 0.11222804 0.26414895
-0.022829149 0.11213764 0.26393616
-0.022281654 0.11209244 0.2638298
-0.021734592 0.11204724 0.2637234
-0.021187961 0.11200204 0.26361701
-0.020633435 0.11191165 0.26340425
-0.020063544 0.11173086 0.26297873
-0.019503286 0.11159526 0.26265958
-0.018936649 0.11141446 0.26223403
-0.018379213 0.11127886 0.26191488
-0.017815834 0.11109807 0.26148936
-0.017247159 0.11087208 0.26095745
-0.016687468 0.11069128 0.2605319
-0.0041254228 0.13437533 0.31627661
-0.0034379789 0.13274819 0.3124468
-0.0027785588 0.13170862 0.31
-0.0021379606 0.13121143 0.30882978
-0.0015068126 0.13112104 0.30861703
-0.00087804458 0.13125664 0.30893618
-0.00024840067 0.13161823 0.30978724
0.00038537488 0.1322058 0.31117022
0.0010265379 0.13301937 0.31308511
0.0016806077 0.13423975 0.31595746
0.0023479641 0.1355505 0.31904256
0.013851233 0.091255903 0.21478723
0.014310698 0.091391496 0.21510638
0.014786055 0.091617487 0.21563829
0.015248559 0.091753088 0.21595745
0.015689181 0.091753088 0.21595745
0.016129801 0.091753088 0.21595745
0.016578585 0.091798283 0.21606383
0.017011043 0.091753088 0.21595745
0.017434468 0.09166269 0.21574467
0.0178394 0.091481894 0.21531914
0.018233564 0.091255903 0.21478723
0.018644053 0.09112031 0.21446809
-0.18102911 0.12203177 0.28585106
-0.18051305 0.12207719 0.28595746
-0.17999654 0.1221226 0.28606382
-0.17954633 0.12221344 0.28627661
-0.17916173 0.12234967 0.28659573
-0.17884214 0.12253134 0.28702128
-0.17858687 0.12275842 0.28755319
-0.17832944 0.1229855 0.2880851
-0.17793857 0.12312175 0.28840426
-0.1775464 0.12325799 0.28872341
-0.17708771 0.12334882 0.28893617
-0.17662814 0.12343965 0.28914893
-0.17603819 0.12343965 0.28914893
-0.17531915 0.12334882 0.28893617
-0.17460096 0.12325799 0.28872341
-0.17394775 0.12321258 0.28861701
-0.17355058 0.12334882 0.28893617
-0.17327948 0.1235759 0.28946808
-0.17300619 0.12380297 0.28999999
-0.1726675 0.12398464 0.29042554
-0.17213796 0.12403005 0.2905319
-0.17160802 0.12407547 0.2906383
-0.17120281 0.12421172 0.29095745
-0.17073391 0.12430255 0.29117021
-0.17026417 0.12439338 0.29138297
-0.1697316 0.1244388 0.29148936
-0.16926032 0.12452963 0.29170212
-0.16884971 0.12466588 0.29202127
-0.16843778 0.12480213 0.29234043
-0.1679024 0.12484755 0.29244682
-0.16748828 0.12498378 0.29276595
-0.16725481 0.12525627 0.29340425
-0.16701874 0.12552877 0.29404256
-0.16684026 0.12584668 0.29478723
-0.16653876 0.12607376 0.29531914
-0.16611554 0.12621 0.29563829
-0.16545281 0.1261646 0.29553193
-0.16431575 0.12575585 0.29457447
-0.16276874 0.12502921 0.29287234
-0.16093414 0.12407547 0.2906383
-0.15910865 0.12312175 0.28840426
-0.15752617 0.12234967 0.28659573
-0.15624236 0.12180469 0.28531915
-0.15519591 0.12144136 0.28446808
-0.15444204 0.12130512 0.28414893
-0.15403511 0.12144136 0.28446808
-0.15414335 0.12198635 0.28574467
-0.15470375 0.12289467 0.28787234
-0.15554024 0.12403005 0.2905319
-0.15625241 0.12507463 0.29297873
-0.15678503 0.12598293 0.29510638
-0.15697116 0.12661876 0.29659575
-0.15698296 0.12711832 0.29776597
-0.15676649 0.12743624 0.29851064
-0.15632439 0.12757248 0.29882979
-0.15560383 0.12748165 0.29861704
-0.15482889 0.1273454 0.29829788
-0.15416527 0.12729998 0.29819149
-0.15372121 0.12743624 0.29851064
-0.15343957 0.12770873 0.29914895
-0.15315528 0.12798122 0.29978722
-0.15276016 0.12816288 0.30021277
-0.15225546 0.12825371 0.30042553
-0.15174989 0.12834454 0.30063829
-0.15118998 0.12838995 0.30074468
-0.1506829 0.12848079 0.30095744
-0.15017493 0.12857161 0.3011702
-0.14971894 0.12870786 0.30148935
-0.14936687 0.12893493 0.30202127
-0.14901263 0.12916201 0.30255318
-0.1487084 0.12943451 0.30319148
-0.14829765 0.12961619 0.30361703
-0.14778166 0.12970701 0.30382979
-0.14721328 0.12975243 0.30393618
-0.14654185 0.12970701 0.30382979
-0.14581975 0.12961619 0.30361703
-0.14499676 0.12943451 0.30319148
-0.14422618 0.12929827 0.30287233
-0.14370912 0.12938911 0.30308512
-0.14334185 0.12961619 0.30361703
-0.14307244 0.12993409 0.3043617
-0.14279997 0.13025199 0.30510637
-0.1424749 0.13052449 0.30574468
-0.14204852 0.13070616 0.30617023
-0.14152212 0.13079698 0.30638298
-0.14089701 0.13079698 0.30638298
-0.14032058 0.13084239 0.30648935
-0.13984072 0.13097864 0.3068085
-0.13940783 0.13116032 0.30723405
-0.13897318 0.13134196 0.30765957
-0.13844115 0.13143282 0.30787235
-0.13790822 0.13152364 0.30808511
-0.13737445 0.13161446 0.30829787
-0.13688697 0.13175072 0.30861703
-0.13635123 0.13184154 0.30882978
-0.13581462 0.13193238 0.30904254
-0.13523062 0.1319778 0.30914894
-0.13459986 0.1319778 0.30914894
-0.13392299 0.13193238 0.30904254
-0.13329245 0.13193238 0.30904254
-0.13275325 0.13202322 0.30925533
-0.13230407 0.13220488 0.30968085
-0.13185316 0.13238654 0.3101064
-0.13131048 0.13247736 0.31031916
-0.13072212 0.13252278 0.31042552
-0.13013333 0.1325682 0.31053191
-0.12949975 0.1325682 0.31053191
-0.12886617 0.1325682 0.31053191
-0.12827653 0.13261361 0.31063831
-0.12777387 0.13274986 0.31095746
-0.1273569 0.13297693 0.31148937
-0.12693776 0.13320401 0.31202129
-0.12638725 0.13329485 0.31223404
-0.1257502 0.13329485 0.31223404
-0.12507051 0.13324942 0.31212765
-0.12443367 0.13324942 0.31212765
-0.12379684 0.13324942 0.31212765
-0.12307605 0.13315859 0.31191489
-0.12223085 0.13293152 0.31138298
-0.12130474 0.13261361 0.31063831
-0.120299 0.13220488 0.30968085
-0.11929717 0.13179612 0.30872339
-0.11838105 0.13147822 0.30797872
-0.11758998 0.13129656 0.3075532
-0.11680064 0.13111489 0.30712765
-0.11605328 0.13097864 0.3068085
-0.1152672 0.13079698 0.30638298
-0.11440325 0.13052449 0.30574468
-0.11350231 0.13020658 0.30500001
-0.1126044 0.12988867 0.30425531
-0.11178786 0.12966159 0.30372339
-0.11105134 0.12952535 0.30340424
-0.11031616 0.12938911 0.30308512
-0.10958225 0.12925285 0.30276597
-0.10873479 0.12898035 0.30212766
-0.10788994 0.12870786 0.30148935
-0.10708554 0.12848079 0.30095744
-0.10639622 0.12838995 0.30074468
-0.10578261 0.12838995 0.30074468
-0.10505739 0.12825371 0.30042553
-0.10422251 0.12798122 0.29978722
-0.10327996 0.12757248 0.29882979
-0.10241439 0.12725456 0.29808509
-0.10169721 0.12711832 0.29776597
-0.10108968 0.12711832 0.29776597
-0.10051803 0.12716374 0.29787233
-0.09994597 0.12720916 0.29797873
-0.09930253 0.12716374 0.29787233
-0.098553784 0.12698208 0.29744682
-0.097771749 0.126755 0.29691491
-0.097096317 0.12666416 0.29670212
-0.096456356 0.12661876 0.29659575
-0.095851213 0.12661876 0.29659575
-0.09517774 0.12652792 0.29638299
-0.094403289 0.12630083 0.29585105
-0.093597293 0.12602834 0.29521278
-0.092793897 0.12575585 0.29457447
-0.092059687 0.12557419 0.29414892
-0.091393381 0.12548335 0.29393616
-0.090695076 0.12534711 0.29361701
-0.089965433 0.12516545 0.29319149
-0.089205101 0.12493837 0.29265958
-0.088414721 0.12466588 0.29202127
-0.087690942 0.12448422 0.29159576
-0.087095998 0.12448422 0.29159576
-0.086564168 0.12457505 0.29180852
-0.086000122 0.12462045 0.29191488
-0.085342281 0.12452963 0.29170212
-0.084654391 0.12439338 0.29138297
-0.083937123 0.12421172 0.29095745
-0.083252057 0.12407547 0.2906383
-0.08259856 0.12398464 0.29042554
-0.081945919 0.12389382 0.29021278
-0.081264332 0.12375757 0.28989363
-0.080554433 0.1235759 0.28946808
-0.0797875 0.1233034 0.28882977
-0.078994006 0.1229855 0.2880851
-0.078232497 0.122713 0.2874468
-0.077502333 0.12248592 0.28691489
-0.076802865 0.12230427 0.28648937
-0.07613343 0.12216802 0.28617021
-0.075465299 0.12203177 0.28585106
-0.074826337 0.12194094 0.2856383
-0.074188247 0.12185011 0.28542554
-0.073578447 0.12180469 0.28531915
-0.072941877 0.12171386 0.28510639
-0.072306164 0.12162302 0.2848936
-0.071671329 0.12153219 0.28468084
-0.071010791 0.12139595 0.28436169
-0.070404261 0.12135054 0.28425533
-0.069798157 0.12130512 0.28414893
-0.069166578 0.12121429 0.28393617
-0.06851016 0.12107804 0.28361702
-0.06777861 0.12080555 0.28297871
-0.067049667 0.12053306 0.28234044
-0.066348374 0.12030599 0.28180853
-0.065748565 0.12026056 0.28170213
-0.065173805 0.12026056 0.28170213
-0.064574644 0.12021514 0.28159574
-0.063951746 0.12012431 0.28138298
-0.06330575 0.11998806 0.28106382
-0.062637322 0.11980641 0.28063831
-0.061970618 0.11962474 0.28021276
-0.061352279 0.11953391 0.28
-0.060780991 0.11953391 0.28
-0.060232583 0.11957933 0.2801064
-0.059615754 0.11948849 0.27989361
-0.058954921 0.11930683 0.27946809
-0.058251366 0.11903434 0.27882978
-0.057572428 0.11880726 0.27829787
-0.056917455 0.1186256 0.27787235
-0.056307357 0.11853477 0.27765957
-0.05569813 0.11844394 0.27744681
-0.055132054 0.11844394 0.27744681
-0.054524131 0.11835311 0.27723405
-0.053917076 0.11826228 0.27702129
-0.053290401 0.11812603 0.27670214
-0.052685294 0.11803519 0.27648935
-0.05210112 0.11798978 0.27638298
-0.051517371 0.11794436 0.27627659
-0.050934065 0.11789896 0.27617022
-0.050312381 0.11776271 0.27585107
-0.049672812 0.11758103 0.27542552
-0.049034983 0.11739938 0.27500001
-0.048436396 0.11730855 0.27478725
-0.04782014 0.1171723 0.27446809
-0.047186863 0.11699063 0.27404255
-0.046537228 0.11676355 0.27351063
-0.045889761 0.11653648 0.27297872
-0.045279797 0.11640023 0.27265957
-0.044706043 0.11635482 0.27255321
-0.044167176 0.11640023 0.27265957
-0.043644898 0.11649106 0.27287233
-0.043121751 0.1165819 0.27308512
-0.04254799 0.11653648 0.27297872
-0.041941933 0.11640023 0.27265957
-0.041321035 0.11621857 0.27223405
-0.040685944 0.1159915 0.27170214
-0.040068731 0.11580983 0.27127659
-0.039453261 0.11562818 0.27085108
-0.0388548 0.11549193 0.27053192
-0.038272709 0.1154011 0.27031916
-0.037706327 0.11535568 0.27021277
-0.037111122 0.11521943 0.26989362
-0.036488403 0.11499235 0.2693617
-0.035867851 0.11476527 0.26882979
-0.035249472 0.1145382 0.26829788
-0.034647018 0.11435653 0.26787233
-0.03407339 0.1142657 0.26765957
-0.033513952 0.11422028 0.26755318
-0.032968063 0.11422028 0.26755318
-0.032435063 0.1142657 0.26765957
-0.031901628 0.11431112 0.26776597
-0.031355303 0.11431112 0.26776597
-0.030808976 0.11431112 0.26776597
-0.0302386 0.11422028 0.26755318
-0.029633678 0.11399321 0.26702127
-0.029019339 0.11372072 0.26638299
-0.028418969 0.11349363 0.26585105
-0.027843088 0.11335739 0.26553193
-0.027290381 0.11331197 0.26542553
-0.026738107 0.11326655 0.26531914
-0.026165262 0.1131303 0.26499999
-0.025573146 0.11290322 0.26446807
-0.024983199 0.11267615 0.26393616
-0.024405276 0.11249449 0.26351064
-0.023848362 0.11240366 0.26329789
-0.023292312 0.11231282 0.2630851
-0.022737134 0.11222199 0.26287234
-0.022182824 0.11213116 0.26265958
-0.021638148 0.11208574 0.26255319
-0.021093909 0.11204034 0.26244682
-0.020541767 0.1119495 0.26223403
-0.019974263 0.11176784 0.26180851
-0.019408494 0.11158618 0.26138297
-0.018852146 0.11144993 0.26106384
-0.018289633 0.11126827 0.2606383
-0.017736103 0.11113202 0.26031914
-0.017183878 0.11099577 0.25999999
-0.016632956 0.11085952 0.25968084
-0.016083336 0.11072329 0.25936171
-0.0048044245 0.13597438 0.31851065
-0.0041018329 0.13424857 0.31446809
-0.0034215909 0.13274986 0.31095746
-0.0027671163 0.13179612 0.30872339
-0.0021305962 0.13138738 0.30776596
-0.001502138 0.13134196 0.30765957
-0.00087623042 0.13161446 0.30829787
-0.00024805946 0.13206862 0.3093617
0.00038497962 0.13270444 0.31085107
0.0010261891 0.13361275 0.31297871
0.0016800417 0.13483897 0.31585106
0.0023479641 0.13620144 0.31904256
0.013878674 0.091875799 0.21521276
0.014331931 0.091966629 0.21542554
0.014793349 0.09210287 0.21574467
0.015248559 0.092193708 0.21595745
0.015689181 0.092193708 0.21595745
0.016129801 0.092193708 0.21595745
0.016570423 0.092193708 0.21595745
0.017002663 0.092148297 0.21585107
0.017425872 0.092057459 0.21563829
0.017830586 0.091875799 0.21521276
0.018224532 0.09164872 0.21468085
0.018634804 0.091512471 0.2143617
-0.18022065 0.12206741 0.28457448
-0.17990865 0.12224993 0.285
-0.17946103 0.12234119 0.28521276
-0.17901255 0.12243247 0.28542554
-0.17849669 0.1224781 0.28553191
-0.17811298 0.12261499 0.28585106
-0.17786011 0.12284315 0.28638297
-0.17760506 0.12307132 0.28691489
-0.17721657 0.12320822 0.28723404
-0.17669594 0.12325386 0.28734043
-0.17617488 0.12329948 0.2874468
-0.1755884 0.12329948 0.2874468
-0.17500192 0.12329948 0.2874468
-0.17435089 0.12325386 0.28734043
-0.17363596 0.1231626 0.28712767
-0.17305014 0.1231626 0.28712767
-0.1725921 0.12325386 0.28734043
-0.17232424 0.12348202 0.28787234
-0.1721177 0.12375582 0.28851065
-0.17178202 0.12393834 0.28893617
-0.17125554 0.12398398 0.28904256
-0.1706658 0.12398398 0.28904256
-0.17013866 0.12402961 0.28914893
-0.16967347 0.12412088 0.28936172
-0.16914524 0.1241665 0.28946808
-0.16867852 0.12425777 0.28968084
-0.16821095 0.12434904 0.28989363
-0.16786551 0.12453157 0.29031914
-0.16745706 0.12466846 0.2906383
-0.16698621 0.12475973 0.29085106
-0.16657537 0.12489663 0.29117021
-0.16634516 0.12517042 0.29180852
-0.16617276 0.12548985 0.29255319
-0.16593713 0.12576365 0.29319149
-0.16557889 0.12594618 0.29361701
-0.16509937 0.12603745 0.2938298
-0.1644403 0.12599181 0.2937234
-0.16342564 0.12567239 0.29297873
-0.16205925 0.12507917 0.29159576
-0.16034506 0.12421214 0.28957447
-0.15863913 0.12334512 0.28755319
-0.15705839 0.12256936 0.28574467
-0.15583457 0.12206741 0.28457448
-0.1547316 0.12165671 0.28361702
-0.15386382 0.12142855 0.28308511
-0.15328625 0.12142855 0.28308511
-0.15316775 0.12179361 0.28393617
-0.15361752 0.12261499 0.28585106
-0.15440117 0.12371018 0.28840426
-0.15523115 0.12485099 0.29106382
-0.15582421 0.12580928 0.29329789
-0.15612662 0.12653939 0.29499999
-0.15614167 0.12704135 0.2961702
-0.1558726 0.12731516 0.29680851
-0.15543397 0.12745206 0.29712766
-0.15482774 0.12745206 0.29712766
-0.15411107 0.12736081 0.29691491
-0.15350528 0.12736081 0.29691491
-0.1530638 0.12749769 0.29723403
-0.15278476 0.12777148 0.29787233
-0.15255746 0.12809092 0.29861704
-0.15216471 0.12827344 0.29904255
-0.15171632 0.12841034 0.29936171
-0.15115921 0.12845597 0.29946807
-0.1505482 0.12845597 0.29946807
-0.1499372 0.12845597 0.29946807
-0.14937924 0.12850161 0.29957446
-0.14887367 0.12859288 0.29978722
-0.14852507 0.12882103 0.30031914
-0.14817432 0.12904921 0.30085108
-0.14782138 0.12927736 0.30138299
-0.14736235 0.12941428 0.30170214
-0.14690199 0.12955116 0.30202127
-0.14638884 0.12964243 0.30223405
-0.14582349 0.12968805 0.30234042
-0.14510445 0.1295968 0.30212766
-0.14433537 0.12945989 0.30180851
-0.14361829 0.12936863 0.30159575
-0.14310381 0.12945989 0.30180851
-0.14273915 0.12968805 0.30234042
-0.14237233 0.12991622 0.30287233
-0.14200331 0.13014439 0.30340424
-0.14163215 0.13037255 0.30393618
-0.14120945 0.13055508 0.3043617
-0.14068674 0.13064635 0.30457446
-0.14016317 0.13073762 0.30478725
-0.13963872 0.13082889 0.30500001
-0.1391134 0.13092014 0.30521277
-0.13868374 0.13110267 0.30563828
-0.13825236 0.13128521 0.30606383
-0.13772358 0.13137646 0.30627659
-0.13714629 0.1314221 0.30638298
-0.13661599 0.13151337 0.30659574
-0.136132 0.13165027 0.3069149
-0.1356467 0.13178717 0.30723405
-0.1351601 0.13192406 0.3075532
-0.13462567 0.13201533 0.30776596
-0.13404405 0.13206096 0.30787235
-0.13341589 0.13206096 0.30787235
-0.13278773 0.13206096 0.30787235
-0.13220525 0.13210659 0.30797872
-0.13171323 0.13224348 0.30829787
-0.13117465 0.13233475 0.30851063
-0.13059023 0.1323804 0.30861703
-0.12996055 0.1323804 0.30861703
-0.12942003 0.13247165 0.30882978
-0.12883429 0.13251729 0.30893618
-0.12824811 0.13256292 0.30904254
-0.1276615 0.13260855 0.30914894
-0.12720558 0.13279107 0.30957446
-0.12679145 0.13301925 0.3101064
-0.12633185 0.13320178 0.31053191
-0.12578438 0.13329303 0.31074467
-0.12515037 0.13329303 0.31074467
-0.12451635 0.13329303 0.31074467
-0.12388234 0.13329303 0.31074467
-0.12329052 0.13333867 0.31085107
-0.1226143 0.13329303 0.31074467
-0.12189677 0.13320178 0.31053191
-0.12101392 0.13292797 0.30989361
-0.12005104 0.13256292 0.30904254
-0.11905053 0.13215223 0.30808511
-0.11805391 0.13174152 0.30712765
-0.11718322 0.13146773 0.30648935
-0.11635561 0.13123956 0.30595744
-0.1155704 0.13105704 0.30553192
-0.11466686 0.13073762 0.30478725
-0.11380616 0.13046382 0.30414894
-0.11290847 0.13014439 0.30340424
-0.1120532 0.12987059 0.30276597
-0.11123969 0.12964243 0.30223405
-0.11050622 0.12950553 0.3019149
-0.10985149 0.12945989 0.30180851
-0.1091202 0.12932299 0.30148935
-0.10827535 0.12904921 0.30085108
-0.1074331 0.1287754 0.30021277
-0.10663131 0.12854725 0.29968086
-0.10594459 0.12845597 0.29946807
-0.105371 0.12850161 0.29957446
-0.10468537 0.12841034 0.29936171
-0.1038157 0.12809092 0.29861704
-0.10283874 0.12763458 0.29755318
-0.10197579 0.12731516 0.29680851
-0.10126121 0.12717827 0.29648936
-0.10062017 0.12713264 0.29638299
-0.10005134 0.12717827 0.29648936
-0.099446416 0.12717827 0.29648936
-0.098806024 0.12713264 0.29638299
-0.098095566 0.12699574 0.29606384
-0.097386405 0.12685883 0.29574469
-0.096713372 0.12676758 0.29553193
-0.096144982 0.1268132 0.29563829
-0.095576167 0.12685883 0.29574469
-0.094904438 0.12676758 0.29553193
-0.094097778 0.12649378 0.29489362
-0.093226276 0.12612872 0.29404256
-0.092391759 0.12580928 0.29329789
-0.091693453 0.12567239 0.29297873
-0.091062605 0.12562676 0.29287234
-0.090432189 0.12558112 0.29276595
-0.089736931 0.12544423 0.29244682
-0.088913262 0.1251248 0.29170212
-0.088060416 0.12475973 0.29085106
-0.087275043 0.12448594 0.29021278
-0.086682923 0.12448594 0.29021278
-0.08615391 0.1245772 0.29042554
-0.085624032 0.12466846 0.2906383
-0.084999911 0.12462283 0.2905319
-0.084314421 0.12448594 0.29021278
-0.083630227 0.12434904 0.28989363
-0.082977802 0.12425777 0.28968084
-0.082326248 0.1241665 0.28946808
-0.081675567 0.12407524 0.28925532
-0.080995932 0.12393834 0.28893617
-0.080258392 0.12371018 0.28840426
-0.079523019 0.12348202 0.28787234
-0.078731477 0.1231626 0.28712767
-0.077942967 0.12284315 0.28638297
-0.077214971 0.12261499 0.28585106
-0.076517671 0.12243247 0.28542554
-0.075850405 0.12229557 0.28510639
-0.075184442 0.12215867 0.28478724
-0.074547656 0.12206741 0.28457448
-0.073911726 0.12197613 0.28436169
-0.073276669 0.12188487 0.28414893
-0.07264249 0.12179361 0.28393617
-0.072009169 0.12170234 0.28372341
-0.071349934 0.12156545 0.28340426
-0.070718572 0.12147418 0.2831915
-0.070114419 0.12142855 0.28308511
-0.069510706 0.12138291 0.28297871
-0.068907432 0.12133729 0.28287235
-0.068253189 0.12120038 0.2825532
-0.067523807 0.12092658 0.28191489
-0.066797026 0.12065279 0.28127658
-0.066122949 0.12047026 0.28085107
-0.065525092 0.12042462 0.28074467
-0.064976901 0.12047026 0.28085107
-0.064403877 0.12047026 0.28085107
-0.063782498 0.120379 0.28063831
-0.063138023 0.1202421 0.28031915
-0.062447365 0.12001394 0.27978724
-0.061735347 0.11974014 0.27914894
-0.061095867 0.11960324 0.27882978
-0.060526967 0.11960324 0.27882978
-0.059958067 0.11960324 0.27882978
-0.059366513 0.11955761 0.27872342
-0.058685612 0.11932944 0.27819148
-0.057984672 0.11905565 0.2775532
-0.057286326 0.11878185 0.27691489
-0.056634169 0.11859931 0.27648935
-0.056026898 0.11850805 0.27627659
-0.055441853 0.11846243 0.27617022
-0.05487838 0.11846243 0.27617022
-0.054314908 0.11846243 0.27617022
-0.053710017 0.11837115 0.27595744
-0.053065028 0.11818863 0.27553192
-0.052462313 0.11809736 0.27531916
-0.05188052 0.11805173 0.27521276
-0.051318999 0.11805173 0.27521276
-0.050757483 0.11805173 0.27521276
-0.050137751 0.11791483 0.27489361
-0.049500141 0.1177323 0.27446809
-0.048845295 0.11750414 0.27393618
-0.048230123 0.11736724 0.27361703
-0.047616255 0.11723034 0.27329788
-0.047003686 0.11709344 0.27297872
-0.04635622 0.11686528 0.27244681
-0.045728806 0.11668275 0.27202126
-0.045120802 0.11654586 0.27170214
-0.044548992 0.11650022 0.27159575
-0.043994851 0.11650022 0.27159575
-0.043474741 0.11659148 0.27180851
-0.042920168 0.11659148 0.27180851
-0.042365592 0.11659148 0.27180851
-0.041778293 0.11650022 0.27159575
-0.041159559 0.11631768 0.2711702
-0.040542569 0.11613516 0.27074468
-0.039927315 0.11595263 0.27031916
-0.039313793 0.11577009 0.26989362
-0.038717285 0.1156332 0.26957446
-0.038122084 0.11549629 0.26925531
-0.037543029 0.11540503 0.26904255
-0.036950216 0.11526813 0.2687234
-0.036358703 0.11513123 0.26840425
-0.035740104 0.11490307 0.26787233
-0.035137657 0.11472055 0.26744682
-0.034523182 0.11449239 0.2669149
-0.033951502 0.11440111 0.26670212
-0.033394024 0.11435548 0.26659575
-0.032850087 0.11435548 0.26659575
-0.03230615 0.11435548 0.26659575
-0.031774882 0.11440111 0.26670212
-0.031230725 0.11440111 0.26670212
-0.030674333 0.11435548 0.26659575
-0.030106347 0.11426422 0.26638299
-0.029503809 0.11403605 0.26585105
-0.028903443 0.11380789 0.26531914
-0.028316623 0.11362536 0.26489362
-0.027753847 0.1135341 0.26468086
-0.027202876 0.11348846 0.26457447
-0.02664162 0.1133972 0.26436171
-0.026049722 0.11316904 0.2638298
-0.025459992 0.11294088 0.26329789
-0.02487243 0.1127127 0.26276594
-0.024296897 0.11253017 0.26234043
-0.023752002 0.11248454 0.26223403
-0.023198128 0.11239327 0.26202127
-0.02264512 0.11230201 0.26180851
-0.022092979 0.11221075 0.26159576
-0.021541705 0.11211947 0.26138297
-0.020999854 0.11207385 0.2612766
-0.020458434 0.11202821 0.26117021
-0.019901216 0.11189131 0.26085106
-0.0193453 0.11175442 0.2605319
-0.018783005 0.11157189 0.26010638
-0.018229911 0.11143499 0.25978723
-0.017670872 0.11125246 0.25936171
-0.0171206 0.11111557 0.25904256
-0.016578443 0.11102429 0.25882977
-0.016037157 0.11093303 0.25861701
-0.015496737 0.11084177 0.25840425
-0.014957187 0.1107505 0.2581915
-0.014576646 0.1368524 0.31904256
-0.013911769 0.1367155 0.31872341
-0.013279178 0.13689803 0.31914893
-0.0047739353 0.13575721 0.31648937
-0.0040810187 0.1342057 0.31287235
-0.0034087147 0.13288236 0.30978724
-0.0027585349 0.13201533 0.30776596
-0.0021239677 0.13160463 0.3068085
-0.0014985021 0.13165027 0.3069149
-0.00087441626 0.13196969 0.30765957
-0.00024754764 0.13242601 0.30872339
0.0003841891 0.13306488 0.31021276
0.0010244451 0.13402316 0.3124468
0.0016772124 0.13525525 0.31531915
0.0023440495 0.13662423 0.31851065
0.013892395 0.092406169 0.21542554
0.014346085 0.092497431 0.21563829
0.014800644 0.0925887 0.21585107
0.015248559 0.092634328 0.21595745
0.015689181 0.092634328 0.21595745
0.016121855 0.0925887 0.21585107
0.016554095 0.092543058 0.21574467
0.016985903 0.092497431 0.21563829
0.017408678 0.092406169 0.21542554
0.017812958 0.092223637 0.215
0.018215502 0.092041105 0.21457447
-0.17961429 0.12223537 0.28361702
-0.17930426 0.12241878 0.28404257
-0.17899247 0.12260217 0.28446808
-0.1785455 0.12269387 0.28468084
-0.17803118 0.12273972 0.28478724
-0.17758268 0.12283142 0.285
-0.17726548 0.12301483 0.28542554
-0.17694654 0.12319822 0.28585106
-0.17649457 0.12328991 0.28606382
-0.1758455 0.12324408 0.28595746
-0.17513165 0.12315237 0.28574467
-0.17448367 0.12310652 0.2856383
-0.1738361 0.12306067 0.28553191
-0.17325352 0.12306067 0.28553191
-0.17267095 0.12306067 0.28553191
-0.1721525 0.12310652 0.2856383
-0.17176141 0.12324408 0.28595746
-0.17149638 0.12347332 0.28648937
-0.17122917 0.12370257 0.28702128
-0.17089655 0.12388596 0.2874468
-0.1703731 0.12393182 0.28755319
-0.16972359 0.12388596 0.2874468
-0.16901191 0.12379427 0.28723404
-0.16842586 0.12379427 0.28723404
-0.16790198 0.12384012 0.28734043
-0.16750155 0.12397767 0.28765959
-0.16716155 0.12416106 0.2880851
-0.16681983 0.12434447 0.28851065
-0.16647634 0.12452786 0.28893617
-0.16613114 0.12471127 0.28936172
-0.16572332 0.12484881 0.28968084
