# .PCD v0.7 - Point Cloud Data file format
VERSION 0.7
FIELDS x y z
SIZE 4 4 4
TYPE F F F
COUNT 1 1 1
WIDTH 1375
HEIGHT 1
VIEWPOINT 0 0 0 1 0 0 0
POINTS 1375
DATA ascii
-0.086292624 0.092352949 0.27393618
-0.085833587 0.092460535 0.27425531
-0.085307106 0.092496403 0.2743617
-0.084747322 0.092496403 0.2743617
-0.084122248 0.092424676 0.27414894
-0.083562903 0.092424676 0.27414894
-0.083035752 0.092460535 0.27425531
-0.082540177 0.09253227 0.27446809
-0.08204373 0.092604004 0.27468085
-0.081514858 0.092639871 0.27478725
-0.080922857 0.092604004 0.27468085
-0.080300175 0.09253227 0.27446809
-0.079709269 0.092496403 0.2743617
-0.079149485 0.092496403 0.2743617
-0.078620173 0.09253227 0.27446809
-0.078090429 0.092568129 0.27457446
-0.077560253 0.092604004 0.27468085
-0.077029638 0.092639871 0.27478725
-0.07649859 0.092675731 0.27489361
-0.075937718 0.092675731 0.27489361
-0.075376853 0.092675731 0.27489361
-0.074873887 0.092747457 0.27510637
-0.074398793 0.092855051 0.27542552
-0.073922396 0.092962652 0.27574468
-0.073444702 0.093070246 0.27606383
-0.072853357 0.093034379 0.27595744
-0.072262451 0.09299852 0.27585107
-0.071644329 0.092926793 0.27563831
-0.071081944 0.092926793 0.27563831
-0.070546769 0.092962652 0.27574468
-0.070038162 0.093034379 0.27595744
-0.069555469 0.093141973 0.27627659
-0.069124609 0.093321301 0.2768085
-0.068665236 0.093464769 0.27723405
-0.068177983 0.093572363 0.2775532
-0.067585774 0.093536496 0.27744681
-0.066968299 0.093464769 0.27723405
-0.066351697 0.093393043 0.27702129
-0.065786488 0.093393043 0.27702129
-0.065246321 0.093428895 0.27712765
-0.064680889 0.093428895 0.27712765
-0.064140081 0.093464769 0.27723405
-0.063623227 0.093536496 0.27744681
-0.063153863 0.093679965 0.27787235
-0.062706724 0.093859285 0.27840427
-0.062257413 0.094038613 0.27893618
-0.061782401 0.094182067 0.2793617
-0.061282348 0.094289668 0.27968085
-0.060757894 0.094361395 0.27989361
-0.060209703 0.094397262 0.28
-0.059661079 0.094433129 0.2801064
-0.059112012 0.094468988 0.28021276
-0.058584739 0.094540715 0.28042552
-0.058078606 0.094648317 0.28074467
-0.057571173 0.09475591 0.28106382
-0.057127159 0.094971105 0.28170213
-0.056680538 0.095186301 0.28234044
-0.05618903 0.095329754 0.28276595
-0.055633027 0.095365629 0.28287235
-0.05503517 0.095329754 0.28276595
-0.054437749 0.095293887 0.28265956
-0.053840768 0.095258027 0.2825532
-0.053244215 0.09522216 0.2824468
-0.052608423 0.095114559 0.28212765
-0.051973939 0.095006973 0.28180853
-0.051379554 0.094971105 0.28170213
-0.050843164 0.095042832 0.28191489
-0.050305907 0.095114559 0.28212765
-0.049749032 0.095150433 0.28223404
-0.04915465 0.095114559 0.28212765
-0.048560709 0.095078699 0.28202128
-0.047985297 0.095078699 0.28202128
-0.047481418 0.09522216 0.2824468
-0.046975806 0.095365629 0.28287235
-0.046451006 0.095473222 0.2831915
-0.045890439 0.095509082 0.28329787
-0.045346454 0.095580809 0.28351063
-0.044784803 0.095616676 0.28361702
-0.044239298 0.095688403 0.28382978
-0.043692928 0.095760144 0.28404257
-0.043145686 0.095831871 0.28425533
-0.042597577 0.095903598 0.28446808
-0.042032886 0.095939472 0.28457448
-0.04146776 0.095975325 0.28468084
-0.040902201 0.096011199 0.28478724
-0.040351272 0.096082926 0.285
-0.039784629 0.096118793 0.28510639
-0.039202921 0.096118793 0.28510639
-0.038635623 0.096154653 0.28521276
-0.038053699 0.096154653 0.28521276
-0.037485756 0.09619052 0.28531915
-0.036931135 0.096262254 0.28553191
-0.036362104 0.096298121 0.2856383
-0.035805963 0.096369848 0.28585106
-0.035248954 0.096441574 0.28606382
-0.034716863 0.096585043 0.28648937
-0.034183029 0.096728496 0.28691489
-0.033635005 0.096836098 0.28723404
-0.03303672 0.096800238 0.28712767
-0.032438867 0.096764363 0.28702128
-0.031817835 0.09665677 0.28670213
-0.031221282 0.096620902 0.28659573
-0.030636538 0.096620902 0.28659573
-0.030062949 0.09665677 0.28670213
-0.029488925 0.096692637 0.28680852
-0.028935909 0.096800238 0.28712767
-0.028392093 0.096943691 0.28755319
-0.027846541 0.097087145 0.28797871
-0.027248908 0.097051285 0.28787234
-0.026632 0.096943691 0.28755319
-0.02600676 0.096800238 0.28712767
-0.02540209 0.096728496 0.28691489
-0.024844298 0.096836098 0.28723404
-0.024285205 0.096943691 0.28755319
-0.023672204 0.096836098 0.28723404
-0.022975001 0.096369848 0.28585106
-0.022183442 0.095473222 0.2831915
-0.021321572 0.094217934 0.27946809
-0.020459097 0.092890926 0.27553192
-0.019658778 0.091779105 0.27223405
-0.018954031 0.091061793 0.27010638
-0.0183232 0.09066727 0.26893616
-0.017746363 0.090523817 0.26851064
-0.017225772 0.09066727 0.26893616
-0.016769417 0.091169387 0.27042553
-0.016389921 0.092137754 0.27329788
-0.016072659 0.093536496 0.27744681
-0.015768193 0.095114559 0.28212765
-0.015410257 0.096477441 0.28617021
-0.014969683 0.097409941 0.28893617
-0.014443699 0.097840324 0.29021278
-0.013871884 0.097983785 0.2906383
-0.013278891 0.097983785 0.2906383
-0.012676612 0.097912058 0.29042554
-0.012079626 0.097876184 0.29031914
-0.011483075 0.097840324 0.29021278
-0.010894942 0.097876184 0.29031914
-0.010310151 0.09794791 0.2905319
-0.0097209336 0.097983785 0.2906383
-0.0091245994 0.09794791 0.2905319
-0.0085224519 0.097840324 0.29021278
-0.0079186987 0.097696863 0.28978723
-0.0073166825 0.097553402 0.28936172
-0.0067164022 0.097409941 0.28893617
-0.0061178589 0.09726648 0.28851065
-0.005527168 0.097230613 0.28840426
-0.0049405554 0.09726648 0.28851065
-0.0043567172 0.097374067 0.28882977
-0.0037729647 0.097517535 0.28925532
-0.0031909875 0.09776859 0.28999999
-0.0026069251 0.098055512 0.29085106
-0.0020201262 0.098378301 0.29180852
-0.0014283815 0.098629355 0.29255319
-0.00083299336 0.098808683 0.2930851
-0.00023492289 0.098772824 0.29297873
0.00036231824 0.098629355 0.29255319
0.00095712533 0.09841416 0.29191488
0.0015504595 0.098270707 0.29148936
0.0021451889 0.098270707 0.29148936
0.0027419182 0.098342434 0.29170212
0.0033407328 0.098450027 0.29202127
0.0039422838 0.098593496 0.29244682
0.00454392 0.098701082 0.29276595
0.0051449905 0.098772824 0.29297873
0.0057406733 0.098736949 0.29287234
0.0063359221 0.098701082 0.29276595
0.0069282176 0.098629355 0.29255319
0.0075251171 0.098629355 0.29255319
0.0081249708 0.098665223 0.29265958
0.0087284287 0.098736949 0.29287234
0.0093361428 0.098844551 0.29319149
0.0099451588 0.098952144 0.29351065
0.010547834 0.098988004 0.29361701
0.011138827 0.098916277 0.29340425
0.011737463 0.098916277 0.29340425
0.012340573 0.098952144 0.29351065
0.012953497 0.099059746 0.2938298
0.013557907 0.099095605 0.29393616
0.014162753 0.099131472 0.29404256
0.014773373 0.099203199 0.29425532
0.015390421 0.0993108 0.29457447
0.01600877 0.099418394 0.29489362
0.016628422 0.099525988 0.29521278
0.017249377 0.099633589 0.29553193
0.017865207 0.099705316 0.29574469
0.018468618 0.099705316 0.29574469
0.019058309 0.099633589 0.29553193
0.019640055 0.099525988 0.29521278
0.02022779 0.099454254 0.29499999
0.020814659 0.099382527 0.29478723
0.02140839 0.099346668 0.29468086
0.022025522 0.099418394 0.29489362
0.022643521 0.099490121 0.29510638
0.023245631 0.099490121 0.29510638
0.023839142 0.099454254 0.29499999
0.024414595 0.099346668 0.29468086
0.024988743 0.099239066 0.29436171
0.025561588 0.099131472 0.29404256
0.026152061 0.099095605 0.29393616
0.026761467 0.099131472 0.29404256
0.027371302 0.099167332 0.29414892
0.027981576 0.099203199 0.29425532
0.028571613 0.099167332 0.29414892
0.02914012 0.099059746 0.2938298
0.029696554 0.098916277 0.29340425
0.030251253 0.098772824 0.29297873
0.030793015 0.098593496 0.29244682
0.031332601 0.09841416 0.29191488
0.031870022 0.09823484 0.29138297
0.032381564 0.097983785 0.2906383
0.03290214 0.09776859 0.28999999
0.033444684 0.097625136 0.28957447
0.0340105 0.097553402 0.28936172
0.034600887 0.097553402 0.28936172
0.035178337 0.097517535 0.28925532
0.035755351 0.097481668 0.28914893
0.036318563 0.097409941 0.28893617
0.036880907 0.097338215 0.28872341
0.037469991 0.097338215 0.28872341
0.052170839 0.089232676 0.26468086
0.052541383 0.088945754 0.2638298
0.052972663 0.088766426 0.26329789
0.05338015 0.088551231 0.26265958
0.053763192 0.088300169 0.26191488
0.054187313 0.08812084 0.26138297
0.054676075 0.088049114 0.26117021
0.055141475 0.08794152 0.26085106
0.055560168 0.087762192 0.26031914
0.055930845 0.087511137 0.25957447
0.056321617 0.087295949 0.25893617
0.056803219 0.087224215 0.25872341
0.05737824 0.087295949 0.25893617
0.058001716 0.08743941 0.25936171
0.058554899 0.08747527 0.25946808
0.058987398 0.087331817 0.25904256
0.059393719 0.087152489 0.25851065
0.059847184 0.087044895 0.2581915
0.060373973 0.087044895 0.2581915
0.060925856 0.087080754 0.25829786
0.061478175 0.087116621 0.25840425
0.061954349 0.087044895 0.2581915
0.062429652 0.086973168 0.25797874
0.062904082 0.086901426 0.25776595
0.06340383 0.086865567 0.25765958
0.063929535 0.086865567 0.25765958
0.064455241 0.086865567 0.25765958
0.065007776 0.086901426 0.25776595
0.065560751 0.086937293 0.25787234
0.066114157 0.086973168 0.25797874
0.066695474 0.087044895 0.2581915
0.06722226 0.087044895 0.2581915
0.067776963 0.087080754 0.25829786
0.068303972 0.087080754 0.25829786
0.068887681 0.087152489 0.25851065
0.069557957 0.087331817 0.25904256
0.070259176 0.087546997 0.25968084
0.070934013 0.087726332 0.26021278
0.07149414 0.087762192 0.26031914
0.071995839 0.087726332 0.26021278
0.072497107 0.087690465 0.26010638
0.073057674 0.087726332 0.26021278
0.073708929 0.087869793 0.2606383
0.07436192 0.088013254 0.26106384
0.075016648 0.088156715 0.26148936
0.075642377 0.088264309 0.26180851
0.076176547 0.088264309 0.26180851
0.07667955 0.088228442 0.26170212
0.077150725 0.088156715 0.26148936
0.077715859 0.088192582 0.26159576
0.078376874 0.088336036 0.26202127
0.078975558 0.088407762 0.26223403
0.079478346 0.08837191 0.26212767
0.079720907 0.088049114 0.26117021
0.080384545 0.088192582 0.26159576
0.081411883 0.088730559 0.26319149
0.11114268 0.09841416 0.29191488
0.11210477 0.098736949 0.29287234
0.11290701 0.098916277 0.29340425
0.11358795 0.098988004 0.29361701
0.11414566 0.098952144 0.29351065
0.1147861 0.098988004 0.29361701
0.11542697 0.099023871 0.2937234
0.11615233 0.099131472 0.29404256
0.11692122 0.099274926 0.29446808
0.11760696 0.099346668 0.29468086
0.11825087 0.099382527 0.29478723
0.11889522 0.099418394 0.29489362
0.11954 0.099454254 0.29499999
0.12014189 0.099454254 0.29499999
0.12078733 0.099490121 0.29510638
0.12147696 0.099561848 0.29531914
0.12216746 0.099633589 0.29553193
0.12285882 0.099705316 0.29574469
0.12359547 0.09981291 0.29606384
0.12424415 0.09984877 0.2961702
0.12493813 0.099920511 0.29638299
0.12563297 0.099992238 0.29659575
0.12632866 0.10006396 0.29680851
0.12702525 0.10013569 0.29702127
0.12772268 0.10020743 0.29723403
0.12837507 0.10024329 0.29734042
0.12893558 0.10020743 0.29723403
0.12940295 0.10009983 0.29691491
0.129869 0.099992238 0.29659575
0.13038056 0.099920511 0.29638299
0.1310793 0.099992238 0.29659575
0.13182615 0.10009983 0.29691491
0.13262174 0.10024329 0.29734042
0.1333714 0.10035089 0.29765958
0.13407449 0.10042261 0.29787233
0.13473035 0.10045849 0.29797873
0.13533832 0.10045849 0.29797873
0.13589774 0.10042261 0.29787233
0.13645676 0.10038675 0.29776597
0.13706429 0.10038675 0.29776597
0.137721 0.10042261 0.29787233
0.13827936 0.10038675 0.29776597
0.13873804 0.10027916 0.29744682
0.13919541 0.10017157 0.29712766
0.13970153 0.10009983 0.29691491
0.14030734 0.10009983 0.29691491
0.1410141 0.10017157 0.29712766
0.14177246 0.10027916 0.29744682
0.14248118 0.10035089 0.29765958
0.1430885 0.10035089 0.29765958
0.14364445 0.10031502 0.29755318
0.14425156 0.10031502 0.29755318
0.14491045 0.10035089 0.29765958
0.14556979 0.10038675 0.29776597
0.14622954 0.10042261 0.29787233
0.14683729 0.10042261 0.29787233
0.14733973 0.10035089 0.29765958
0.14778842 0.10024329 0.29734042
0.14828891 0.10017157 0.29712766
0.14889514 0.10017157 0.29712766
0.14971547 0.10031502 0.29755318
0.15053757 0.10045849 0.29797873
0.15125345 0.10053021 0.29819149
0.15186185 0.10053021 0.29819149
0.15252465 0.10056608 0.29829788
0.1532425 0.10063781 0.29851064
0.15418054 0.100853 0.29914895
0.15512116 0.10106819 0.29978722
0.15600914 0.10124751 0.30031914
0.15673286 0.10131925 0.30053192
0.15729032 0.10128339 0.30042553
0.15767965 0.10113993 0.30000001
0.1580672 0.10099646 0.29957446
0.15850937 0.10088886 0.29925531
0.15911995 0.10088886 0.29925531
0.16001444 0.10106819 0.29978722
0.1609681 0.10128339 0.30042553
0.16175272 0.10139098 0.30074468
0.16236633 0.10139098 0.30074468
0.16280699 0.10128339 0.30042553
0.16330421 0.10121165 0.30021277
0.16391675 0.10121165 0.30021277
0.16458757 0.10124751 0.30031914
0.16531736 0.10131925 0.30053192
0.16593054 0.10131925 0.30053192
0.16654372 0.10131925 0.30053192
0.16709772 0.10128339 0.30042553
0.1676513 0.10124751 0.30031914
0.16808523 0.10113993 0.30000001
0.16851786 0.10103233 0.29968086
0.16906926 0.10099646 0.29957446
0.16986126 0.10110406 0.29989362
0.17071502 0.10124751 0.30031914
0.17157052 0.10139098 0.30074468
0.17230596 0.10146271 0.30095744
0.17298113 0.10149857 0.30106384
0.17353405 0.10146271 0.30095744
0.17402498 0.10139098 0.30074468
0.17445326 0.10128339 0.30042553
0.17481826 0.10113993 0.30000001
0.17530593 0.10106819 0.29978722
0.17579274 0.10099646 0.29957446
0.17634131 0.10096059 0.29946807
0.17701519 0.10099646 0.29957446
0.15645403 0.088049114 0.26117021
0.15679505 0.08794152 0.26085106
0.15707062 0.087798059 0.26042554
0.15728007 0.087618738 0.25989363
0.15748736 0.08743941 0.25936171
0.15775727 0.087295949 0.25893617
0.15802547 0.087152489 0.25851065
0.15861815 0.087188348 0.25861701
0.15966953 0.08747527 0.25946808
0.16197234 0.088443637 0.26234043
-0.16083658 0.086417049 0.25478724
-0.1602498 0.086380966 0.25468084
-0.15966345 0.08634489 0.25457448
-0.15907754 0.0863088 0.25446808
-0.15849204 0.086272717 0.25436169
-0.15797307 0.086272717 0.25436169
-0.15738826 0.086236641 0.25425532
-0.15686949 0.086236641 0.25425532
-0.15635073 0.086236641 0.25425532
-0.15576676 0.08620055 0.25414893
-0.15518324 0.086164474 0.25404257
-0.15453537 0.086092308 0.25382978
-0.15388837 0.086020142 0.25361702
-0.15330657 0.085984059 0.25351062
-0.15285346 0.086020142 0.25361702
-0.1525277 0.086128391 0.25393617
-0.15226431 0.086272717 0.25436169
-0.15199921 0.086417049 0.25478724
-0.15160586 0.086489215 0.255
-0.15133771 0.086633548 0.25542554
-0.151005 0.086741798 0.2557447
-0.15067099 0.086850032 0.25606382
-0.15021092 0.086886115 0.25617021
-0.14975043 0.086922206 0.25627661
-0.14935142 0.086994365 0.25648937
-0.14895156 0.087066531 0.25670213
-0.14861235 0.087174781 0.25702128
-0.14821053 0.08724694 0.25723404
-0.14774677 0.087283023 0.25734043
-0.14734344 0.087355189 0.25755319
-0.14693923 0.087427348 0.25776595
-0.14653417 0.087499522 0.25797874
-0.14600782 0.087499522 0.25797874
-0.14536145 0.087427348 0.25776595
-0.14477578 0.087391272 0.25765958
-0.14425007 0.087391272 0.25765958
-0.14378369 0.087427348 0.25776595
-0.14343514 0.087535597 0.2580851
-0.14314421 0.08767993 0.25851065
-0.14279282 0.087788172 0.25882977
-0.14238168 0.087860346 0.25904256
-0.14185315 0.087860346 0.25904256
-0.14120854 0.087788172 0.25882977
-0.140507 0.08767993 0.25851065
-0.13986433 0.087607764 0.25829786
-0.13927995 0.087571688 0.2581915
-0.13881031 0.087607764 0.25829786
-0.13845417 0.087716006 0.25861701
-0.13809672 0.087824255 0.25893617
-0.13773797 0.087932505 0.25925532
-0.13732161 0.088004664 0.25946808
-0.1368483 0.088040754 0.25957447
-0.13631868 0.088040754 0.25957447
-0.13590038 0.088112913 0.25978723
-0.13548119 0.088185079 0.25999999
-0.13511637 0.088293329 0.26031914
-0.13464023 0.088329412 0.26042554
-0.13410889 0.088329412 0.26042554
-0.13357754 0.088329412 0.26042554
-0.13304619 0.088329412 0.26042554
-0.13256897 0.088365488 0.2605319
-0.1320374 0.088365488 0.2605319
-0.13155954 0.088401571 0.2606383
-0.13102774 0.088401571 0.2606383
-0.13044269 0.088365488 0.2605319
-0.12991112 0.088365488 0.2605319
-0.12937957 0.088365488 0.2605319
-0.12895323 0.088437662 0.26074469
-0.12852602 0.08850982 0.26095745
-0.12815012 0.08861807 0.2612766
-0.12777293 0.088726319 0.26159576
-0.12739441 0.088834554 0.26191488
-0.12701461 0.088942803 0.26223403
-0.12653087 0.088978894 0.26234043
-0.12599562 0.088978894 0.26234043
-0.12540948 0.088942803 0.26223403
-0.12477313 0.088870645 0.26202127
-0.12418808 0.088834554 0.26191488
-0.12375415 0.088906728 0.26212767
-0.12336935 0.089014977 0.26244682
-0.12308283 0.089195386 0.26297873
-0.12274456 0.089339711 0.26340425
-0.12230584 0.089411877 0.26361701
-0.12176798 0.089411877 0.26361701
-0.1211812 0.089375801 0.26351064
-0.12069226 0.089411877 0.26361701
-0.12025139 0.089484043 0.2638298
-0.11985791 0.089592293 0.26414895
-0.11951117 0.089736618 0.26457447
-0.1191627 0.089880943 0.26499999
-0.11881251 0.090025276 0.26542553
-0.11846056 0.090169601 0.26585105
-0.11810689 0.090313934 0.2662766
-0.11775148 0.090458259 0.26670212
-0.11730083 0.090530433 0.2669149
-0.11675625 0.090530433 0.2669149
-0.116119 0.090458259 0.26670212
-0.11552876 0.090422183 0.26659575
-0.11493893 0.0903861 0.26648936
-0.11444088 0.090422183 0.26659575
-0.11394238 0.090458259 0.26670212
-0.11344346 0.09049435 0.26680851
-0.11285407 0.090458259 0.26670212
-0.11222032 0.0903861 0.26648936
-0.11163203 0.090350024 0.26638299
-0.11108852 0.090350024 0.26638299
-0.11054502 0.090350024 0.26638299
-0.11004544 0.0903861 0.26648936
-0.10954543 0.090422183 0.26659575
-0.10908849 0.09049435 0.26680851
-0.10863066 0.090566508 0.26702127
-0.10817199 0.090638682 0.26723406
-0.10771244 0.090710841 0.26744682
-0.10729465 0.090819091 0.26776597
-0.10683315 0.090891249 0.26797873
-0.10632857 0.090927333 0.26808509
-0.10573962 0.090891249 0.26797873
-0.10519286 0.090891249 0.26797873
-0.10472918 0.090963416 0.26819149
-0.1043473 0.091107748 0.26861703
-0.10396367 0.091252074 0.26904255
-0.10349651 0.091324233 0.26925531
-0.10298783 0.091360323 0.2693617
-0.10260008 0.091504648 0.26978722
-0.10221059 0.091648981 0.27021277
-0.10173932 0.09172114 0.27042553
-0.10122737 0.09175723 0.27053192
-0.10063581 0.09172114 0.27042553
-0.10008406 0.09172114 0.27042553
-0.099571466 0.09175723 0.27053192
-0.099097364 0.091829389 0.27074468
-0.098622404 0.091901556 0.27095744
-0.098031066 0.09186548 0.27085108
-0.097440153 0.091829389 0.27074468
-0.096811615 0.09175723 0.27053192
-0.096259646 0.09175723 0.27053192
-0.095745303 0.091793306 0.27063829
-0.0953428 0.091937639 0.27106383
-0.094938546 0.092081964 0.27148935
-0.094532564 0.092226297 0.2719149
-0.094088078 0.092334546 0.27223405
-0.093569182 0.092370622 0.27234042
-0.093013518 0.092370622 0.27234042
-0.092385627 0.092298463 0.27212766
-0.091758609 0.092226297 0.2719149
-0.091132455 0.092154138 0.27170214
-0.090578094 0.092154138 0.27170214
-0.09012948 0.092262372 0.27202126
-0.089679562 0.092370622 0.27234042
-0.089193538 0.092442796 0.27255321
-0.088637441 0.092442796 0.27255321
-0.088012584 0.092370622 0.27234042
-0.087388597 0.092298463 0.27212766
-0.086799428 0.092262372 0.27202126
-0.086311884 0.092334546 0.27223405
-0.085856974 0.092442796 0.27255321
-0.08540076 0.09255103 0.27287233
-0.084877096 0.092587121 0.27297872
-0.084287271 0.09255103 0.27287233
-0.083665237 0.092478871 0.27265957
-0.083108932 0.092478871 0.27265957
-0.082552619 0.092478871 0.27265957
-0.082060292 0.09255103 0.27287233
-0.081535324 0.092587121 0.27297872
-0.080978364 0.092587121 0.27297872
-0.080390058 0.09255103 0.27287233
-0.079771064 0.092478871 0.27265957
-0.079183854 0.092442796 0.27255321
-0.078627758 0.092442796 0.27255321
-0.078102134 0.092478871 0.27265957
-0.077636592 0.092587121 0.27297872
-0.077169746 0.092695363 0.27329788
-0.076671772 0.092767529 0.27351063
-0.076113731 0.092767529 0.27351063
-0.07552629 0.092731446 0.27340424
-0.074968457 0.092731446 0.27340424
-0.074439585 0.092767529 0.27351063
-0.073967747 0.092875779 0.27382979
-0.073494613 0.092984028 0.27414894
-0.072963558 0.093020104 0.27425531
-0.072375908 0.092984028 0.27414894
-0.071788691 0.092947938 0.27404255
-0.071174257 0.092875779 0.27382979
-0.070642993 0.092911862 0.27393618
-0.07011129 0.092947938 0.27404255
-0.069579162 0.092984028 0.27414894
-0.069073379 0.093056187 0.2743617
-0.068593293 0.093164437 0.27468085
-0.068138249 0.093308762 0.27510637
-0.067655347 0.093417011 0.27542552
-0.067119308 0.093453094 0.27553192
-0.066531435 0.093417011 0.27542552
-0.065969482 0.093417011 0.27542552
-0.065432794 0.093453094 0.27553192
-0.064920716 0.093525253 0.27574468
-0.064382941 0.093561344 0.27585107
-0.063869342 0.093633503 0.27606383
-0.063330486 0.093669593 0.27617022
-0.062839538 0.093777828 0.27648935
-0.062371265 0.093922161 0.27691489
-0.061901245 0.094066486 0.27734041
-0.061429497 0.094210818 0.27776596
-0.060886078 0.094246909 0.27787235
-0.060365316 0.094319068 0.27808511
-0.059843685 0.094391234 0.27829787
-0.059321187 0.094463393 0.27851063
-0.058820266 0.094571643 0.27882978
-0.058295816 0.094643801 0.27904254
-0.057792503 0.094752051 0.2793617
-0.057309687 0.094896384 0.27978724
-0.05686827 0.095112875 0.28042552
-0.056424256 0.095329367 0.28106382
-0.05593536 0.095473707 0.28148937
-0.055381954 0.095509782 0.28159574
-0.054786708 0.095473707 0.28148937
-0.05421238 0.095473707 0.28148937
-0.053638056 0.095473707 0.28148937
-0.053043671 0.095437616 0.28138298
-0.052429888 0.095365457 0.28117022
-0.051816974 0.095293291 0.28095746
-0.051204924 0.095221125 0.28074467
-0.050632115 0.095221125 0.28074467
-0.050059311 0.095221125 0.28074467
-0.049486503 0.095221125 0.28074467
-0.048876628 0.095148958 0.28053191
-0.048304256 0.095148958 0.28053191
-0.047731884 0.095148958 0.28053191
-0.047231048 0.095293291 0.28095746
-0.046728469 0.095437616 0.28138298
-0.046224162 0.095581949 0.28180853
-0.045683648 0.095654115 0.28202128
-0.045159284 0.095762365 0.28234044
-0.044600017 0.09579844 0.2824468
-0.0440569 0.095870599 0.28265956
-0.043496553 0.09590669 0.28276595
-0.04293577 0.095942773 0.28287235
-0.042374551 0.095978849 0.28297871
-0.041844323 0.096087098 0.28329787
-0.041297302 0.096159257 0.28351063
-0.040764689 0.096267506 0.28382978
-0.040200651 0.096303597 0.28393617
-0.039621331 0.096303597 0.28393617
-0.03901276 0.096231431 0.28372341
-0.03840505 0.096159257 0.28351063
-0.037798211 0.096087098 0.28329787
-0.037234172 0.096123181 0.28340426
-0.036669698 0.096159257 0.28351063
-0.036118336 0.096231431 0.28372341
-0.035552774 0.096267506 0.28382978
-0.034999892 0.09633968 0.28404257
-0.034471922 0.096484005 0.28446808
-0.033942215 0.096628331 0.2848936
-0.033398315 0.09673658 0.28521276
-0.032816391 0.09673658 0.28521276
-0.032222446 0.096700497 0.28510639
-0.031628933 0.096664414 0.285
-0.031059036 0.096700497 0.28510639
-0.03047733 0.096700497 0.28510639
-0.029895622 0.096700497 0.28510639
-0.029313916 0.096700497 0.28510639
-0.02874293 0.09673658 0.28521276
-0.028203024 0.096880913 0.2856383
-0.027640807 0.096953072 0.28585106
-0.027067652 0.096989162 0.28595746
-0.02645465 0.096880913 0.2856383
-0.025852587 0.096808746 0.28542554
-0.025279647 0.096844822 0.28553191
-0.024724679 0.096953072 0.28585106
-0.024168408 0.097061321 0.28617021
-0.023549458 0.096916988 0.28574467
-0.022846745 0.096411839 0.28425533
-0.02205844 0.095509782 0.28159574
-0.021216061 0.094319068 0.27808511
-0.020380104 0.09309227 0.27446809
-0.019589636 0.092009798 0.27127659
-0.018894309 0.091324233 0.26925531
-0.018272463 0.090963416 0.26819149
-0.017704176 0.090855166 0.26787233
-0.017191702 0.091035575 0.26840425
-0.016749626 0.091612898 0.27010638
-0.01638354 0.09265928 0.27319148
-0.016066495 0.094066486 0.27734041
-0.015750358 0.095581949 0.28180853
-0.015375884 0.096844822 0.28553191
-0.014920077 0.097674713 0.28797871
-0.014390752 0.09807162 0.28914893
-0.013816031 0.098179869 0.28946808
-0.013220565 0.098143794 0.28936172
-0.01262089 0.09807162 0.28914893
-0.012026509 0.098035544 0.28904256
-0.011440981 0.09807162 0.28914893
-0.01085502 0.09810771 0.28925532
-0.010276174 0.098215953 0.28957447
-0.0096924677 0.098288119 0.28978723
-0.0091012111 0.098288119 0.28978723
-0.0085068308 0.098252028 0.28968084
-0.0079099769 0.098179869 0.28946808
-0.0073139924 0.09810771 0.28925532
-0.0067164022 0.097999461 0.28893617
-0.0061223707 0.097927295 0.28872341
-0.0055353232 0.09796337 0.28882977
-0.0049496638 0.098035544 0.28904256
-0.004364741 0.098143794 0.28936172
-0.0037812907 0.098324202 0.28989363
-0.0031944993 0.098468527 0.29031914
-0.0026069251 0.098648936 0.29085106
-0.0020171802 0.098829351 0.29138297
-0.0014237069 0.098901518 0.29159576
-0.00082906272 0.098937593 0.29170212
-0.00023398457 0.098973684 0.29180852
0.00036126425 0.098937593 0.29170212
0.00095503253 0.098793276 0.2912766
0.0015470643 0.098648936 0.29085106
0.0021389255 0.098576777 0.2906383
0.0027329186 0.09861286 0.29074469
0.0033285625 0.098685026 0.29095745
0.0039265091 0.098793276 0.2912766
0.0045274086 0.098937593 0.29170212
0.0051263082 0.09900976 0.29191488
0.005719821 0.098973684 0.29180852
0.0063105971 0.098901518 0.29159576
0.0068979855 0.098793276 0.2912766
0.0074895439 0.098757185 0.29117021
0.0080865761 0.098793276 0.2912766
0.0086903833 0.098901518 0.29159576
0.0093022669 0.099081933 0.29212767
0.0099163223 0.099262342 0.29265958
0.010524904 0.099370591 0.29297873
0.011118633 0.099334501 0.29287234
0.011711928 0.099298418 0.29276595
0.012313736 0.099334501 0.29287234
0.012915977 0.099370591 0.29297873
0.013513745 0.099370591 0.29297873
0.014111513 0.099370591 0.29297873
0.014714622 0.099406667 0.2930851
0.015323724 0.099478841 0.29329789
0.015939467 0.099587075 0.29361701
0.016562508 0.099731408 0.29404256
0.017181074 0.099839658 0.29436171
0.017807368 0.099983983 0.29478723
0.018422114 0.10005614 0.29499999
0.019024005 0.10005614 0.29499999
0.019618822 0.10002007 0.29489362
0.020205908 0.099947907 0.29468086
0.020792125 0.099875733 0.29446808
0.02139293 0.099875733 0.29446808
0.022001684 0.099911824 0.29457447
0.022619033 0.099983983 0.29478723
0.023237251 0.10005614 0.29499999
0.023839142 0.10005614 0.29499999
0.024432223 0.10002007 0.29489362
0.025006805 0.099911824 0.29457447
0.025570834 0.099767484 0.29414892
0.026161527 0.099731408 0.29404256
0.026771147 0.099767484 0.29414892
0.0274109 0.099911824 0.29457447
0.028052388 0.10005614 0.29499999
0.028674949 0.10012832 0.29521278
0.029287824 0.10016439 0.29531914
0.029879602 0.10012832 0.29521278
0.030459957 0.10005614 0.29499999
0.031028247 0.099947907 0.29468086
0.031583812 0.099803574 0.29425532
0.032137644 0.099659249 0.2938298
0.032689735 0.099514917 0.29340425
0.033252161 0.099406667 0.2930851
0.033850148 0.099406667 0.2930851
0.034460638 0.09944275 0.29319149
0.035084281 0.099514917 0.29340425
0.035708793 0.099587075 0.29361701
0.036307864 0.099587075 0.29361701
0.036906935 0.099587075 0.29361701
0.037506003 0.099587075 0.29361701
0.038105074 0.099587075 0.29361701
0.038718171 0.099623159 0.2937234
0.039331701 0.099659249 0.2938298
0.039931204 0.099659249 0.2938298
0.040486686 0.099551 0.29351065
0.04101108 0.099370591 0.29297873
0.041472871 0.099045843 0.29202127
0.04194608 0.098757185 0.29117021
0.0424469 0.098540694 0.2905319
0.043023922 0.09850461 0.29042554
0.043632455 0.098540694 0.2905319
0.044241425 0.098576777 0.2906383
0.044834416 0.098576777 0.2906383
0.045394156 0.09850461 0.29042554
0.045902491 0.098324202 0.28989363
0.046374526 0.09807162 0.28914893
0.056733131 0.089303635 0.26329789
0.056992665 0.088870645 0.26202127
0.057387128 0.088654146 0.26138297
0.057873286 0.088581987 0.26117021
0.058453735 0.088654146 0.26138297
0.058963034 0.08861807 0.2612766
0.059399217 0.088473737 0.26085106
0.059760343 0.088221163 0.26010638
0.060167748 0.088040754 0.25957447
0.060647611 0.087968588 0.25936171
0.061201878 0.088004664 0.25946808
0.061731275 0.088004664 0.25946808
0.062158566 0.087860346 0.25904256
0.06258411 0.087716006 0.25861701
0.063007928 0.087571688 0.2581915
0.06350854 0.087535597 0.2580851
0.064035118 0.087535597 0.2580851
0.064614914 0.087607764 0.25829786
0.065168753 0.087643847 0.25840425
0.065695979 0.087643847 0.25840425
0.066223204 0.087643847 0.25840425
0.066777915 0.08767993 0.25851065
0.067305356 0.08767993 0.25851065
0.067832798 0.08767993 0.25851065
0.068332106 0.087643847 0.25840425
0.068859331 0.087643847 0.25840425
0.069472253 0.087752096 0.25872341
0.070115261 0.087896422 0.25914893
0.070702009 0.087968588 0.25936171
0.071201973 0.087932505 0.25925532
0.071613193 0.087788172 0.25882977
0.071993031 0.087607764 0.25829786
0.072430439 0.087499522 0.25797874
0.072986878 0.087535597 0.2580851
0.073634669 0.08767993 0.25851065
0.074314706 0.087860346 0.25904256
0.074966177 0.088004664 0.25946808
0.075526528 0.088040754 0.25957447
0.075993799 0.087968588 0.25936171
0.076397426 0.087824255 0.25893617
0.076862529 0.087752096 0.25872341
0.077422224 0.087788172 0.25882977
0.077982359 0.087824255 0.25893617
0.078510664 0.087824255 0.25893617
0.079006501 0.087788172 0.25882977
0.079567291 0.087824255 0.25893617
0.080227233 0.087968588 0.25936171
0.081021406 0.088257253 0.26021278
0.081852384 0.088581987 0.26117021
0.082653716 0.088870645 0.26202127
0.083458528 0.089159302 0.26287234
0.084266804 0.08944796 0.2637234
0.088357054 0.089231461 0.2630851
0.088857889 0.089195386 0.26297873
0.089466773 0.089267552 0.26319149
0.11523163 0.098432451 0.29021278
0.11607848 0.098648936 0.29085106
0.11684261 0.098793276 0.2912766
0.11756559 0.098901518 0.29159576
0.11824675 0.098973684 0.29180852
0.11897211 0.099081933 0.29212767
0.11969877 0.099190183 0.29244682
0.12047049 0.099334501 0.29287234
0.12124395 0.099478841 0.29329789
0.12210752 0.099695325 0.29393616
0.12297371 0.099911824 0.29457447
0.12375324 0.10005614 0.29499999
0.12453452 0.10020048 0.29542553
0.12522741 0.10027264 0.29563829
0.12587588 0.10030873 0.29574469
0.12652478 0.10034481 0.29585105
0.12717412 0.10038089 0.29595745
0.12786983 0.10045305 0.2961702
0.12842797 0.10041697 0.29606384
0.1289393 0.10034481 0.29585105
0.12944977 0.10027264 0.29563829
0.13009976 0.10030873 0.29574469
0.13084422 0.10041697 0.29606384
0.13158998 0.10052522 0.29638299
0.13238449 0.10066955 0.29680851
0.1330854 0.10074171 0.29702127
0.13378718 0.10081387 0.29723403
0.13444173 0.10084996 0.29734042
0.1350484 0.10084996 0.29734042
0.13565508 0.10084996 0.29734042
0.13621299 0.10081387 0.29723403
0.1368684 0.10084996 0.29734042
0.13747507 0.10084996 0.29734042
0.13808174 0.10084996 0.29734042
0.13863878 0.10081387 0.29723403
0.13909574 0.10070563 0.29691491
0.13955137 0.10059739 0.29659575
0.14005598 0.10052522 0.29638299
0.14066069 0.10052522 0.29638299
0.14126541 0.10052522 0.29638299
0.14192103 0.1005613 0.29648936
0.14252597 0.1005613 0.29648936
0.1431309 0.1005613 0.29648936
0.14373583 0.1005613 0.29648936
0.14444433 0.10063346 0.29670212
0.14520572 0.10074171 0.29702127
0.14596842 0.10084996 0.29734042
0.14667997 0.10092212 0.29755318
0.14723442 0.10088605 0.29744682
0.1476298 0.10074171 0.29702127
0.14802344 0.10059739 0.29659575
0.14862859 0.10059739 0.29659575
0.14939432 0.10070563 0.29691491
0.15016134 0.10081387 0.29723403
0.15082176 0.10084996 0.29734042
0.15137424 0.10081387 0.29723403
0.1519807 0.10081387 0.29723403
0.1528056 0.10095821 0.29765958
0.1537419 0.1011747 0.29829788
0.15479089 0.10146336 0.29914895
0.15567757 0.10164377 0.29968086
0.15634447 0.10167985 0.29978722
0.15684475 0.10160769 0.29957446
0.15717641 0.10142728 0.29904255
0.15744975 0.10121078 0.29840425
0.15788953 0.10110253 0.29808509
0.15849772 0.10110253 0.29808509
0.15933305 0.10124686 0.29851064
0.16022711 0.10142728 0.29904255
0.16100889 0.10153552 0.29936171
0.16161969 0.10153552 0.29936171
0.16205752 0.10142728 0.29904255
0.16255192 0.10135511 0.29882979
0.16321971 0.10139119 0.29893616
0.16388795 0.10142728 0.29904255
0.16455661 0.10146336 0.29914895
0.16516697 0.10146336 0.29914895
0.16583627 0.10149944 0.29925531
0.16638768 0.10146336 0.29914895
0.16693865 0.10142728 0.29904255
0.16742958 0.10135511 0.29882979
0.16785982 0.10124686 0.29851064
0.1683488 0.1011747 0.29829788
0.16895743 0.1011747 0.29829788
0.16968699 0.10124686 0.29851064
0.17047811 0.10135511 0.29882979
0.17127053 0.10146336 0.29914895
0.17206426 0.1015716 0.29946807
0.17273661 0.10160769 0.29957446
0.17328627 0.1015716 0.29946807
0.17371197 0.10146336 0.29914895
0.17413634 0.10135511 0.29882979
0.17455943 0.10124686 0.29851064
0.17498119 0.10113861 0.29819149
0.17533903 0.1009943 0.29776597
0.17519224 0.1005613 0.29648936
0.15677266 0.088762395 0.26170212
0.15673111 0.088437662 0.26074469
0.15687813 0.088221163 0.26010638
0.1571513 0.08807683 0.25968084
0.15748736 0.087968588 0.25936171
0.15775727 0.087824255 0.25893617
0.15809049 0.087716006 0.25861701
0.15874864 0.087788172 0.25882977
0.15999685 0.088185079 0.25999999
0.1625635 0.089303635 0.26329789
-0.15969494 0.086319804 0.25297871
-0.15917878 0.086319804 0.25297871
-0.15866263 0.086319804 0.25297871
-0.15814647 0.086319804 0.25297871
-0.15763031 0.086319804 0.25297871
-0.15711416 0.086319804 0.25297871
-0.156598 0.086319804 0.25297871
-0.15614749 0.086356103 0.25308511
-0.15563112 0.086356103 0.25308511
-0.15511474 0.086356103 0.25308511
-0.15453339 0.086319804 0.25297871
-0.15388769 0.086247206 0.25276595
-0.15317832 0.086138308 0.2524468
-0.15253459 0.08606571 0.25223404
-0.15208407 0.086102016 0.25234044
-0.15176092 0.086210914 0.25265959
-0.15150014 0.086356103 0.25308511
-0.15123762 0.0865013 0.25351062
-0.15091012 0.086610198 0.25382978
-0.15058133 0.086719096 0.25414893
-0.15025122 0.086827993 0.25446808
-0.14991982 0.086936899 0.25478724
-0.14952473 0.08700949 0.255
-0.14906663 0.087045796 0.25510639
-0.14867002 0.087118395 0.25531915
-0.14833428 0.087227292 0.2556383
-0.14793572 0.087299883 0.25585106
-0.147475 0.08733619 0.25595745
-0.14701383 0.087372482 0.25606382
-0.14667396 0.08748138 0.25638297
-0.1463328 0.087590285 0.25670213
-0.14592989 0.087662876 0.25691488
-0.14540571 0.087662876 0.25691488
-0.14482154 0.087626584 0.25680852
-0.14411823 0.087517686 0.25648937
-0.14353536 0.08748138 0.25638297
-0.14301226 0.08748138 0.25638297
-0.14260741 0.087553978 0.25659573
-0.14220169 0.087626584 0.25680852
-0.1417951 0.087699182 0.25702128
-0.14138764 0.087771781 0.25723404
-0.1409793 0.087844372 0.2574468
-0.14045404 0.087844372 0.2574468
-0.13992876 0.087844372 0.2574468
-0.1393459 0.08780808 0.25734043
-0.13882084 0.08780808 0.25734043
-0.13835295 0.087844372 0.2574468
-0.13788463 0.087880678 0.25755319
-0.13741589 0.087916978 0.25765958
-0.13694669 0.087953269 0.25776595
-0.13653338 0.088025883 0.25797874
-0.1360631 0.088062175 0.2580851
-0.13564827 0.088134766 0.25829786
-0.13523257 0.088207372 0.25851065
-0.13487141 0.088316262 0.25882977
-0.13450897 0.088425167 0.25914893
-0.13398023 0.088425167 0.25914893
-0.13345148 0.088425167 0.25914893
-0.13286819 0.088388868 0.25904256
-0.132394 0.088425167 0.25914893
-0.13191938 0.088461466 0.25925532
-0.13144435 0.088497773 0.25936171
-0.13091516 0.088497773 0.25936171
-0.1303325 0.088461466 0.25925532
-0.12969701 0.088388868 0.25904256
-0.12911543 0.088352568 0.25893617
-0.12863997 0.088388868 0.25904256
-0.12821665 0.088461466 0.25925532
-0.12784488 0.088570364 0.25957447
-0.12757616 0.08875186 0.26010638
-0.12725329 0.088897057 0.2605319
-0.12692872 0.089042254 0.26095745
-0.12655087 0.089151159 0.2612766
-0.12606908 0.089187451 0.26138297
-0.12558688 0.08922375 0.26148936
-0.12495161 0.089151159 0.2612766
-0.12436786 0.089114852 0.26117021
-0.12378456 0.08907856 0.26106384
-0.12330212 0.089114852 0.26117021
-0.12296929 0.089260057 0.26159576
-0.12263471 0.089405246 0.26202127
-0.12224883 0.089514151 0.26234043
-0.12176293 0.08955045 0.26244682
-0.12117831 0.089514151 0.26234043
-0.12064306 0.089514151 0.26234043
-0.1201078 0.089514151 0.26234043
-0.11971801 0.089623049 0.26265958
-0.11932692 0.089731947 0.26297873
-0.11903063 0.089913443 0.26351064
-0.11873217 0.090094939 0.26404256
-0.11833631 0.090203837 0.26436171
-0.11793914 0.090312734 0.26468086
-0.11754065 0.090421624 0.26499999
-0.11714088 0.090530522 0.26531914
-0.1166463 0.090566829 0.26542553
-0.11615129 0.090603128 0.26553193
-0.11551688 0.090530522 0.26531914
-0.11492945 0.09049423 0.26521277
-0.11434244 0.090457931 0.26510638
-0.11384722 0.09049423 0.26521277
-0.11335154 0.090530522 0.26531914
-0.11290068 0.090603128 0.26553193
-0.11235891 0.090603128 0.26553193
-0.11177234 0.090566829 0.26542553
-0.11114163 0.09049423 0.26521277
-0.11055615 0.090457931 0.26510638
-0.11001524 0.090457931 0.26510638
-0.10951828 0.09049423 0.26521277
-0.10902087 0.090530522 0.26531914
-0.10856654 0.090603128 0.26553193
-0.10811132 0.090675727 0.26574469
-0.10765524 0.090748325 0.26595744
-0.10724115 0.090857223 0.2662766
-0.10686836 0.091002412 0.26670212
-0.10640904 0.091075025 0.2669149
-0.10586445 0.091075025 0.2669149
-0.10527787 0.091038719 0.26680851
-0.10464999 0.09096612 0.26659575
-0.10414758 0.091002412 0.26670212
-0.10368609 0.091075025 0.2669149
-0.10326482 0.091183923 0.26723406
-0.10280137 0.091256514 0.26744682
-0.10237771 0.091365419 0.26776597
-0.10195275 0.09147431 0.26808509
-0.10156674 0.091619506 0.26851064
-0.10105892 0.091655813 0.26861703
-0.10047105 0.091619506 0.26851064
-0.099923208 0.091619506 0.26851064
-0.099454097 0.091692105 0.2687234
-0.09902329 0.091801003 0.26904255
-0.098630115 0.091946207 0.2694681
-0.098119028 0.091982499 0.26957446
-0.097569011 0.091982499 0.26957446
-0.096942425 0.0919099 0.2693617
-0.096354768 0.091873601 0.26925531
-0.095767558 0.091837309 0.26914895
-0.095256038 0.091873601 0.26925531
-0.094781518 0.091946207 0.2694681
-0.09434332 0.092055097 0.26978722
-0.093903825 0.092163995 0.27010638
-0.093426265 0.092236601 0.27031916
-0.092947826 0.092309199 0.27053192
-0.092432186 0.092345491 0.27063829
-0.091880001 0.092345491 0.27063829
-0.091291919 0.092309199 0.27053192
-0.090704262 0.092272893 0.27042553
-0.09015251 0.092272893 0.27042553
-0.089671254 0.092345491 0.27063829
-0.08922416 0.092454389 0.27095744
-0.088775761 0.092563294 0.27127659
-0.088187672 0.092526987 0.2711702
-0.087565646 0.092454389 0.27095744
-0.086944483 0.092381798 0.27074468
-0.086392082 0.092381798 0.27074468
-0.08587341 0.092418097 0.27085108
-0.085387811 0.092490695 0.27106383
-0.08490134 0.092563294 0.27127659
-0.084347852 0.092563294 0.27127659
-0.083761498 0.092526987 0.2711702
-0.083208226 0.092526987 0.2711702
-0.082654953 0.092526987 0.2711702
-0.08210168 0.092526987 0.2711702
-0.081548415 0.092526987 0.2711702
-0.080995142 0.092526987 0.2711702
-0.08044187 0.092526987 0.2711702
-0.07985726 0.092490695 0.27106383
-0.079273075 0.092454389 0.27095744
-0.078689337 0.092418097 0.27085108
-0.078167401 0.092454389 0.27095744
-0.077675506 0.092526987 0.2711702
-0.077243261 0.092672192 0.27159575
-0.07683932 0.092853688 0.27212766
-0.076373555 0.092962585 0.27244681
-0.075817682 0.092962585 0.27244681
-0.075232416 0.092926279 0.27234042
-0.074647591 0.092889987 0.27223405
-0.07409215 0.092889987 0.27223405
-0.073565438 0.092926279 0.27234042
-0.073038295 0.092962585 0.27244681
-0.072482422 0.092962585 0.27244681
-0.071926542 0.092962585 0.27244681
-0.071370669 0.092962585 0.27244681
-0.070814788 0.092962585 0.27244681
-0.070286356 0.092998885 0.27255321
-0.069730259 0.092998885 0.27255321
-0.069228165 0.093071483 0.27276596
-0.068698414 0.093107775 0.27287233
-0.068168238 0.093144082 0.27297872
-0.067663975 0.09321668 0.27319148
-0.067158841 0.093289271 0.27340424
-0.066652842 0.093361877 0.27361703
-0.066094577 0.093361877 0.27361703
-0.065561794 0.093398169 0.27372339
-0.065053843 0.093470782 0.27393618
-0.064570062 0.093579665 0.27425531
-0.064084984 0.09368857 0.27457446
-0.063573994 0.093761176 0.27478725
-0.063062131 0.093833767 0.27500001
-0.062549405 0.093906365 0.27521276
-0.062059768 0.094015263 0.27553192
-0.06156883 0.094124168 0.27585107
-0.061076589 0.094233066 0.27617022
-0.060536422 0.094269358 0.27627659
-0.060018916 0.094341956 0.27648935
-0.059523419 0.094450854 0.2768085
-0.059049282 0.094596058 0.27723405
-0.058550965 0.094704956 0.2775532
-0.058051348 0.094813854 0.27787235
-0.057550419 0.094922744 0.27819148
-0.057048194 0.095031641 0.27851063
-0.056609388 0.095249444 0.27914894
-0.056146622 0.09543094 0.27968085
-0.055639405 0.095539838 0.28
-0.055068117 0.095539838 0.28
-0.054496828 0.095539838 0.28
-0.05392554 0.095539838 0.28
-0.053394794 0.095612429 0.28021276
-0.052823074 0.095612429 0.28021276
-0.052231517 0.095576137 0.2801064
-0.05162077 0.095503531 0.27989361
-0.051030297 0.09546724 0.27978724
-0.050440256 0.09543094 0.27968085
-0.049831685 0.095358342 0.27946809
-0.049223978 0.095285743 0.27925533
-0.048635673 0.095249444 0.27914894
-0.048066124 0.095249444 0.27914894
-0.047514673 0.095285743 0.27925533
-0.046998553 0.095394634 0.27957445
-0.046516471 0.095576137 0.2801064
-0.046014763 0.095721334 0.28053191
-0.045494091 0.095830232 0.28085107
-0.044955097 0.09590283 0.28106382
-0.044398438 0.09593913 0.28117022
-0.04384134 0.095975421 0.28127658
-0.043283816 0.096011728 0.28138298
-0.042725854 0.096048027 0.28148937
-0.042183388 0.096120626 0.28170213
-0.041655768 0.096229523 0.28202128
-0.041142341 0.09637472 0.2824468
-0.040596616 0.096447311 0.28265956
-0.04005003 0.096519917 0.28287235
-0.039443187 0.096447311 0.28265956
-0.038822595 0.096338429 0.28234044
-0.038188886 0.096193224 0.28191489
-0.037585307 0.096120626 0.28170213
-0.036996566 0.096084327 0.28159574
-0.036435783 0.096120626 0.28170213
-0.035874568 0.096156932 0.28180853
-0.035299592 0.096156932 0.28180853
-0.03475083 0.096229523 0.28202128
-0.034226984 0.09637472 0.2824468
-0.033701401 0.096519917 0.28287235
-0.033161629 0.096628822 0.2831915
-0.032583829 0.096628822 0.2831915
-0.032006029 0.096628822 0.2831915
-0.031428229 0.096628822 0.2831915
-0.030873608 0.096701413 0.28340426
-0.030306745 0.096737713 0.28351063
-0.029717142 0.096701413 0.28340426
-0.029117033 0.096628822 0.2831915
-0.028528512 0.096592516 0.28308511
-0.027971936 0.096665114 0.28329787
-0.027414493 0.096737713 0.28351063
-0.026846115 0.096774012 0.28361702
-0.026267447 0.096774012 0.28361702
-0.02568878 0.096774012 0.28361702
-0.025147788 0.096919216 0.28404257
-0.024605058 0.097064406 0.28446808
-0.024051609 0.097173311 0.28478724
-0.023426715 0.096991815 0.28425533
-0.02273559 0.096519917 0.28287235
-0.021975107 0.095721334 0.28053191
-0.021159245 0.09463235 0.27734041
-0.020340608 0.093470782 0.27393618
-0.01956659 0.092454389 0.27095744
-0.018864449 0.091728412 0.26882979
-0.018243473 0.091365419 0.26776597
-0.017676054 0.091256514 0.26744682
-0.01717126 0.09147431 0.26808509
-0.016736431 0.092091396 0.26989362
-0.016370781 0.093144082 0.27297872
-0.016048007 0.09452346 0.27702129
-0.015714683 0.09593913 0.28117022
-0.015330054 0.097137004 0.28468084
-0.014859451 0.097862996 0.28680852
-0.014327217 0.098225988 0.28787234
-0.013755101 0.098334886 0.2881915
-0.013162239 0.098298587 0.2880851
-0.012565169 0.098225988 0.28787234
-0.011977819 0.098225988 0.28787234
-0.011398888 0.098298587 0.2880851
-0.010823081 0.098407485 0.28840426
-0.010245972 0.098516382 0.28872341
-0.0096604442 0.098552674 0.28882977
-0.0090744821 0.098588981 0.28893617
-0.0084849624 0.098588981 0.28893617
-0.0078954427 0.098588981 0.28893617
-0.0073005427 0.098516382 0.28872341
-0.0067065111 0.098443784 0.28851065
-0.0061133467 0.098371178 0.28829786
-0.0055251289 0.098371178 0.28829786
-0.0049405554 0.098443784 0.28851065
-0.0043567172 0.098552674 0.28882977
-0.003771577 0.098661572 0.28914893
-0.0031874757 0.098843068 0.28968084
-0.0026002505 0.098988272 0.29010639
-0.0020105522 0.09909717 0.29042554
-0.0014179933 0.09909717 0.29042554
-0.00082513207 0.099060871 0.29031914
-0.00023287562 0.09909717 0.29042554
0.00035981496 0.099133469 0.2905319
0.00095224206 0.09909717 0.29042554
0.0015431034 0.098988272 0.29010639
0.0021326623 0.098879375 0.28978723
0.0027229188 0.098843068 0.28968084
0.0033151752 0.098879375 0.28978723
0.0039092996 0.098951973 0.28999999
0.0045042932 0.099024579 0.29021278
0.0051001539 0.09909717 0.29042554
0.0056947977 0.099133469 0.2905319
0.0062852716 0.09909717 0.29042554
0.0068727923 0.099024579 0.29021278
0.0074594435 0.098951973 0.28999999
0.0080540879 0.098988272 0.29010639
0.0086555071 0.09909717 0.29042554
0.0092717791 0.099351265 0.29117021
0.0098874848 0.09956906 0.29180852
0.010498152 0.099714257 0.29223403
0.01109844 0.099750556 0.29234043
0.011690649 0.099714257 0.29223403
0.012286898 0.099714257 0.29223403
0.012883146 0.099714257 0.29223403
0.01347449 0.099677965 0.29212767
0.014060272 0.099605359 0.29191488
0.014650529 0.09956906 0.29180852
0.01524591 0.09956906 0.29180852
0.015852841 0.099641658 0.29202127
0.016472625 0.099786863 0.29244682
0.017106563 0.10000465 0.2930851
0.017736679 0.10018615 0.29361701
0.018355681 0.10029504 0.29393616
0.018962262 0.10033135 0.29404256
0.019555124 0.10029504 0.29393616
0.020147551 0.10025875 0.2938298
0.020739544 0.10022245 0.2937234
0.021331102 0.10018615 0.29361701
0.021930173 0.10018615 0.29361701
0.022545571 0.10025875 0.2938298
0.023161834 0.10033135 0.29404256
0.023778966 0.10040394 0.29425532
0.024379339 0.10040394 0.29425532
0.02496165 0.10033135 0.29404256
0.025533844 0.10022245 0.2937234
0.026114201 0.10014986 0.29351065
0.026722737 0.10018615 0.29361701
0.027361404 0.10033135 0.29404256
0.028011924 0.10051285 0.29457447
0.028654279 0.10065804 0.29499999
0.029277274 0.10073064 0.29521278
0.029879602 0.10073064 0.29521278
0.030470941 0.10069434 0.29510638
0.031039447 0.10058544 0.29478723
0.031606648 0.10047654 0.29446808
0.032160915 0.10033135 0.29404256
0.032737147 0.10025875 0.2938298
0.033324581 0.10022245 0.2937234
0.033936158 0.10025875 0.2938298
0.034560669 0.10033135 0.29404256
0.035186049 0.10040394 0.29425532
0.035799362 0.10044025 0.29436171
0.036399949 0.10044025 0.29436171
0.037013911 0.10047654 0.29446808
0.037641898 0.10054915 0.29468086
0.038284555 0.10065804 0.29499999
0.038914498 0.10073064 0.29521278
0.039545301 0.10080324 0.29542553
0.040162522 0.10083954 0.29553193
0.040765498 0.10083954 0.29553193
0.04133869 0.10076693 0.29531914
0.041911017 0.10069434 0.29510638
0.042467151 0.10058544 0.29478723
0.043053068 0.10054915 0.29468086
0.043638546 0.10051285 0.29457447
0.044239573 0.10051285 0.29457447
0.044824399 0.10047654 0.29446808
0.045392387 0.10040394 0.29425532
0.045976128 0.10036764 0.29414892
0.046525754 0.10025875 0.2938298
0.047057007 0.10011355 0.29340425
0.047534693 0.099859461 0.29265958
0.048009332 0.099605359 0.29191488
0.048498657 0.099387571 0.2912766
0.049075019 0.099351265 0.29117021
0.04970539 0.099423863 0.29138297
0.050354999 0.099532761 0.29170212
0.050987322 0.099605359 0.29191488
0.051507726 0.099460162 0.29148936
0.051912304 0.09909717 0.29042554
0.052293304 0.098697878 0.28925532
0.052708425 0.098371178 0.28829786
0.060689136 0.090131238 0.26414895
0.061030813 0.089840844 0.26329789
0.061468516 0.08969564 0.26287234
0.061954673 0.089623049 0.26265958
0.062439963 0.08955045 0.26244682
0.062847793 0.089368947 0.26191488
0.063176237 0.08907856 0.26106384
0.063553117 0.088860765 0.26042554
0.063979752 0.088715561 0.25999999
0.064510234 0.088715561 0.25999999
0.065067329 0.08875186 0.26010638
0.065598026 0.08875186 0.26010638
0.066101678 0.088715561 0.25999999
0.066604897 0.088679269 0.25989363
0.067107677 0.088642962 0.25978723
0.067610025 0.088606663 0.25968084
0.068111941 0.088570364 0.25957447
0.068613425 0.088534065 0.25946808
0.069114476 0.088497773 0.25936171
0.069672212 0.088534065 0.25946808
0.070230395 0.088570364 0.25957447
0.070760012 0.088570364 0.25957447
0.071201973 0.088461466 0.25925532
0.071524896 0.088207372 0.25851065
0.071815126 0.087916978 0.25765958
0.072191492 0.087735482 0.25712767
0.072716117 0.087735482 0.25712767
0.073331639 0.087844372 0.2574468
0.074040025 0.088062175 0.2580851
0.074689552 0.088207372 0.25851065
0.075278901 0.08827997 0.25872341
0.075744435 0.088207372 0.25851065
0.076146327 0.088062175 0.2580851
0.076546483 0.087916978 0.25765958
0.077040367 0.087880678 0.25755319
0.077597894 0.087916978 0.25765958
