# .PCD v0.7 - Point Cloud Data file format
VERSION 0.7
FIELDS x y z
SIZE 4 4 4
TYPE F F F
COUNT 1 1 1
WIDTH 1381
HEIGHT 1
VIEWPOINT 0 0 0 1 0 0 0
POINTS 1381
DATA ascii
0.033794712 0.0279197 0.25575638
0.034189835 0.027962189 0.25579301
0.034647621 0.028013233 0.2558403
0.035219301 0.028106282 0.25593367
0.035690904 0.028166359 0.25600287
0.036419004 0.028214823 0.25608209
0.036930613 0.028249558 0.25610539
0.037568815 0.028293615 0.2561191
0.038172517 0.028345773 0.25612012
0.038777646 0.028404795 0.25611007
0.039231412 0.028436266 0.25608826
0.039748415 0.028472781 0.25606406
0.040270813 0.028520806 0.25604591
0.040771171 0.028566321 0.2560319
0.041419253 0.028636729 0.25603536
0.042044353 0.028700791 0.25602895
0.042553198 0.028745892 0.2560136
0.043258131 0.028806893 0.25598624
0.043970626 0.028877368 0.25597259
0.044654943 0.028947793 0.25597858
0.045145307 0.029005269 0.25598675
0.045675091 0.029056286 0.25595978
0.046213523 0.029091014 0.25590345
0.046647895 0.029130673 0.25585946
0.047049489 0.02916437 0.25582504
0.047554191 0.029210893 0.25580305
0.048028752 0.029258015 0.25578472
0.0485099 0.029298844 0.25577822
0.04906169 0.029357584 0.25577769
0.049546298 0.029405693 0.25576213
0.050154503 0.029425479 0.25569591
0.050706025 0.029463705 0.25564504
0.051167559 0.029495582 0.25559869
0.051595867 0.029523579 0.25555661
0.16403817 0.029795377 0.25841835
0.16404134 0.029793575 0.2584061
0.16392639 0.03009508 0.25829047
0.16394702 0.029786309 0.25821546
0.16399719 0.029463995 0.25819185
-0.015235656 0.028427565 0.26224476
-0.014887744 0.028428478 0.26221249
-0.014551332 0.028276438 0.26210505
-0.014224152 0.028285619 0.26208025
-0.013922098 0.028384764 0.26210293
-0.013694383 0.028573256 0.26219931
-0.01347759 0.028853444 0.26232055
-0.013232803 0.028923865 0.26235902
-0.013046965 0.029006554 0.26241425
-0.012810076 0.028876208 0.26231211
-0.012546333 0.028885134 0.26230454
0.015787879 0.026290879 0.25647894
0.016327059 0.026346322 0.25643298
0.016836733 0.026414994 0.25639746
0.017345382 0.026478296 0.25635344
0.017884217 0.026535213 0.25630221
0.01850819 0.026590943 0.25624835
0.019097902 0.026628584 0.25619343
0.019652165 0.026676727 0.2561551
0.020281231 0.026717639 0.25611341
0.020831587 0.026754038 0.25609231
0.02135274 0.026795465 0.25608027
0.021870248 0.026835928 0.25606388
0.022383861 0.026874896 0.25603813
0.022868842 0.026924722 0.25601286
0.023350431 0.026970629 0.2559827
0.023882823 0.027035441 0.25597438
0.024417764 0.027094033 0.25597185
0.024890615 0.027149675 0.25598106
0.025309289 0.027195737 0.25597939
0.025782112 0.027252683 0.25597754
0.026257474 0.02729612 0.25596356
0.026788997 0.02734597 0.25595048
0.027293632 0.027389651 0.25593066
0.027767422 0.027433252 0.25592542
0.02824319 0.027472591 0.25590569
0.028765427 0.027542753 0.25590941
0.029233858 0.027581893 0.25587308
0.029701136 0.027630851 0.25584376
0.03016708 0.027670484 0.25581458
0.030580018 0.02771223 0.25580141
0.031018145 0.027759649 0.25579172
0.031487551 0.027793339 0.25577402
0.031933602 0.027822163 0.2557649
0.032411847 0.0278414 0.25575966
0.032834973 0.027871262 0.25576481
0.033172417 0.0278973 0.25576949
0.033537645 0.027926156 0.2557762
0.033999968 0.027964657 0.25580597
0.034366224 0.028004061 0.25583634
0.034910128 0.028082537 0.25592026
0.035405304 0.028156985 0.25599122
0.03593871 0.028218124 0.25605896
0.036512934 0.028246427 0.25610948
0.037020344 0.028283555 0.25613078
0.037690796 0.028316105 0.25612903
0.038295832 0.028365383 0.25612202
0.038839083 0.028414385 0.25610873
0.039353732 0.028460817 0.25609276
0.039872613 0.028507965 0.2560752
0.040367175 0.028559137 0.25606176
0.040988099 0.02862706 0.2560578
0.041576888 0.028678941 0.25604963
0.042077716 0.028715638 0.25603598
0.042650986 0.028763516 0.25601548
0.043228436 0.02881486 0.25599161
0.043909382 0.028871164 0.25596741
0.044596381 0.028936749 0.25596097
0.045220781 0.028999358 0.25594935
0.045685858 0.029039716 0.25592434
0.046183068 0.029093703 0.25590101
0.046647981 0.029144898 0.25586227
0.047083601 0.029168079 0.25582039
0.047588635 0.029224733 0.25580058
0.048097394 0.029276572 0.25578299
0.048577238 0.029320721 0.255775
0.049129229 0.029379187 0.25577438
0.049615506 0.02942683 0.25575826
0.050190091 0.029442843 0.25570267
0.050741702 0.029464275 0.25563753
0.051174194 0.029499155 0.25560686
0.051667422 0.029530548 0.2555466
0.051993348 0.029578287 0.25553563
0.052465454 0.0296274 0.25549909
0.052932873 0.029654203 0.25545114
0.053514563 0.029677846 0.25539273
0.054084614 0.029720359 0.25530666
0.054606244 0.029750111 0.25518513
0.16388154 0.030413019 0.25828674
0.16388153 0.030413015 0.25828674
0.16382438 0.030638089 0.25822195
0.16379873 0.030657846 0.25819227
0.16380338 0.03067275 0.2581875
-0.015193335 0.029800333 0.26300648
-0.01492817 0.029738005 0.26292515
-0.014656758 0.029625688 0.2628172
-0.014311559 0.029361395 0.26264018
-0.013991596 0.029204089 0.26252159
-0.013713672 0.02922927 0.26253706
-0.013466838 0.029302485 0.26255718
-0.013253532 0.029337684 0.26257449
-0.013055866 0.0293178 0.26253903
-0.01284433 0.029290365 0.26252079
-0.012590622 0.029248234 0.26248273
0.021875821 0.026850162 0.2560713
0.022391712 0.026901154 0.25605097
0.022929465 0.026948148 0.25601858
0.023412663 0.027007183 0.25599501
0.024003027 0.027081169 0.25598577
0.024533523 0.027134594 0.25598493
0.025035838 0.027176935 0.25598788
0.025453053 0.027225694 0.25599051
0.025924783 0.02728397 0.25599074
0.026398486 0.02733176 0.25597903
0.026899453 0.027391577 0.255979
0.02743574 0.0274221 0.25594565
0.027882438 0.027462237 0.2559377
0.028296825 0.027510319 0.25593659
0.028821768 0.027567528 0.25591731
0.029316546 0.027615316 0.25588119
0.029811598 0.027654512 0.25584668
0.030330736 0.027706798 0.25582579
0.030714905 0.027745744 0.25581747
0.03109972 0.027790256 0.25581452
0.031568307 0.027817775 0.2557908
0.031957906 0.027839081 0.25577694
0.032436434 0.027861236 0.25577036
0.032916952 0.027894992 0.25578436
0.033338632 0.027934477 0.25579286
0.033646949 0.027964516 0.25581288
0.034164902 0.028022252 0.25586981
0.03467663 0.028083587 0.25591627
0.035162628 0.028150508 0.2559762
0.0357772 0.028231807 0.25606984
0.0363019 0.028258579 0.25611463
0.036756571 0.028292052 0.25614059
0.037210319 0.028314825 0.256145
0.037781116 0.028353589 0.25614649
0.038386323 0.028395476 0.2561323
0.038929489 0.028448407 0.25612485
0.039477579 0.028499296 0.25610787
0.040027075 0.028564975 0.25610241
0.040583435 0.028621558 0.25609109
0.041202016 0.028687362 0.25608423
0.041701384 0.028726131 0.25606769
0.042204522 0.028748976 0.25604588
0.042746354 0.028791575 0.25602403
0.043294836 0.028829347 0.25599721
0.04390892 0.0288828 0.25597706
0.044530861 0.02894251 0.25596997
0.045155909 0.029008813 0.25595674
0.045653991 0.029051509 0.25593564
0.04618438 0.029103525 0.25590765
0.046682071 0.029161198 0.2558732
0.047183182 0.029206125 0.25583369
0.047655843 0.029255213 0.25580829
0.048098117 0.029284392 0.25578776
0.048611153 0.02933735 0.25577635
0.049162544 0.029394116 0.25576478
0.049615506 0.029426834 0.2557582
0.050193578 0.029450001 0.25570601
0.050746191 0.029474048 0.25564769
0.051211115 0.029515008 0.25561717
0.051677018 0.029549105 0.25557157
0.052145138 0.029587718 0.25553396
0.052541427 0.029630357 0.25549462
0.053083938 0.029658135 0.25544602
0.053554989 0.029687801 0.25539866
0.054084621 0.029720362 0.25530669
0.054613207 0.029757008 0.2552042
0.055071466 0.029778562 0.25510374
0.055603031 0.029815618 0.25502175
0.055992432 0.029819719 0.25493872
0.056524325 0.029847074 0.25485402
0.057026979 0.029878745 0.25479126
0.057494394 0.029906092 0.25472742
0.058064319 0.029946428 0.25467271
0.058602691 0.029987972 0.25463131
0.059111446 0.030019712 0.25459385
0.059582923 0.030071042 0.25459024
0.060127895 0.030132648 0.25459391
0.060779523 0.030204874 0.25460219
0.061507862 0.0302647 0.25460762
0.062152807 0.030333396 0.25460702
0.062862977 0.030394446 0.2545979
0.063325107 0.030414393 0.2545788
0.063714661 0.030418729 0.25454658
0.064180158 0.030432807 0.2545042
0.064748727 0.030474305 0.25448352
0.065250948 0.03048105 0.25444418
0.06565319 0.030485507 0.25440887
0.066152222 0.030511156 0.25439206
0.066622525 0.030526157 0.25435981
0.067094497 0.030541394 0.25432849
0.16373415 0.030833693 0.25813511
0.16373415 0.030833695 0.25813514
0.16370668 0.030907121 0.25808141
0.16366026 0.031067494 0.25803125
0.16366026 0.031067491 0.25803125
-0.01509232 0.031261969 0.2638531
-0.014812774 0.031167563 0.26374316
-0.014589131 0.030868212 0.26351351
-0.014307052 0.03049144 0.26324064
-0.014091709 0.030399693 0.26315469
-0.013821787 0.030099245 0.26297921
-0.013575452 0.029961694 0.26290071
-0.013360183 0.029898949 0.26285496
-0.013115655 0.029824127 0.26280284
-0.012883577 0.02977426 0.26275721
-0.01267225 0.02974852 0.26272106
0.022937996 0.026969643 0.25602517
0.023527058 0.027057182 0.256015
0.024061432 0.027119799 0.25600693
0.024646837 0.027171761 0.25600097
0.025097128 0.0272112 0.25600287
0.025509795 0.027250743 0.25600186
0.026011769 0.027306536 0.2559984
0.026540317 0.02736868 0.25599381
0.027017338 0.027409924 0.2559796
0.02749287 0.02745511 0.25597107
0.027939085 0.02749005 0.25595084
0.028412487 0.027542161 0.25595185
0.028937198 0.027596265 0.2559225
0.029430255 0.027643017 0.25588983
0.029945185 0.027701378 0.25586906
0.030386405 0.027742412 0.25585285
0.030850096 0.02778542 0.25584015
0.031236066 0.027811365 0.25582537
0.031621728 0.027838539 0.25580877
0.032009844 0.027868528 0.2558032
0.032512408 0.027888842 0.25578699
0.033017345 0.027921952 0.25578758
0.033502184 0.027972836 0.25582245
0.034068465 0.028045917 0.25588071
0.034492124 0.028093087 0.25591689
0.03505842 0.028172499 0.25599229
0.035589688 0.028230393 0.2560479
0.036131077 0.028274957 0.25611302
0.036617599 0.028314997 0.2561506
0.037048843 0.028348308 0.2561712
0.037447065 0.028364094 0.25616854
0.037872974 0.028380487 0.25615743
0.038442742 0.028418075 0.25614333
0.038986865 0.028461015 0.2561298
0.039536476 0.028519832 0.25612119
0.040148832 0.028593274 0.25611821
0.040856168 0.028677054 0.25611582
0.041475527 0.028732616 0.25610718
0.042036604 0.028773213 0.25608328
0.042544231 0.028800499 0.25605214
0.042963561 0.028833155 0.25603154
0.043481559 0.028876621 0.25601527
0.044034235 0.028922824 0.25600106
0.044689875 0.028979866 0.25599101
0.045252867 0.029041991 0.25598094
0.045780834 0.029093282 0.25595865
0.046280894 0.029147955 0.25592795
0.046812776 0.02920023 0.25589541
0.047251608 0.029227434 0.25584686
0.047722816 0.029266128 0.25581503
0.048266489 0.029321687 0.25579795
0.048780285 0.029376954 0.25578842
0.049231019 0.02941048 0.25577733
0.049753606 0.029454753 0.2557624
0.050209939 0.029486373 0.25575417
0.050725389 0.029494015 0.25568584
0.051319648 0.02952905 0.25561258
0.051789977 0.029578241 0.25558394
0.052222539 0.0296115 0.25554219
0.052616395 0.029633308 0.25549054
0.053050376 0.02966555 0.25545493
0.053591061 0.029696001 0.25539914
0.054124523 0.029731754 0.25531346
0.054652818 0.029767888 0.255211
0.055146098 0.029796995 0.25511199
0.055606745 0.029819937 0.25502822
0.056068975 0.029839631 0.25495172
0.056491055 0.02984979 0.25486326
0.057026975 0.029878749 0.25479123
0.057562597 0.029924382 0.25474304
0.058104891 0.029966071 0.25469238
0.05871607 0.030014688 0.25464791
0.059217252 0.030057391 0.25462303
0.059724011 0.030098883 0.25459981
0.060267631 0.030159248 0.25460175
0.060849901 0.030226793 0.25461578
0.061576262 0.030276453 0.25461054
0.062256552 0.0303504 0.254614
0.062791631 0.03039442 0.25460622
0.06328778 0.030421933 0.25459367
0.063714832 0.030428095 0.25455645
0.064145379 0.030436769 0.25451115
0.064710975 0.030474147 0.25448766
0.065249979 0.030489556 0.25444987
0.065720432 0.030504148 0.25441805
0.066148177 0.030522207 0.25440383
0.066618398 0.03053694 0.2543703
0.067090586 0.030552037 0.2543388
0.067554519 0.030578552 0.2543346
0.068035416 0.030643532 0.25437379
0.068623595 0.030750796 0.25446028
0.069288872 0.030857138 0.25451958
0.070004314 0.030945016 0.2545689
0.070578307 0.031008288 0.2545948
0.071043536 0.031056345 0.25460294
0.071500361 0.031101659 0.25461262
0.072022818 0.031156695 0.25461945
0.072655395 0.031239536 0.25462314
0.073009215 0.031267844 0.25459948
0.16365628 0.030979047 0.25804707
0.16365629 0.030979047 0.25804707
0.16362555 0.031070299 0.25800717
0.16355886 0.031253129 0.25793236
0.16360521 0.031181943 0.25796944
-0.014935794 0.032084655 0.26426148
-0.014796109 0.032089517 0.26421836
-0.014553936 0.031815331 0.26401132
-0.014310356 0.031499844 0.26379782
-0.014099326 0.031309817 0.26366511
-0.013886018 0.031169754 0.26356372
-0.013671849 0.030944774 0.26342368
-0.013447387 0.030743044 0.2632874
-0.013228732 0.030577263 0.26319098
-0.013022131 0.030463362 0.2631056
-0.012809863 0.030375285 0.26308587
0.027997209 0.027513413 0.2559692
0.028525256 0.027574077 0.2559599
0.029019125 0.027622806 0.25593349
0.029505262 0.027685169 0.25591907
0.029947869 0.027726563 0.2558946
0.030465445 0.027779777 0.25587726
0.03090536 0.027813733 0.25585923
0.031286646 0.027826479 0.25583369
0.031674601 0.027851522 0.2558201
0.032034736 0.02788776 0.25582159
0.032561895 0.027903553 0.25579059
0.033150535 0.027965592 0.25582239
0.033825044 0.028061323 0.25587445
0.034338091 0.02812372 0.25592613
0.03483614 0.02816345 0.25596315
0.035307828 0.028209286 0.25601587
0.035811398 0.028259436 0.25607499
0.036384355 0.028319383 0.25613651
0.036895502 0.02837402 0.25617728
0.037332181 0.028391497 0.25618604
0.037647117 0.028403465 0.25618309
0.038017191 0.028414765 0.25617117
0.03846604 0.028445154 0.25616014
0.039043311 0.028493147 0.25614664
0.03962101 0.028544212 0.25613219
0.04032737 0.028641509 0.25614724
0.041062262 0.028724248 0.25615194
0.041549511 0.028787801 0.25616255
0.042318486 0.028866254 0.25615963
0.042880915 0.028913233 0.25613627
0.043413602 0.028918253 0.25607705
0.04382132 0.028929442 0.25603804
0.044386633 0.028970631 0.25601834
0.044885308 0.029017285 0.25600734
0.045508474 0.029086187 0.25599787
0.046002924 0.029142026 0.25597861
0.046504412 0.029200567 0.25595459
0.047005061 0.029246069 0.25591722
0.047447659 0.029273577 0.25586867
0.048022423 0.029332153 0.2558437
0.048468921 0.029364454 0.25582141
0.049024459 0.0294003 0.25581011
0.049438909 0.029443424 0.2557987
0.049856428 0.029478859 0.25578538
0.050314855 0.029506383 0.25576225
0.050808176 0.0295441 0.25573894
0.051365793 0.029559223 0.25564891
0.051826131 0.029583199 0.2555857
0.052330136 0.029631369 0.25553957
0.052764248 0.02966216 0.25549707
0.053159595 0.02967504 0.25544897
0.053628795 0.029711967 0.25540078
0.054127574 0.029743358 0.25532594
0.054655999 0.029779363 0.25522503
0.055149529 0.029808257 0.25512674
0.055574037 0.02982308 0.25503984
0.056069683 0.029853541 0.25495568
0.056568328 0.029871343 0.25487855
0.057068378 0.029891884 0.2548002
0.057603549 0.029936872 0.254751
0.058212817 0.030001001 0.25471362
0.05878298 0.030034123 0.25466406
0.059325885 0.030084496 0.25463998
0.059864752 0.030134136 0.25462079
0.06041139 0.03019812 0.25462091
0.061067834 0.030242998 0.25461915
0.061681595 0.030300332 0.25461978
0.062256545 0.0303504 0.25461403
0.062755637 0.030388353 0.25460687
0.063287787 0.030421933 0.2545937
0.063680559 0.030433934 0.25456339
0.064146034 0.030447928 0.25452092
0.064641617 0.030474933 0.25449395
0.065147988 0.030482342 0.25444666
0.065684944 0.030509587 0.25442338
0.066216268 0.030541707 0.25440988
0.06671422 0.03056624 0.25438902
0.067149714 0.03057907 0.25436178
0.067671657 0.030620374 0.25437674
0.06812679 0.030670948 0.25439742
0.068811201 0.030797655 0.25448853
0.069488049 0.030899951 0.25454271
0.070068538 0.030963229 0.25457835
0.070636719 0.031029521 0.25460371
0.071067318 0.031076131 0.25461319
0.071558915 0.031118659 0.25461569
0.072080694 0.031172758 0.25462171
0.072557114 0.031240266 0.25462481
0.073038705 0.031282552 0.25460622
0.073395401 0.03130665 0.25457871
0.073753841 0.03133611 0.25456241
0.07401599 0.031363379 0.25455993
0.074468255 0.031414021 0.25456792
0.07495594 0.031456683 0.25456497
0.075276896 0.031493168 0.25456789
0.07582216 0.031546433 0.25456601
0.076250598 0.031596731 0.25456792
0.077040881 0.031713337 0.25458476
0.16343975 0.031425651 0.25783145
0.16349837 0.031361047 0.25786868
0.16349837 0.031361047 0.25786871
0.1634578 0.031480785 0.2577889
0.1634578 0.031480782 0.2577889
-0.014749464 0.032762896 0.26452857
-0.014671708 0.032658447 0.26442626
-0.014469927 0.032503687 0.26431271
-0.014313036 0.032263819 0.26415417
-0.014122671 0.032023225 0.26400271
-0.013957021 0.03187941 0.26391923
-0.013758391 0.031691745 0.26381007
-0.013556049 0.031446513 0.26365378
-0.013314221 0.031264026 0.26354378
-0.01310253 0.031167723 0.26347908
0.032168619 0.027898239 0.25581762
0.032581992 0.02792144 0.25580069
0.033283953 0.028023809 0.25585175
0.034023996 0.028115049 0.25591335
0.034487024 0.028159035 0.25594801
0.034932572 0.028194139 0.25598398
0.035402723 0.028242623 0.2560263
0.035939109 0.028297931 0.25608593
0.03653973 0.028352246 0.2561464
0.037112366 0.028404994 0.25618488
0.037565991 0.028454 0.25620911
0.037813228 0.028442675 0.2561979
0.038124267 0.028442048 0.256183
0.038518842 0.028460709 0.2561698
0.039097313 0.028509578 0.25615817
0.039679427 0.028565522 0.25614724
0.040381256 0.028661627 0.25616905
0.041086495 0.028750591 0.25618103
0.041804444 0.028844755 0.25620791
0.042559765 0.028945034 0.25626713
0.043045759 0.028966773 0.25623393
0.043556567 0.028963692 0.2561335
0.043992762 0.028972942 0.25608161
0.044441782 0.028996579 0.2560451
0.0450054 0.029049885 0.25603369
0.045628622 0.029120801 0.2560257
0.046197779 0.029189609 0.25600666
0.046658423 0.029242877 0.2559844
0.047195286 0.02929285 0.2559464
0.047609616 0.029315645 0.25589734
0.048186325 0.029368583 0.25587225
0.048776206 0.02941246 0.25585967
0.049260698 0.029456833 0.25586247
0.049717307 0.029486112 0.25584882
0.050173484 0.029516367 0.25582525
0.05052368 0.029541578 0.25579032
0.050911762 0.029564798 0.2557517
0.05140635 0.029585589 0.25568727
0.051901013 0.029620364 0.25562313
0.052366205 0.029645417 0.25555092
0.052799638 0.029667152 0.25549614
0.053270277 0.029704971 0.25545549
0.053699899 0.029724559 0.25539416
0.054198097 0.029755605 0.25531617
0.054693118 0.029785056 0.25522423
0.05518676 0.029813847 0.2551263
0.055681314 0.029843327 0.25503466
0.056103282 0.029860787 0.2549493
0.056636523 0.029888501 0.25487015
0.057207409 0.029927701 0.25480965
0.05774371 0.02997316 0.25476357
0.058318872 0.030026464 0.2547245
0.058892932 0.030065481 0.25467965
0.059466615 0.03011588 0.25464979
0.060047623 0.030172285 0.25463879
0.060702436 0.030225016 0.25462967
0.061247211 0.030275162 0.25463116
0.0617541 0.030311871 0.25462094
0.062256552 0.030350404 0.25461406
0.062755644 0.030388357 0.25460687
0.063323632 0.030428059 0.25459263
0.063716233 0.0304421 0.25456297
0.064210035 0.030465789 0.25453982
0.064676382 0.030479906 0.25449499
0.065179892 0.03050283 0.25446376
0.06571383 0.030519864 0.25443658
0.06624525 0.030551927 0.25442389
0.066807166 0.030593051 0.25441951
0.067336001 0.030626453 0.25440755
0.067911759 0.030692559 0.25444317
0.068425655 0.030754251 0.25447077
0.069066517 0.030859314 0.2545177
0.069653384 0.030925727 0.25455546
0.070230924 0.030995831 0.25459501
0.070701733 0.031038573 0.25460461
0.071131684 0.031084543 0.25461224
0.071555346 0.031126887 0.25461647
0.072014056 0.03117498 0.2546193
0.072557114 0.031240266 0.25462484
0.072977498 0.03127002 0.25460255
0.073395409 0.03130665 0.25457871
0.073722683 0.031330865 0.25456095
0.074107178 0.031383108 0.25456914
0.074500598 0.031418938 0.25456831
0.074955948 0.031456687 0.254565
0.075368263 0.031513918 0.25457788
0.07582359 0.031555738 0.25456876
0.076428495 0.031645268 0.25458196
0.07726188 0.031776965 0.25461516
0.077837937 0.03185311 0.25461981
0.078416623 0.0319001 0.25460196
0.078866631 0.031923078 0.25458685
0.079251356 0.031951509 0.25458208
0.07960327 0.031977899 0.25456384
0.080170169 0.032024063 0.2545405
0.080736637 0.032082405 0.25453109
0.081431493 0.032136671 0.25450429
0.082070045 0.032213796 0.25447848
0.082636252 0.032277036 0.25443265
0.16308376 0.032178856 0.2574161
0.16319975 0.031983506 0.25753641
0.16325347 0.031920917 0.25757203
0.1632535 0.031920917 0.25757203
0.1633281 0.031825926 0.25762662
-0.014731891 0.032940496 0.26452592
-0.014644658 0.033000808 0.2645196
-0.014462174 0.033032537 0.26448786
-0.014308685 0.032876223 0.26440391
-0.01413899 0.032788157 0.26435152
-0.014018549 0.032725334 0.26431623
-0.013837907 0.032471363 0.26417378
-0.013626475 0.032225903 0.26403785
-0.013391854 0.031936243 0.26390529
-0.013173727 0.031748921 0.26377419
0.047318082 0.029329797 0.25598267
0.047730643 0.02935949 0.25594121
0.048351921 0.029413732 0.25592792
0.049022257 0.029460199 0.25593138
0.0494771 0.029493088 0.25592282
0.049861431 0.029525859 0.2559109
0.050276995 0.029557673 0.25587377
0.050666045 0.029572785 0.25582466
0.050982147 0.029592618 0.25578251
0.051439013 0.029619142 0.2557191
0.051935848 0.029625403 0.25562382
0.052400578 0.029652374 0.25555062
0.052835077 0.029683022 0.25550535
0.053305205 0.02970794 0.2554521
0.053806208 0.029740414 0.25538549
0.054303825 0.029771263 0.25530446
0.054764315 0.029797658 0.25521764
0.055220347 0.029818702 0.2551178
0.055715002 0.029848414 0.25502703
0.056174368 0.029874206 0.25494891
0.056706913 0.029904414 0.25487405
0.057385854 0.029966874 0.2548216
0.057958148 0.030016715 0.25477263
0.058462583 0.030052066 0.25472888
0.059001923 0.030102618 0.25470075
0.059577569 0.030145219 0.25466597
0.06015639 0.030188616 0.25464442
0.060775042 0.030237248 0.25463521
0.061247203 0.030275162 0.25463113
0.061789297 0.030332232 0.25462931
0.062257621 0.030360708 0.25461474
0.062756076 0.030398639 0.25460553
0.063359715 0.030432342 0.25459152
0.063854843 0.030470682 0.25458035
0.064282537 0.030480858 0.25454146
0.064783178 0.030503567 0.2545096
0.065280229 0.030527778 0.25448769
0.065848105 0.03055195 0.25446543
0.066482157 0.030594692 0.25445017
0.067104906 0.030655954 0.25446475
0.067655675 0.030712472 0.2544792
0.068174027 0.030753627 0.25448057
0.068719722 0.030824611 0.25450423
0.069204979 0.030878937 0.25452831
0.069822982 0.030952774 0.25457269
0.07039848 0.031024111 0.25461119
0.070828751 0.0310707 0.25462073
0.071226746 0.031108139 0.2546258
0.071589172 0.031135269 0.25461841
0.072043166 0.031184651 0.25462446
0.072557114 0.031240266 0.25462484
0.073038712 0.031282552 0.25460622
0.073395386 0.03130665 0.25457874
0.073753849 0.031336118 0.25456244
0.074138887 0.031388167 0.25457022
0.074563786 0.031429049 0.25457197
0.075049162 0.031486467 0.25458741
0.075439192 0.031520631 0.25458503
0.075887889 0.031577531 0.25458595
0.076652654 0.031681124 0.25458777
0.077326857 0.031802189 0.25462371
0.077968165 0.031862196 0.25461292
0.078575797 0.031922922 0.25460181
0.079027295 0.031948168 0.25458759
0.079375438 0.031973369 0.25458094
0.079790257 0.032000739 0.2545673
0.08029519 0.032054018 0.25455323
0.080862068 0.032111194 0.25454524
0.081548564 0.032167647 0.25452143
0.0821812 0.032258175 0.25450024
0.082772069 0.032333609 0.25445825
0.083309107 0.032385878 0.25440615
0.083641052 0.032428585 0.25438589
0.08430101 0.032518867 0.25438264
0.084904514 0.032588623 0.25438884
0.085503645 0.032668162 0.2543999
0.088773794 0.032967906 0.25430509
0.089262292 0.033006661 0.25427243
0.089896694 0.033058476 0.25424179
0.090555504 0.033137098 0.25423771
0.091197416 0.033190742 0.25421891
0.16279429 0.032774452 0.25708929
0.16293091 0.032548841 0.25721294
0.16303465 0.032400165 0.25730798
0.16305067 0.032403588 0.25729764
0.16312355 0.032259624 0.25737232
-0.014683108 0.033215556 0.2645542
-0.014558739 0.033382211 0.26459041
-0.014445577 0.03349226 0.264631
-0.014303393 0.033357244 0.26454899
-0.014194285 0.033351198 0.26455441
-0.014017914 0.033293307 0.26451409
-0.013887482 0.03322133 0.26448464
-0.013684218 0.03302053 0.26437053
-0.013511353 0.032730013 0.26424271
-0.01339481 0.032625455 0.26420841
0.050001875 0.029560743 0.2559568
0.050279137 0.029574536 0.25591019
0.050699316 0.029600613 0.25585613
0.052866697 0.029693667 0.25549474
0.053335749 0.029720515 0.25543854
0.053836502 0.029753286 0.25537041
0.05433381 0.029784411 0.25528774
0.054793734 0.029813113 0.25520116
0.055288095 0.029842788 0.25510734
0.055745322 0.029865513 0.25501785
0.056280874 0.029907959 0.25495425
0.056848083 0.029944887 0.25487983
0.057493526 0.029997269 0.25482953
0.058137458 0.030051285 0.25477809
0.05867723 0.030097706 0.25473952
0.05918064 0.030136958 0.25470513
0.059683934 0.030169265 0.25467184
0.060265236 0.030224316 0.25465786
0.060848057 0.03026321 0.2546432
0.061320692 0.030297004 0.25463507
0.061753888 0.030334596 0.25463071
0.062256098 0.030373167 0.25462294
0.062826142 0.030412782 0.25461245
0.063500255 0.030458171 0.25460187
0.063997015 0.030493427 0.25458267
0.064529814 0.03052688 0.25456795
0.06506224 0.030558381 0.25455317
0.06552311 0.030574927 0.25452659
0.066157766 0.030619992 0.25452194
0.066927925 0.030698882 0.25454158
0.067449182 0.030732697 0.25452477
0.067995213 0.030788377 0.25452322
0.068473965 0.03082186 0.25451344
0.068925962 0.030859673 0.25452068
0.069406822 0.030915231 0.25454843
0.06999176 0.030981604 0.25459057
0.070534669 0.031039737 0.25462043
0.071028881 0.031106643 0.25463852
0.071392059 0.031130392 0.25463024
0.071811728 0.031183617 0.25463316
0.07219591 0.031224569 0.25463444
0.072618388 0.031252652 0.25462592
0.07307037 0.031285744 0.2546044
0.073488995 0.031324238 0.25458431
0.073845349 0.031353828 0.25456995
0.074236408 0.031392239 0.25456887
0.074656576 0.031450085 0.2545841
0.075174816 0.031516176 0.254599
0.075815558 0.031600993 0.25461379
0.076323397 0.03166844 0.25461599
0.076976955 0.031773161 0.2546362
0.077582188 0.031832248 0.25462034
0.078158066 0.031892933 0.25461686
0.078672163 0.031932469 0.25460747
0.079151466 0.031968635 0.25459605
0.079627469 0.032015517 0.25458533
0.080009229 0.032035317 0.2545692
0.080516174 0.032075599 0.25455543
0.081107393 0.032142431 0.25455076
0.081720777 0.032213181 0.25453249
0.082263455 0.032282513 0.25450659
0.082774438 0.032339297 0.25446567
0.083280131 0.032389786 0.25441736
0.083728857 0.032438457 0.2543827
0.084303834 0.032523513 0.25439098
0.084964171 0.032593176 0.25438768
0.085589729 0.03268395 0.25439829
0.086268462 0.032745559 0.25441658
0.086815782 0.032799575 0.25440216
0.087277107 0.032835819 0.25437832
0.08779338 0.032894522 0.25436389
0.088258125 0.032928601 0.25433859
0.088742435 0.032970361 0.25431094
0.089204393 0.033003304 0.25427932
0.089832716 0.033068046 0.25425535
0.090375528 0.033126209 0.25424689
0.091047823 0.033182774 0.25422439
0.091562286 0.033244457 0.25421229
0.091841556 0.033259917 0.25418293
0.092124797 0.033282708 0.25416633
0.092636764 0.033335306 0.25412035
0.093194522 0.033412419 0.25408584
0.09392228 0.033510447 0.25405055
0.094600432 0.033603538 0.2540116
0.095368832 0.033690177 0.2539562
0.095723331 0.033724792 0.2539199
0.095929973 0.033743829 0.25389567
0.096163057 0.033762455 0.25387406
0.16266508 0.033068031 0.25695166
0.16272365 0.032965571 0.25700375
0.16283424 0.032806683 0.25707808
0.16282749 0.03283897 0.25705552
0.16284975 0.032810576 0.25707203
0.16290453 0.03276214 0.25710163
-0.014747008 0.033510596 0.26464543
-0.014653109 0.033553947 0.26462224
-0.014524111 0.033793714 0.26469353
-0.014456635 0.033904154 0.2647365
-0.014346284 0.033916797 0.26473811
-0.014205112 0.033914994 0.26473007
-0.014085087 0.033857677 0.26471207
-0.01393485 0.033772632 0.26466501
-0.013828631 0.033696894 0.26464245
-0.013685266 0.033659585 0.26464316
-0.013594821 0.033538584 0.26459596
0.051427551 0.042057794 0.30840591
0.051427558 0.042057797 0.30840594
0.053832471 0.029761771 0.25536367
0.054329742 0.029793143 0.25528038
0.054824181 0.029823219 0.25518593
0.055318747 0.029853525 0.25509378
0.055776361 0.029877121 0.25500849
0.056378957 0.029936673 0.25494337
0.056952294 0.029977087 0.25488609
0.057595193 0.030031888 0.25483435
0.058209278 0.03006991 0.25478151
0.062292542 0.030377261 0.25462151
0.062860683 0.030420836 0.2546114
0.063535698 0.030476879 0.25460938
0.064173698 0.030525619 0.25460455
0.064672701 0.030547261 0.2545765
0.065169543 0.030574257 0.25456399
0.06591107 0.030647341 0.25457844
0.066659436 0.030686541 0.25456315
0.067327626 0.03074201 0.25456193
0.06784635 0.030804012 0.25456747
0.068386003 0.030839875 0.25454184
0.068716347 0.030864811 0.25453272
0.069167957 0.030903311 0.2545436
0.069580086 0.03094364 0.25456741
0.070164762 0.03100835 0.25460964
0.070668668 0.031068632 0.25463557
0.071099699 0.031111097 0.25464186
0.071619019 0.031185141 0.25465691
0.072039478 0.031225294 0.25464997
0.072460756 0.0312538 0.25464097
0.072944038 0.031297144 0.25462735
0.073422194 0.031341538 0.25460005
0.073842146 0.031395987 0.2546041
0.074263908 0.031433627 0.25459889
0.074718058 0.031482957 0.25460702
0.075232416 0.031551436 0.2546289
0.075775713 0.031626072 0.25464934
0.076308414 0.031707942 0.25465786
0.076784484 0.031763542 0.25464886
0.077262074 0.031816266 0.25464076
0.077741474 0.031866141 0.25463405
0.078350052 0.031920739 0.25461376
0.078893445 0.031970017 0.25460678
0.079339691 0.032006778 0.25460073
0.07972309 0.032025382 0.25458911
0.080166072 0.032063793 0.25457475
0.080698483 0.032125968 0.25457025
0.081198655 0.032164969 0.25455356
0.081837051 0.03224925 0.25454047
0.082347915 0.032307521 0.25450951
0.08285825 0.032363512 0.25446764
0.083363816 0.032413457 0.2544198
0.083907641 0.032502662 0.2544176
0.084476709 0.032563441 0.25440696
0.085043602 0.032624274 0.2544027
0.085673764 0.032710705 0.25441435
0.086292818 0.032760143 0.25441647
0.086922444 0.032821771 0.25440228
0.087328106 0.032853354 0.25438181
0.08779338 0.032894522 0.25436392
0.088227406 0.032921858 0.25433713
0.088712089 0.032962032 0.25430954
0.089174099 0.032994833 0.25427765
0.089775398 0.033063997 0.25425911
0.090315349 0.033111431 0.25424156
0.090902336 0.033171225 0.25422511
0.091474451 0.033243008 0.25421125
0.091809765 0.033259068 0.25418654
0.092222027 0.033306647 0.25416428
0.092733517 0.03336047 0.25412196
0.093193777 0.033423815 0.25409803
0.093915492 0.033517361 0.25405622
0.09456943 0.033613026 0.25401825
0.095193155 0.033680834 0.25395983
0.09563753 0.033729933 0.25391898
0.095922597 0.033743504 0.25388941
0.096079804 0.033773217 0.25387892
0.096471637 0.03380698 0.25384632
0.0968863 0.033847526 0.25381482
0.09732566 0.033884838 0.25378159
0.097894691 0.03392775 0.25374147
0.098358996 0.033966657 0.25370869
0.098929398 0.034019753 0.25367191
0.099395365 0.034056153 0.25363562
0.099838659 0.034091089 0.25359827
0.10025626 0.034118962 0.25356895
0.10076776 0.034169503 0.25353101
0.16283393 0.032780651 0.25714061
0.16277778 0.032930177 0.2570284
0.16273852 0.033024032 0.25697163
0.16267084 0.033140127 0.2569063
0.16263177 0.033235688 0.25685632
0.16265978 0.033230711 0.25687051
-0.014637957 0.034175612 0.26483017
-0.014546941 0.034134705 0.26479304
-0.014480137 0.034182157 0.26479572
-0.014409102 0.034275271 0.2648274
-0.014356187 0.034387078 0.26485804
-0.014266146 0.034417961 0.26487029
-0.014110737 0.034391794 0.26486284
-0.014058747 0.03439571 0.26488292
-0.013969182 0.034382183 0.26488507
-0.013791791 0.034245044 0.26483122
-0.013761104 0.034268305 0.26487064
0.05137594 0.042731602 0.30883244
0.051406689 0.042571023 0.30870995
0.051413815 0.042459372 0.30864272
0.051413815 0.042459369 0.30864275
0.05541626 0.029871624 0.25506765
0.066885829 0.030733667 0.25459796
0.067554787 0.030798012 0.25460631
0.068100207 0.030856168 0.2546041
0.06854225 0.030882167 0.25457719
0.069109134 0.030917665 0.25456023
0.069379076 0.030932505 0.25456235
0.069825597 0.030982018 0.25459424
0.07030078 0.031036012 0.25462684
0.070803329 0.031097796 0.25465214
0.071336947 0.031149315 0.25465983
0.071821839 0.031213151 0.25466627
0.072306111 0.031253044 0.25465494
0.072788231 0.031295955 0.25463185
0.073428914 0.031380933 0.25462496
0.074008986 0.031440258 0.25463444
0.074492164 0.031495906 0.25463933
0.074973069 0.031562332 0.25466198
0.075389139 0.031617027 0.25467411
0.075801224 0.031685557 0.25470299
0.076180443 0.031729724 0.25469953
0.076592542 0.031774849 0.25469074
0.077007532 0.031811595 0.25467119
0.077421196 0.031849131 0.25465897
0.077932589 0.031893186 0.25463408
0.078540206 0.031954732 0.25462142
0.078989349 0.031980325 0.25460413
0.079434715 0.032018822 0.25459808
0.079847381 0.032054644 0.25459498
0.080320269 0.032104861 0.25458962
0.080886051 0.032156494 0.25457808
0.08147084 0.032224886 0.25457227
0.081986368 0.032295309 0.25455493
0.082528472 0.032360472 0.25451875
0.08303874 0.032416504 0.25447848
0.083516464 0.032466467 0.25444821
0.08405681 0.032528915 0.25442603
0.084568001 0.032584533 0.25441477
0.085105322 0.032641955 0.25441322
0.085643202 0.032712065 0.25442213
0.086369917 0.032790832 0.25442812
0.086863346 0.032824557 0.25441191
0.087323017 0.032864638 0.25438711
0.087762401 0.032894704 0.25436708
0.088136166 0.032922186 0.25434712
0.088537045 0.032957114 0.25432584
0.088970639 0.032991972 0.2542955
0.089514256 0.033048145 0.25427261
0.090287089 0.03311545 0.25424185
0.090902358 0.033171225 0.25422511
0.091474459 0.033243012 0.25421122
0.091827124 0.033276878 0.25419468
0.09218879 0.03331181 0.25416967
0.092651203 0.033363804 0.25413939
0.093162991 0.033428099 0.25410512
0.093829766 0.033505697 0.25405851
0.094484523 0.03360188 0.25401875
0.094998546 0.0336647 0.25396895
0.095416002 0.033704169 0.25392452
0.095788144 0.033740602 0.25389615
0.096079789 0.033773217 0.25387895
0.096468203 0.033808216 0.25384599
0.096910603 0.03385428 0.25381428
0.097401425 0.033900026 0.25377712
0.097868584 0.033940956 0.25375119
0.098387599 0.033981428 0.2537154
0.098880626 0.0340239 0.25368151
0.099324845 0.034054413 0.25364324
0.099817686 0.034097455 0.25360334
0.10023235 0.034122739 0.25357309
0.10074382 0.034173198 0.25353557
0.10129865 0.034251716 0.25351277
0.10178445 0.034304392 0.25348681
0.10377741 0.034459997 0.25334993
0.16277021 0.032918282 0.25710762
0.16287781 0.032794215 0.25716296
0.16282108 0.032946851 0.25704649
0.16264352 0.033277802 0.25685725
0.16241845 0.033662904 0.2566731
0.16230963 0.033906952 0.25655752
0.16236483 0.033793282 0.25660637
-0.014526366 0.035057217 0.26511785
-0.014541429 0.034958031 0.265055
-0.014504204 0.034775842 0.26498875
-0.014460975 0.034664266 0.26492313
-0.014398583 0.034666434 0.26491332
-0.014339692 0.034895442 0.26500416
-0.014236118 0.03499572 0.26504996
-0.014199431 0.034955733 0.26504335
-0.014081854 0.034855112 0.26501158
-0.014002404 0.034816056 0.26500058
-0.013938845 0.034817778 0.26502296
-0.013811347 0.034716748 0.26499751
0.051345855 0.043140016 0.3090955
0.051345859 0.043140013 0.3090955
0.051367909 0.043026626 0.30900639
0.051385377 0.042917904 0.30892774
0.051394545 0.04286151 0.3088876
0.051394552 0.04286151 0.3088876
0.069158792 0.030940713 0.25458589
0.069555134 0.030963182 0.25458443
0.069966517 0.031002089 0.25460923
0.070406586 0.031050993 0.25463679
0.07094337 0.031112235 0.25465879
0.071470022 0.031180356 0.25467643
0.071927324 0.031234307 0.25467455
0.072409265 0.031279135 0.2546562
0.073113538 0.031372882 0.25464436
0.073947974 0.031486124 0.25467688
0.074588351 0.0315919 0.25473022
0.075064845 0.031651672 0.25475943
0.075484484 0.031685714 0.25474781
0.075801104 0.031719424 0.25474685
0.076242536 0.031768437 0.25473902
0.076590359 0.031796958 0.25472268
0.07684619 0.031811453 0.25469854
0.077261277 0.031848315 0.25467888
0.077675395 0.031886734 0.25466004
0.078059711 0.031917639 0.25463998
0.078603037 0.031970661 0.25462627
0.079177819 0.032018367 0.25461298
0.07962317 0.032056548 0.25460359
0.079910517 0.032070946 0.25459129
0.08041314 0.032126419 0.25459185
0.080945045 0.032177433 0.2545855
0.081589863 0.032260694 0.25457865
0.082226641 0.03232567 0.25453791
0.082799062 0.032398317 0.25450033
0.083398581 0.032477383 0.25447589
0.083908685 0.032540932 0.25446397
0.084327668 0.032575238 0.25444224
0.084683172 0.032626126 0.25444135
0.085219853 0.032687116 0.25444499
0.085724898 0.032747727 0.25444341
0.086284466 0.032811679 0.25444588
0.086886607 0.03284087 0.2544184
0.087351374 0.03287603 0.25439274
0.087812312 0.032914132 0.25436985
0.088106357 0.032925494 0.25435123
0.088479616 0.032962609 0.25433272
0.088969789 0.033000853 0.25430149
0.089570493 0.033065584 0.25427681
0.090223663 0.033127878 0.25426006
0.09091676 0.033196524 0.254242
0.091465071 0.033259556 0.25421864
0.091827586 0.033287965 0.25420073
0.092208765 0.033331145 0.25418243
0.092675567 0.033371329 0.25414187
0.093189403 0.033431698 0.25410193
0.093774445 0.033505939 0.254069
0.094401054 0.033596322 0.25402796
0.0949158 0.033657063 0.25397637
0.095338345 0.033699755 0.25393513
0.095762417 0.033743892 0.25390097
0.096047625 0.033771839 0.25387824
0.096544512 0.03382735 0.25384304
0.096961401 0.033862974 0.25380954
0.097401433 0.03390003 0.25377712
0.097842455 0.03393751 0.25374943
0.098334104 0.033979267 0.25371578
0.098802991 0.034013264 0.25368011
0.099297084 0.034055561 0.25364599
0.09976498 0.034098551 0.25361142
0.10004991 0.034109328 0.25358221
0.10053664 0.034162398 0.25354713
0.10116602 0.034254994 0.25352558
0.10168193 0.034308597 0.25349876
0.10217314 0.034350108 0.25347614
0.10261495 0.034394909 0.25345412
0.10289729 0.034411035 0.25342679
0.1033417 0.034438845 0.25339258
0.10380641 0.034481868 0.25335506
0.10434803 0.034540586 0.25331068
0.10494965 0.034600947 0.25326642
0.10561433 0.034655869 0.25321823
0.1061147 0.03469887 0.25317684
0.10659125 0.03473267 0.25313729
0.10710016 0.034769788 0.2530978
0.10758852 0.03481422 0.2530686
0.1081251 0.034850154 0.25302541
0.10866599 0.034902081 0.25299451
0.10913474 0.034940232 0.25296706
0.10970355 0.03500241 0.25294247
0.16243555 0.033819053 0.25681195
0.16250804 0.033722751 0.25683218
0.16232511 0.03408074 0.25665399
0.16210949 0.03444799 0.25645992
0.16201846 0.034669895 0.2563566
0.16201709 0.034726582 0.25632372
0.16211087 0.034527451 0.25637248
-0.014467816 0.035869744 0.26533696
-0.014437706 0.035719492 0.26527584
-0.014427797 0.035502851 0.26519385
-0.014429001 0.035223015 0.26508689
-0.014374041 0.035176013 0.26506615
-0.014315297 0.035292953 0.26510754
-0.014278663 0.035272393 0.26509231
-0.014238457 0.035298232 0.2651034
-0.014162555 0.035256635 0.26510262
-0.01402922 0.035204262 0.26510283
-0.01394949 0.035119392 0.26508987
-0.01388701 0.035008226 0.26506978
0.051300779 0.043604754 0.30944416
0.051300786 0.043604754 0.30944419
0.051329676 0.043493256 0.30934212
0.051367696 0.043330763 0.30920127
0.05136789 0.043268424 0.30916515
0.051359836 0.043087155 0.30904624
0.075233288 0.031701431 0.25480592
0.075579368 0.031723622 0.25479198
0.075995594 0.03176263 0.2547766
0.076336332 0.031795416 0.25476179
0.076781079 0.031829476 0.25473267
0.077036567 0.03184412 0.25471011
0.077322192 0.031866327 0.25469562
0.077674307 0.031893451 0.25466907
0.078185849 0.031935018 0.25464472
0.078728944 0.031986654 0.25462726
0.079336062 0.032039002 0.25461057
0.079874888 0.032094438 0.25460657
0.080221936 0.032139186 0.25460634
0.080724627 0.032189034 0.25460294
0.081222557 0.032239474 0.25460032
0.081864059 0.032305971 0.25457451
0.082531936 0.032389697 0.25453851
0.083312266 0.032514218 0.25453046
0.083848335 0.032581575 0.25451669
0.08432398 0.032631714 0.25450242
0.084713914 0.032658055 0.25447577
0.085101396 0.03270271 0.25447315
0.085400358 0.032727703 0.25446889
0.085785359 0.032764979 0.2544542
0.086311385 0.032821596 0.2544488
0.086886883 0.032864485 0.25443387
0.087377183 0.03289742 0.25440463
0.087812506 0.032922551 0.25437552
0.088273488 0.032960422 0.25435442
0.088649489 0.032988839 0.2543304
0.089109071 0.033033028 0.254307
0.089737989 0.033108942 0.25429371
0.090467565 0.033190385 0.25428054
0.091106549 0.033239279 0.25424871
0.091600522 0.03328127 0.25421551
0.091984756 0.033313453 0.25419271
0.092370473 0.033357024 0.25417
0.092781462 0.033409104 0.25415421
0.093240224 0.033458058 0.25411922
0.09390074 0.033542562 0.25407758
0.094425961 0.033615608 0.25404072
0.094913073 0.033668239 0.25398153
0.095333435 0.033706073 0.25393316
0.095756367 0.033753641 0.25389707
0.096100174 0.033787016 0.25387624
0.096568875 0.033833098 0.25383663
0.096932769 0.033872634 0.25381425
0.097324602 0.033904668 0.25378802
0.097792745 0.033942226 0.25376001
0.098284557 0.033983804 0.2537269
0.098753348 0.034017608 0.2536912
0.099246398 0.034067173 0.25366274
0.099712797 0.034106147 0.25362283
0.09999837 0.034114275 0.25358817
0.10053635 0.034171835 0.25355175
0.10103826 0.03424358 0.25353125
0.10160555 0.034310669 0.25350654
0.10214636 0.03436045 0.25347924
0.10258842 0.034393128 0.25345427
0.10290141 0.034412459 0.25343329
0.10334335 0.034448549 0.25339904
0.10380767 0.034491129 0.25335997
0.1043488 0.034550793 0.25331497
0.10489972 0.034595318 0.25326535
0.1055617 0.034672283 0.253227
0.10601582 0.034706496 0.25319773
0.10657446 0.034747895 0.25315374
0.10708025 0.034781534 0.25311184
0.10764223 0.034827434 0.25307295
0.10815801 0.034858845 0.25303289
0.1086425 0.034906976 0.25300175
0.10916119 0.034952614 0.25297481
0.10967974 0.035015471 0.25295934
0.11029218 0.035069305 0.25294006
0.11085059 0.035136145 0.25293791
0.11153362 0.035171151 0.25293779
0.11221392 0.035211597 0.25293207
0.11295013 0.035285681 0.25295591
0.11349384 0.035320938 0.25297537
0.16186829 0.035275754 0.25637212
0.16190523 0.035279471 0.25636822
0.16187754 0.035461467 0.2562834
0.16185816 0.035411034 0.2562584
0.1618606 0.035381962 0.2562502
0.1618678 0.035324838 0.25624341
0.16194245 0.035161495 0.25625578
-0.014450346 0.03644656 0.26547021
-0.014413184 0.03627247 0.26540622
-0.014412087 0.035975724 0.26529503
-0.014390918 0.035787076 0.26523694
-0.014358285 0.035549469 0.26515773
-0.014325642 0.035574913 0.26515916
-0.0142819 0.035713598 0.26520151
-0.014249404 0.03585707 0.26525739
-0.014188282 0.03581585 0.26524729
-0.014143073 0.035702106 0.26521713
-0.014024403 0.035555277 0.26518476
-0.013923282 0.035441756 0.2651723
-0.013872836 0.035357457 0.26516849
0.05122349 0.044071108 0.3098141
0.051281281 0.043903798 0.30966154
0.051307473 0.043790236 0.3095651
0.051338464 0.043558735 0.30938298
0.051329676 0.04349326 0.30934209
0.051348299 0.043446627 0.30928928
0.077129535 0.031867519 0.25472599
0.077387579 0.031872354 0.25469688
0.077769771 0.031905953 0.25467533
0.078215733 0.031945992 0.2546536
0.078858472 0.032001339 0.25462833
0.079460494 0.032081954 0.25462207
0.080031216 0.032144051 0.25461641
0.080693647 0.032225054 0.25461876
0.08109653 0.032267865 0.25461525
0.081530623 0.032300901 0.25460348
0.082079351 0.032355994 0.2545802
0.082924545 0.032490093 0.25457129
0.083672084 0.032613214 0.25459096
0.084291242 0.032704096 0.25459731
0.084795482 0.032754928 0.25457963
0.08509881 0.032750305 0.25452965
0.085457303 0.032779973 0.2545065
0.085722387 0.032794472 0.25448757
0.086020835 0.03281682 0.25447404
0.086515717 0.032863669 0.25445914
0.087093636 0.032906722 0.2544454
0.087614387 0.032916456 0.2543931
0.088132806 0.032961864 0.25436762
0.088507771 0.032984309 0.25434268
0.088936858 0.033027545 0.25432527
0.089451835 0.03308728 0.25431398
0.090184875 0.033186611 0.25430346
0.090741269 0.03324315 0.25429103
0.091242425 0.033271119 0.254253
0.091712683 0.03331168 0.25422433
0.092152022 0.033342592 0.2541917
0.092613153 0.033400401 0.25416932
0.092996888 0.033443004 0.25415084
0.093452282 0.033505343 0.25412932
0.09400519 0.033572596 0.25408855
0.094551004 0.033652231 0.25404075
0.095069684 0.033698652 0.25397104
0.095436536 0.033728845 0.2539275
0.095885947 0.033760443 0.25388494
0.096304819 0.033805892 0.25385198
0.096645281 0.033841055 0.25382701
0.096985608 0.033873219 0.25380829
0.097324617 0.033904668 0.25378802
0.097793154 0.033946782 0.2537598
0.098287351 0.033993185 0.25373334
0.098780692 0.034036625 0.25370359
0.099248596 0.034077596 0.2536701
0.099684797 0.034123663 0.25363618
0.10014789 0.034168825 0.25359213
0.10060699 0.034206804 0.25356153
0.10121626 0.034288839 0.25353163
0.10170654 0.034330219 0.25350264
0.10220011 0.03437629 0.25348154
0.10266787 0.034418263 0.25345814
0.10295517 0.034419261 0.25342855
0.10342143 0.034463119 0.25339502
0.10386162 0.034508742 0.25336504
0.10437809 0.034562249 0.25331515
0.10490182 0.034605205 0.25327015
0.10550955 0.034679223 0.25323582
0.1059891 0.034703698 0.2531977
0.10654788 0.034746539 0.25315472
0.10708407 0.034799017 0.25312814
0.10756643 0.034833025 0.25308856
0.10813317 0.034880165 0.25304887
0.10859128 0.034911662 0.25301188
0.10905699 0.034948956 0.25298983
0.10946227 0.0349943 0.25295955
0.11006894 0.035049215 0.25294429
0.11076763 0.035126727 0.2529414
0.11141887 0.035181697 0.25293589
0.11213312 0.035230651 0.25294891
0.11283683 0.035275038 0.25295058
0.11343789 0.03532866 0.25297356
0.11395522 0.035378881 0.25299951
0.11441729 0.035407275 0.25301662
0.11476075 0.035421602 0.25301492
0.11521827 0.035460342 0.25302088
0.11555739 0.035480902 0.2530162
0.11600827 0.03551735 0.25301644
0.11645938 0.035557956 0.25301388
0.11708285 0.035585076 0.25300667
0.11764517 0.03561468 0.252992
0.11809853 0.035633575 0.25297436
0.11851599 0.035675336 0.25297087
0.1193416 0.035743464 0.25296235
0.12055338 0.035898577 0.25300148
0.12150563 0.035983782 0.25302628
0.12198557 0.035995055 0.25303626
0.12248698 0.036032602 0.253034
0.12307452 0.036066558 0.25303155
0.1617028 0.036109179 0.25626218
0.1617745 0.036041129 0.25629795
0.16171524 0.036013842 0.25624815
0.16171455 0.035956845 0.25623134
0.16173188 0.035887055 0.25622639
0.16182789 0.035658903 0.2562488
0.16188683 0.035567369 0.2562654
-0.014442705 0.036826059 0.26553378
-0.014433427 0.036675017 0.26548752
-0.014402822 0.03647897 0.26541981
-0.014361318 0.036259856 0.26534864
-0.014347941 0.036116909 0.26531163
-0.014301342 0.036167771 0.26532751
-0.014288073 0.036236718 0.26533788
-0.014262074 0.036239631 0.26533848
-0.014230967 0.036334883 0.26537216
-0.014181889 0.036296073 0.26537219
-0.014148822 0.036231529 0.26537034
-0.01405027 0.036027439 0.26533052
-0.01395674 0.035940871 0.26532277
0.051195003 0.04442307 0.31007335
0.051194992 0.044423081 0.31007338
0.051228099 0.044309188 0.30998302
0.051244501 0.044014227 0.30976394
0.051297102 0.043850496 0.30961043
0.051307473 0.043790232 0.30956501
0.05132892 0.043679822 0.30947131
0.080820769 0.032257438 0.25462571
0.084442258 0.032761313 0.2546432
0.084889911 0.032792229 0.25460801
0.085369363 0.032813653 0.2545644
0.085697852 0.032839242 0.25453848
0.086024791 0.032856602 0.25450829
0.086109787 0.032834612 0.25447637
0.086578108 0.032879539 0.25446913
0.087209769 0.032914598 0.25443453
0.087817349 0.032954343 0.25439569
0.088305749 0.032998007 0.25437263
0.088849925 0.033055514 0.2543492
0.089420184 0.033126269 0.25434488
0.089958452 0.033185482 0.25433084
0.090553507 0.033248741 0.25431231
0.091052368 0.033291623 0.25428924
0.091527365 0.033320051 0.25425479
0.09190771 0.033345487 0.25422329
0.092399172 0.033393215 0.25419635
0.092805453 0.033437606 0.25417325
0.093208529 0.033492509 0.25415915
0.093687989 0.033550978 0.2541301
0.094237216 0.033634268 0.25409219
0.094733216 0.033687126 0.25402725
0.095228545 0.033730708 0.2539652
0.095648147 0.033764463 0.25391573
0.096014857 0.033787094 0.2538766
0.096410237 0.033827845 0.25384924
0.096853249 0.033871353 0.25381684
0.097166874 0.033903472 0.25379965
0.097583875 0.033947986 0.25378236
0.097997688 0.033991814 0.25376135
0.098439522 0.034030084 0.25373173
0.098856986 0.034054849 0.25370014
0.099351294 0.034100704 0.25367346
0.099941589 0.03416137 0.25363076
0.10045023 0.034221787 0.25358739
0.10078176 0.034250665 0.25356221
0.10131999 0.034314856 0.25353318
0.1017852 0.034358256 0.2535083
0.1022812 0.034393813 0.25348571
0.10272434 0.034428924 0.25346127
0.10316473 0.034472149 0.25342822
0.10355358 0.034491625 0.25339231
0.10404582 0.034530979 0.25335333
0.10453735 0.034579746 0.25330696
0.10497856 0.034626275 0.25326702
0.10550954 0.034679219 0.25323585
0.10593674 0.034714129 0.25320971
