# .PCD v0.7 - Point Cloud Data file format
VERSION 0.7
FIELDS x y z
SIZE 4 4 4
TYPE F F F
COUNT 1 1 1
WIDTH 1446
HEIGHT 1
VIEWPOINT 0 0 0 1 0 0 0
POINTS 1446
DATA ascii
0.074534059 0.1329582 0.31094521
0.07509008 0.13286127 0.31074452
0.075563498 0.13277791 0.31052309
0.076066867 0.13267942 0.31049326
0.076528773 0.13260028 0.3102797
0.077024341 0.13251635 0.31003878
0.077486187 0.13245264 0.30976665
0.078056946 0.13235998 0.30944115
0.078709751 0.1322843 0.30895305
0.079299994 0.1322114 0.30854174
0.079928324 0.13213533 0.30806497
0.080529489 0.13205729 0.30761999
0.08102686 0.13197215 0.30739069
0.081595533 0.13187249 0.3071945
0.082018688 0.13180046 0.30710301
0.082534589 0.13172311 0.30690888
0.082965381 0.13166216 0.30665043
0.083522886 0.13157672 0.30631655
0.084012993 0.13148995 0.30600807
0.08457198 0.13138445 0.30570808
0.085053936 0.13130423 0.3053627
0.085585579 0.13123924 0.30487406
0.086033083 0.13117461 0.30461639
0.086596213 0.13108402 0.30434698
0.086995438 0.13103071 0.30416858
0.087446131 0.13095585 0.30400953
0.087994263 0.13087523 0.30372518
0.088541768 0.13081223 0.30335036
0.089014009 0.1307504 0.30298862
0.089476325 0.13068165 0.30272347
0.090053067 0.13060127 0.30238995
0.090682589 0.13050629 0.30210543
0.091218114 0.13042469 0.30179664
0.09179467 0.13033901 0.30138963
0.092343979 0.13024734 0.30100018
0.092832632 0.130171 0.3006624
0.093315095 0.13009068 0.30043122
0.093808107 0.130004 0.30030599
0.094335087 0.12991485 0.30013555
0.094839022 0.12984559 0.29984373
0.095399909 0.12976734 0.29940835
0.095950969 0.12968963 0.2990993
0.096493937 0.12962566 0.2986415
0.097078793 0.12954932 0.2982384
0.097530134 0.12949331 0.29785836
0.098079547 0.12941769 0.29753044
0.09842743 0.12936771 0.29736158
0.098971389 0.12926687 0.29730901
0.099374935 0.12920259 0.29713097
0.099896558 0.12913643 0.29680824
0.10038424 0.12906998 0.29649955
0.10085023 0.12901038 0.29616985
0.10140302 0.12893184 0.29586223
0.10192268 0.12884066 0.29573989
0.10253964 0.12872656 0.29572377
0.10305603 0.12862825 0.29570961
0.10362774 0.12852181 0.29569378
0.10399476 0.12846681 0.2954478
0.10449057 0.12840651 0.29497793
0.10494803 0.1283474 0.29466736
0.10548028 0.12827364 0.29446745
0.10597338 0.12819904 0.29439428
0.10655896 0.12811613 0.29437247
0.10703201 0.12805399 0.29429364
0.10753711 0.12799548 0.29418236
0.10807739 0.12793782 0.29387179
0.10851742 0.12791668 0.29349151
0.1089833 0.12787722 0.29316375
0.10950456 0.12781295 0.2929379
0.10997655 0.12774941 0.29289082
0.11050835 0.12767644 0.29282072
0.11105414 0.1276083 0.29264665
0.11158454 0.12756297 0.29224953
0.11205211 0.12751716 0.29178873
0.11257981 0.12746207 0.29150158
0.1130734 0.12739152 0.2914215
0.11360469 0.12730317 0.29157391
0.11418112 0.12721591 0.29161161
0.11471522 0.12714252 0.29152444
0.11529891 0.12704393 0.29153606
0.11596115 0.12695409 0.29183429
0.11669779 0.12685491 0.29221538
0.11731059 0.126779 0.29212347
0.11760038 0.12675492 0.29121223
0.11775879 0.12676829 0.29014286
0.1182059 0.12674204 0.28947023
0.11885007 0.12664305 0.28952238
0.11976604 0.12653883 0.29052943
0.12060658 0.12643181 0.29113638
0.12124912 0.12636568 0.29124945
0.12178974 0.12628305 0.29120088
0.12244832 0.12621272 0.2912339
0.12300961 0.126138 0.29115352
0.12343749 0.12607089 0.29089895
0.12397504 0.12599033 0.29042408
0.12421816 0.12593308 0.28973311
0.12467072 0.1258679 0.28921306
0.12508947 0.12582415 0.28889775
0.12566914 0.12576024 0.28879815
0.12636833 0.1256811 0.28873971
0.12706856 0.12564351 0.28892004
0.12780692 0.12561147 0.28909525
0.12864931 0.12559487 0.289419
0.12927082 0.12556383 0.28946662
0.12987898 0.12552346 0.28943431
0.13030972 0.12547223 0.28917316
0.1307846 0.12540026 0.28871816
0.13113807 0.12534745 0.28838193
0.13171254 0.12526709 0.2879332
0.13231295 0.12519623 0.28759056
0.13298155 0.12515575 0.28765488
0.13367604 0.12512751 0.28790846
0.13472091 0.12513207 0.2887148
0.13562712 0.1251357 0.28960493
0.13654983 0.1251334 0.29026496
0.13721147 0.12510182 0.29050744
0.13766021 0.1250506 0.29029071
0.13801694 0.12498698 0.28980798
0.13829933 0.12492134 0.28920242
0.13871922 0.12486865 0.28886643
0.13920628 0.1248247 0.28869307
0.13970225 0.12478677 0.28862903
0.14035951 0.12473907 0.28865457
0.14088063 0.1246974 0.28858903
0.14126019 0.12464905 0.28828964
0.14167045 0.12459381 0.28785354
0.14189982 0.12454566 0.28735459
0.14233369 0.12449653 0.28711993
0.14275441 0.12444905 0.28693292
0.14332578 0.12439725 0.28697607
0.14390041 0.12435082 0.28713989
0.14440367 0.12429298 0.28710246
0.14485693 0.12423902 0.28707772
0.14546241 0.12417608 0.28723761
0.14597313 0.12412307 0.28730461
0.14652181 0.12406935 0.28734943
0.14703891 0.12402239 0.28746003
0.14760976 0.12396041 0.28730986
0.14805648 0.12391959 0.28720838
0.14861776 0.12388372 0.2871519
0.14935383 0.12383327 0.2871924
0.15013994 0.12378597 0.28731909
0.15077721 0.12372221 0.28726527
0.15132906 0.12364474 0.28686836
0.15157595 0.12356392 0.28617346
0.15175082 0.12348787 0.28540134
0.15208718 0.12343255 0.28496617
0.15255423 0.12338585 0.28488126
0.1531512 0.12334132 0.28489056
0.15358511 0.12329719 0.28474692
0.1539259 0.12324183 0.28440192
0.15448338 0.12318228 0.28421906
0.15500075 0.12314208 0.28412497
0.15570432 0.12310999 0.28436968
0.1565264 0.12309783 0.28495386
0.1572094 0.12307037 0.28519556
0.15789443 0.12303991 0.28532773
0.15829012 0.12299478 0.28496888
0.15861899 0.12295618 0.28463921
0.15887854 0.12287063 0.28377399
0.1591078 0.1227996 0.28309122
0.15957057 0.12273398 0.28263804
0.16005711 0.12269977 0.28258312
0.16084613 0.12268274 0.28296748
0.16177611 0.12270629 0.28383905
0.1626333 0.12270863 0.2843599
0.16333614 0.12266576 0.28435349
0.16362481 0.12258833 0.28366774
0.16390406 0.12249143 0.28274137
0.16416286 0.12242206 0.28219095
0.16465338 0.12238865 0.28215206
0.1652281 0.1223579 0.28225869
0.16599578 0.12235731 0.28280726
0.16670883 0.1223335 0.28309849
0.16732392 0.12230019 0.28318086
0.16779664 0.12225911 0.28309542
0.16836093 0.1222005 0.28294721
0.1689273 0.12215492 0.28282526
0.16945404 0.12210666 0.28262532
0.16988882 0.12204711 0.28224078
0.17028259 0.12200134 0.28193647
0.17060608 0.12193225 0.28144395
0.17094916 0.12187646 0.28113347
0.17112051 0.12181143 0.28064531
0.17129381 0.12175953 0.28026304
0.17155455 0.12171473 0.28005892
0.17192599 0.12168591 0.28009686
0.172282 0.12165845 0.28016168
0.17255273 0.1216279 0.28010437
0.17282955 0.12160551 0.28012997
0.17318167 0.12157828 0.28017774
0.17371278 0.12154964 0.28039357
0.17408459 0.12152999 0.28058642
0.17437541 0.12150034 0.28058535
0.17454575 0.12146257 0.28041878
0.17469376 0.12140658 0.28008929
0.17486331 0.12136947 0.27994969
0.17512324 0.12134327 0.28002733
0.17548245 0.12130935 0.28019339
0.17594202 0.12128341 0.2805056
0.17632394 0.12124871 0.28068125
0.17665213 0.12122115 0.28085011
0.014234159 0.12770151 0.29944932
0.016531466 0.12716788 0.29752195
0.01893734 0.12666598 0.29574201
0.020340115 0.12639768 0.29468599
0.021486519 0.12628098 0.29384357
0.022232264 0.12617093 0.29330158
0.022613471 0.12613544 0.2930769
0.023025038 0.12610184 0.29281661
0.023315186 0.12606917 0.29263818
0.023800466 0.12598546 0.29227042
0.024255471 0.12591137 0.29196164
0.024739671 0.1258309 0.29163492
0.025233317 0.12575796 0.29130724
0.025726795 0.12568612 0.29097864
0.026450269 0.1255492 0.29049048
0.027054964 0.12546587 0.29009137
0.027611557 0.12539382 0.28973401
0.027895562 0.12535354 0.28956023
0.0282466 0.12531556 0.28932026
0.028798278 0.12523821 0.28895929
0.029427106 0.12513909 0.28856379
0.030138239 0.12502663 0.28815058
0.030649554 0.12496363 0.28786409
0.031298351 0.12486647 0.28748056
0.031843107 0.12478885 0.28715575
0.032491039 0.12468266 0.28674567
0.033074874 0.12462445 0.2864016
0.033535898 0.12456863 0.28612855
0.034035023 0.12452557 0.28584012
0.034587514 0.1244561 0.2855019
0.035139415 0.12439121 0.28514907
0.035782468 0.12429179 0.28475648
0.036453716 0.12416693 0.28430998
0.037051376 0.12404907 0.2838921
0.03762285 0.12395673 0.2835114
0.038093586 0.12386712 0.28318265
0.038588151 0.12378971 0.28285909
0.039044265 0.1237357 0.28258151
0.03947974 0.1236698 0.28228596
0.039931279 0.12361214 0.282006
0.040232103 0.12358682 0.28182551
0.040603861 0.1235414 0.28160587
0.040988382 0.12351608 0.28139728
0.041470189 0.12345473 0.28111276
0.042011302 0.12337291 0.28077531
0.042568348 0.12332797 0.2804684
0.043193385 0.1232881 0.28012201
0.043762039 0.1232 0.27975991
0.044217449 0.12312833 0.27945614
0.04489648 0.12302005 0.27897304
0.0455334 0.1229142 0.27857068
0.045333985 0.12302491 0.27880311
0.044849247 0.12317055 0.27924934
0.069924451 0.13537994 0.30858555
0.070484392 0.1350098 0.31017083
0.070804015 0.13453706 0.31142125
0.071476258 0.13457917 0.31055391
0.072227709 0.13454734 0.30956286
0.072908424 0.13443357 0.30887991
0.073375493 0.13435912 0.30846974
0.073827632 0.13418247 0.30839261
0.074338906 0.13386837 0.30879501
0.074988522 0.13348065 0.30913576
0.075587146 0.13321149 0.30926526
0.076086447 0.13296346 0.309315
0.076570459 0.13280423 0.30928883
0.077012412 0.13263322 0.30928773
0.077571496 0.13248555 0.30919164
0.078070819 0.13241117 0.309003
0.078688733 0.13232775 0.30865371
0.079307593 0.13225757 0.30815381
0.079878211 0.13218927 0.30776271
0.080487303 0.13209414 0.30738533
0.081031233 0.13201311 0.30706668
0.081505261 0.13192306 0.30691788
0.081995934 0.1318285 0.30682504
0.082518876 0.13174534 0.30666676
0.082954668 0.13168055 0.30647364
0.083443709 0.13160692 0.30614132
0.083937854 0.13152017 0.30592966
0.084418178 0.13143788 0.30558458
0.084979303 0.13134861 0.3051109
0.085505038 0.13127138 0.30473167
0.086002201 0.13119669 0.30449632
0.086499192 0.13111638 0.30426341
0.086985424 0.13105068 0.30402669
0.08741615 0.13098066 0.30377504
0.087953813 0.13089998 0.30359387
0.088458829 0.13083915 0.30324313
0.088967063 0.13076745 0.30293176
0.089535952 0.13069965 0.30249992
0.090122424 0.13061151 0.30214223
0.090637811 0.13054398 0.30179673
0.091202982 0.13046198 0.30137315
0.09175954 0.13038148 0.30095708
0.09235052 0.13028312 0.30069798
0.09285707 0.13019507 0.30043694
0.093347564 0.13011757 0.30022246
0.093747668 0.13004053 0.30006212
0.094304949 0.12994462 0.2999284
0.094823413 0.12987325 0.29960769
0.095330633 0.1297999 0.29925442
0.09596581 0.12972963 0.29873112
0.096522175 0.12965807 0.2983301
0.096995324 0.12959674 0.29793784
0.097546063 0.12952375 0.29760906
0.097966075 0.12946661 0.29740721
0.098417297 0.12938833 0.29723364
0.098855905 0.12931395 0.29704982
0.099330515 0.12923598 0.2968739
0.099823244 0.12916705 0.29660699
0.10026047 0.12910126 0.29636678
0.10082316 0.12902232 0.29609379
0.10137265 0.12894374 0.29580459
0.10191935 0.12885767 0.29561543
0.10238539 0.12877826 0.29547635
0.10294624 0.128675 0.29543909
0.10338555 0.12859334 0.29529059
0.10391909 0.12851459 0.29504871
0.10439844 0.12844802 0.294687
0.10487249 0.12838176 0.29441765
0.10536723 0.12831959 0.29415813
0.10587231 0.12826389 0.29391146
0.10641254 0.12819766 0.29371852
0.10693202 0.12814049 0.29347804
0.10746067 0.12809163 0.29320696
0.10788032 0.12805551 0.29292154
0.10837317 0.12800957 0.29264459
0.10890126 0.12794696 0.29246363
0.10943821 0.12787874 0.29219979
0.10993083 0.12780978 0.29203263
0.11044459 0.12774125 0.29188001
0.11091357 0.12769289 0.29158723
0.11140174 0.12764809 0.29122934
0.11185633 0.1276138 0.29076639
0.11238177 0.12754807 0.29056931
0.1128761 0.1274671 0.29064408
0.11338589 0.12738559 0.29080346
0.11391899 0.12730156 0.29087692
0.11441191 0.12722366 0.29083234
0.11495571 0.12714389 0.29081613
0.11560758 0.12706265 0.29082
0.11617795 0.12697388 0.29086262
0.11661742 0.12692255 0.29049757
0.11703309 0.12691401 0.28952515
0.11729065 0.12690093 0.28868932
0.11775976 0.12684849 0.28823242
0.11830228 0.1267705 0.28824151
0.11909948 0.12664326 0.28870806
0.11988574 0.12654558 0.2891244
0.12057869 0.12644933 0.28951114
0.12107989 0.12637639 0.28941327
0.12147863 0.12632461 0.28912291
0.12179917 0.12626971 0.28860345
0.12222607 0.12621242 0.28791907
0.12258656 0.12616298 0.28736797
0.12305018 0.12611061 0.28678486
0.12351992 0.12605563 0.28651991
0.12400162 0.12600075 0.28619882
0.12454189 0.12592851 0.2861923
0.12506519 0.12585662 0.2860589
0.12569872 0.12576872 0.28616628
0.12632103 0.1256662 0.28623077
0.12708317 0.12557894 0.28665516
0.12809971 0.12547226 0.28743067
0.12873901 0.12542473 0.28731316
0.1290323 0.12537432 0.28655937
0.1293945 0.12533502 0.28599796
0.12976404 0.12530316 0.2854324
0.13031834 0.12524579 0.28517836
0.13099775 0.12516253 0.28522262
0.13172311 0.12509114 0.28545451
0.13282771 0.12504856 0.28626919
0.13403836 0.12507094 0.28749406
0.13511162 0.12508537 0.28852335
0.13592283 0.1250667 0.28897092
0.13656218 0.1250304 0.28908816
0.13691367 0.12498535 0.28885335
0.13718756 0.12493943 0.28844449
0.13766247 0.12486951 0.28794366
0.13809277 0.12481917 0.28764206
0.13849704 0.12477885 0.2874065
0.13900034 0.12473842 0.28727591
0.1395155 0.1246836 0.28694126
0.14003073 0.12464651 0.28688672
0.14049003 0.12459067 0.28656188
0.1408273 0.12454959 0.28627792
0.14117156 0.1244975 0.28582492
0.14157437 0.12445566 0.28562495
0.14204846 0.12441374 0.28550747
0.14263569 0.12437259 0.28565568
0.14311661 0.124335 0.28580114
0.1437851 0.12427414 0.28586861
0.1443577 0.12421124 0.28586736
0.14488451 0.12413891 0.28576377
0.14532518 0.12408271 0.28572229
0.14590085 0.1240288 0.28579658
0.14644064 0.12398679 0.2860156
0.14696956 0.12393494 0.28605422
0.14739114 0.12388737 0.28587776
0.14789785 0.12383138 0.28561893
0.14845257 0.12377471 0.28550369
0.14904709 0.12371695 0.28542745
0.14959973 0.1236489 0.28519377
0.15010534 0.12357937 0.28486863
0.15043525 0.12351274 0.28437179
0.15079047 0.12344491 0.28394803
0.15107907 0.12338155 0.28338045
0.15148643 0.12333249 0.28317383
0.15190695 0.12327836 0.2828736
0.15234151 0.12322561 0.28263229
0.15288484 0.12315793 0.28226686
0.15323971 0.12311741 0.28203961
0.15391219 0.12306958 0.28208712
0.15461726 0.12303775 0.28236648
0.15541382 0.12301491 0.28273669
0.15621667 0.12300838 0.28323781
0.1569892 0.1229688 0.28350231
0.15746501 0.12292948 0.28338251
0.1578397 0.12286177 0.28284478
0.15810829 0.12278919 0.28212801
0.15835419 0.12270342 0.28136852
0.15872778 0.12262692 0.28089204
0.15921088 0.12259734 0.2808997
0.16008024 0.1225857 0.2813586
0.16108207 0.1226107 0.28230146
0.161919 0.12261779 0.28289816
0.16255133 0.12256999 0.28276172
0.16290954 0.12250125 0.28220737
0.16306008 0.12240534 0.28125456
0.16344561 0.1223451 0.28082931
0.16392209 0.12232162 0.2808648
0.16470006 0.12230153 0.28121677
0.16550091 0.12230304 0.28181723
0.16606717 0.1222757 0.28193089
0.16657354 0.12222595 0.28179562
0.16701752 0.12216952 0.28156021
0.16752633 0.1221168 0.28138021
0.16814849 0.12206794 0.28135988
0.16873431 0.12202202 0.28118718
0.16911887 0.12197823 0.28089815
0.16942814 0.1219155 0.28038952
0.16970921 0.12185083 0.27989018
0.16990247 0.12179016 0.27940375
0.1701605 0.12174916 0.27917895
0.17051555 0.12171032 0.27909374
0.17079499 0.12166978 0.27893832
0.17112246 0.12162939 0.27883837
0.17148578 0.12159742 0.27885288
0.17176853 0.12157556 0.27886611
0.17201138 0.12154619 0.27878407
0.17229296 0.12152895 0.27884814
0.17281334 0.12150912 0.27911243
0.17325071 0.12147663 0.27921209
0.17354296 0.12144592 0.27924827
0.1736355 0.12139115 0.27879366
0.17380165 0.12134694 0.27859417
0.17406099 0.12131527 0.27856371
0.17426455 0.12129238 0.27860922
0.17465016 0.12126849 0.27887201
0.17539804 0.12126092 0.27964902
0.1757452 0.12124227 0.27994978
0.17602848 0.12121559 0.28002271
0.023606412 0.12604047 0.29243422
0.024015026 0.12596001 0.29213998
0.024346611 0.1259252 0.29193205
0.024488231 0.12592222 0.29186651
0.02482185 0.12588039 0.29162973
0.02553862 0.12573789 0.29111692
0.026381375 0.12558842 0.29054141
0.027178859 0.12547618 0.29002625
0.027779313 0.12538545 0.289635
0.028204847 0.12532809 0.28934297
0.02872096 0.12525348 0.28901145
0.029276391 0.12518065 0.28867069
0.029908305 0.12507492 0.28830054
0.030424561 0.12500122 0.28801978
0.031045489 0.12493375 0.28765133
0.03165675 0.12483516 0.2872819
0.032380387 0.1247129 0.28682044
0.032920528 0.12464172 0.28649637
0.033495165 0.12457786 0.28614286
0.033998497 0.12453292 0.2858673
0.034536161 0.12448516 0.28555512
0.035049714 0.12442561 0.28523576
0.035823401 0.12430096 0.2847454
0.036494259 0.12417486 0.28429633
0.037091371 0.12405539 0.28387523
0.037696503 0.12395153 0.28346366
0.038251612 0.12384411 0.28308678
0.038657121 0.1237782 0.28280011
0.039285515 0.12368178 0.28238317
0.039777283 0.12363438 0.28209126
0.040191296 0.12359479 0.28183958
0.040562727 0.12354859 0.28161773
0.041003477 0.12349714 0.2813485
0.041085389 0.12348639 0.28131804
0.041595582 0.12341685 0.28100452
0.042221572 0.12334225 0.28062311
0.042811815 0.12329187 0.28029096
0.043470927 0.12323958 0.27992648
0.044072315 0.123161 0.2795442
0.044528961 0.12305984 0.2791838
0.045107141 0.12298294 0.27883178
0.045698009 0.12291268 0.27847478
0.04618901 0.12285708 0.27818227
0.04652264 0.12284334 0.27803904
0.046711329 0.12283646 0.27795655
0.047098447 0.12280153 0.2777456
0.047584534 0.12273506 0.27741745
0.048134279 0.12265234 0.27702495
0.048502978 0.12261011 0.27679226
0.048775967 0.12256423 0.27663076
0.04901766 0.12253051 0.27648532
0.049386106 0.12245011 0.27622539
0.049879063 0.1223532 0.27588996
0.050398644 0.12226605 0.27551514
0.051023558 0.12214167 0.27503374
0.051968314 0.12198213 0.2743347
0.053080916 0.12176711 0.2735489
0.053468421 0.1217261 0.27332884
0.053822186 0.12168111 0.27311876
0.053338453 0.1218383 0.27357015
0.052612688 0.12213247 0.27445835
0.074483201 0.13461865 0.30605048
0.075229369 0.13414149 0.30681098
0.075696826 0.1339519 0.3069393
0.076300256 0.1336845 0.30711782
0.076996163 0.13336264 0.30736473
0.077514254 0.13301133 0.30791703
0.078040823 0.13266216 0.30822802
0.078755043 0.13241433 0.30818054
0.079310797 0.13230109 0.30788481
0.080026247 0.13221346 0.30737099
0.080601744 0.13213156 0.30695835
0.081076138 0.13205317 0.30672127
0.081582732 0.13195701 0.30653247
0.082052171 0.13187584 0.30634832
0.082507178 0.13179387 0.30621153
0.083012961 0.13171524 0.30600631
0.083549924 0.13163233 0.30568162
0.084024221 0.13154064 0.30544391
0.08444339 0.13145946 0.30521092
0.085005507 0.13135746 0.30493972
0.085466921 0.13128932 0.30465335
0.085941978 0.13123164 0.30435047
0.086438671 0.13116725 0.30400127
0.087023512 0.13107583 0.30372858
0.087478295 0.13101144 0.30348021
0.087871358 0.13094509 0.30340204
0.088352367 0.13087504 0.30315223
0.088864379 0.13080812 0.30281216
0.08951927 0.13073464 0.30225542
0.090108454 0.13065326 0.30182263
0.090685934 0.13057716 0.30141243
0.091234833 0.13049871 0.3010678
0.091745645 0.13041495 0.30078074
0.09231665 0.13032494 0.30041495
0.092818618 0.13023837 0.30016094
0.093365394 0.13015419 0.29993948
0.093793593 0.13006948 0.29986152
0.094219945 0.12998737 0.29968122
0.094684027 0.12991077 0.29947573
0.095308907 0.12982891 0.2990835
0.095901504 0.12976208 0.29862455
0.096412808 0.1296989 0.29814684
0.096986659 0.12961821 0.29779881
0.097497776 0.12955147 0.29750365
0.097922437 0.12948044 0.29736537
0.098331109 0.12941353 0.29718584
0.098773383 0.12933594 0.29700613
0.099288896 0.12925388 0.29681426
0.099750511 0.12918192 0.29656327
0.10031813 0.12910077 0.29629785
0.10078502 0.12902936 0.29608685
0.10125763 0.12895919 0.29587394
0.10179519 0.12887695 0.2956996
0.10235364 0.12878792 0.29542345
0.10286353 0.12870373 0.29518664
0.1034267 0.12861288 0.29499799
0.10383923 0.12854895 0.29473498
0.10430607 0.12847002 0.29456308
0.1047956 0.12840702 0.29422086
0.10529239 0.12835635 0.29390734
0.10581057 0.12831484 0.2934688
0.10633001 0.12826234 0.29313323
0.10680699 0.12821406 0.29279366
0.10733341 0.12816957 0.29241431
0.10779995 0.12811926 0.29218847
0.10832254 0.12807347 0.29185617
0.10881311 0.12801471 0.29159749
0.10929287 0.12795189 0.29142869
0.10980368 0.12788144 0.29123768
0.11034399 0.12781237 0.29104149
0.11079652 0.12776975 0.29068777
0.11125433 0.12772304 0.29034638
0.111735 0.1276706 0.29005313
0.11221362 0.12760636 0.28987473
0.11270133 0.12753157 0.28988555
0.11323146 0.12745234 0.28991264
0.11377241 0.12737556 0.2899411
0.11423639 0.12730961 0.28985274
0.11472428 0.12724243 0.28971303
0.11523252 0.12717274 0.28954756
0.11571796 0.12710911 0.28933969
0.11622493 0.12705256 0.28902099
0.11657497 0.12702696 0.28844643
0.11705086 0.12697348 0.28771681
0.11751919 0.12691946 0.28731677
0.11799913 0.12684491 0.28714874
0.11859757 0.12674528 0.28737989
0.11930113 0.12664048 0.28778869
0.1199981 0.12654294 0.287958
0.12052163 0.12646469 0.28788698
0.12093557 0.12641481 0.28745237
0.12135261 0.12635958 0.28670347
0.12167767 0.1263302 0.28606656
0.12210244 0.12630334 0.28556219
0.12258875 0.12624358 0.28513071
0.12309808 0.12617065 0.28501761
0.12353075 0.12611133 0.28491592
0.1240467 0.12603559 0.28480518
0.12453245 0.12596935 0.28480762
0.12497883 0.12591644 0.28474438
0.12548454 0.12583783 0.28462401
0.12610033 0.12574871 0.28468955
0.12657936 0.12568152 0.28461868
0.1271272 0.12561679 0.28437334
0.12762858 0.12554917 0.28398246
0.12807404 0.12549871 0.283535
0.12856178 0.12543342 0.28324258
0.12911208 0.12535568 0.28309125
0.12976129 0.12527561 0.28311002
0.1306123 0.12517472 0.28357244
0.13191414 0.12506144 0.28473815
0.13323431 0.12501971 0.28624538
0.13436475 0.12501664 0.28709415
0.13519424 0.12498945 0.28749144
0.13571267 0.12495856 0.28756201
0.13609532 0.12490238 0.28716323
0.13643429 0.12485178 0.286699
0.1367933 0.12478418 0.2860651
0.13725328 0.12474983 0.28594729
0.1377115 0.1247119 0.28572968
0.13819252 0.12467647 0.28562978
0.13880433 0.12462647 0.28547353
0.13923734 0.12458748 0.28526819
0.13962194 0.12455267 0.28508055
0.14001575 0.1245091 0.28479916
0.14051874 0.12447521 0.28472978
0.14098823 0.12442982 0.28452262
0.14143586 0.12438589 0.28438595
0.14199977 0.12433735 0.28439292
0.14249197 0.12429497 0.28439251
0.14309083 0.1242376 0.28440511
0.14359994 0.12416282 0.2841714
0.14410552 0.12409922 0.28406927
0.14463541 0.12404131 0.28405324
0.14523722 0.12397956 0.28415501
0.14585422 0.12393442 0.28444672
0.14633106 0.12388328 0.28439477
0.14664903 0.12382578 0.28396025
0.14706449 0.1237651 0.28360909
0.14749266 0.12369931 0.28331444
0.14819181 0.12364358 0.28348801
0.14866094 0.12358502 0.28329596
0.1490628 0.12353274 0.28311458
0.14948957 0.12345169 0.2825425
0.14986661 0.12338153 0.28205612
0.15022925 0.12332967 0.28177574
0.15055992 0.12328088 0.28153005
0.15095806 0.12323051 0.28124642
0.15139076 0.12315378 0.28065401
0.15184388 0.12310235 0.28046444
0.1523907 0.12304403 0.28027615
0.15306097 0.12300403 0.28046656
0.15368089 0.12296373 0.28063703
0.15430349 0.12291396 0.28062007
0.15514942 0.12288256 0.28093579
0.15577565 0.12284902 0.28110117
0.15639876 0.12281668 0.28121507
0.15684482 0.12275376 0.28087521
0.15721957 0.12267534 0.28034618
0.15756977 0.12261423 0.27999225
0.15798728 0.12255435 0.27965793
0.15854917 0.1225148 0.27962804
0.15936337 0.12249497 0.27994177
0.16026878 0.12250841 0.28064647
0.16107345 0.12249132 0.28094319
0.16159004 0.12245768 0.28094956
0.16196658 0.12240876 0.28058943
0.16227372 0.12233691 0.27999398
0.16260414 0.12229814 0.2797614
0.16332558 0.12225932 0.27980179
0.1641565 0.12225442 0.28029239
0.16489872 0.12224101 0.28065187
0.16550654 0.12221455 0.28082252
0.16585994 0.12216124 0.28052294
0.16616674 0.12208928 0.28006235
0.16662645 0.12203898 0.27981439
0.16719113 0.1219912 0.27972645
0.16781789 0.12194176 0.27961957
0.16822398 0.12188953 0.27927312
0.16846171 0.12183171 0.27878463
0.16874935 0.1217648 0.27825236
0.16897766 0.12172449 0.27795997
0.16934496 0.12168355 0.27778709
0.16961308 0.12164214 0.2775954
0.17007099 0.12162641 0.27778739
0.1705821 0.12160663 0.27807513
0.17088898 0.12158642 0.27813759
0.17114843 0.12156504 0.27814266
0.17139387 0.12150358 0.27770591
0.17157891 0.12147655 0.27757737
0.17211336 0.12145283 0.27780679
0.17236741 0.12142243 0.27774718
0.1726685 0.12138883 0.2777462
0.17293511 0.12134635 0.27764848
0.17309733 0.12130971 0.27748603
0.17333038 0.12127765 0.27743834
0.17356491 0.12124785 0.27743104
0.17406489 0.12122314 0.277771
0.17458202 0.12121284 0.27826488
0.17490232 0.1212019 0.27861369
0.17517996 0.12118252 0.27871668
0.024752516 0.12594523 0.29170653
0.026287036 0.12565559 0.29063788
0.027467284 0.12545401 0.28984246
0.02785705 0.12538347 0.28957576
0.028497366 0.12530063 0.28917584
0.028889043 0.12525047 0.28892612
0.029362651 0.1251833 0.28863147
0.029967701 0.12510464 0.28831553
0.030505834 0.12502144 0.28798386
0.03103286 0.12496114 0.28771415
0.031454731 0.12488816 0.28745949
0.03202723 0.12479835 0.28709936
0.03296084 0.12464035 0.28647441
0.0337414 0.12460148 0.286042
0.034359224 0.12455812 0.28568923
0.034928001 0.12448082 0.28535202
0.035506513 0.12440225 0.28496644
0.036313575 0.12423525 0.28442517
0.037018795 0.12408332 0.2839264
0.037661757 0.12396099 0.2834909
0.038170487 0.12386015 0.28312972
0.038657118 0.12377819 0.28280011
0.039283004 0.12369505 0.28239501
0.03985199 0.1236359 0.28204051
0.040302709 0.12358063 0.28176767
0.040601045 0.12355051 0.28159359
0.041043881 0.12349289 0.28132764
0.041479431 0.12343294 0.2810584
0.041782238 0.12341343 0.28089371
0.042376194 0.1233409 0.28054252
0.043062445 0.12324133 0.28010041
0.043773733 0.12322178 0.27970704
0.044418234 0.1230763 0.27925456
0.04489002 0.12300089 0.27895218
0.045421693 0.12294587 0.27862594
0.045880649 0.12289734 0.2783387
0.046452709 0.12283344 0.27799606
0.046994742 0.12276961 0.27764961
0.047567934 0.12269886 0.2773101
0.048029356 0.12263755 0.27702314
0.048342355 0.1226098 0.27685064
0.048909899 0.12248842 0.27644378
0.049315169 0.12241876 0.2761817
0.049739856 0.12232733 0.27587435
0.050204653 0.12225521 0.27555212
0.05065269 0.12216374 0.27522346
0.051137038 0.1220821 0.27486846
0.051617581 0.12199973 0.27451557
0.052123025 0.12190686 0.27415553
0.052650299 0.12179309 0.27377254
0.053200938 0.12174954 0.27346516
0.053649031 0.12170067 0.27320936
0.053906858 0.1216719 0.27305213
0.054145481 0.12166198 0.27292308
0.05436502 0.12165522 0.27283421
0.054457568 0.1216626 0.27281559
0.054550108 0.12166299 0.27283752
0.077328347 0.13389425 0.30524629
0.077963367 0.13318293 0.30697241
0.078482129 0.13291439 0.30714151
0.07919319 0.13288283 0.30641398
0.07996437 0.13287546 0.30543369
0.080563404 0.13267896 0.30519891
0.08109574 0.13251056 0.30517817
0.081730545 0.13213815 0.30559373
0.082176462 0.13192259 0.30581576
0.082626045 0.13182724 0.30573002
0.083151832 0.13175043 0.30538338
0.083596125 0.13167466 0.30518314
0.084062375 0.13159001 0.30488551
0.084488645 0.13151591 0.30470294
0.084962398 0.13142443 0.30450141
0.085477613 0.13134667 0.30420923
0.086029246 0.13126796 0.30390885
0.08656577 0.1311969 0.30362719
0.087041281 0.13112248 0.30340621
0.087532669 0.1310406 0.30316907
0.088033982 0.13096483 0.30291873
0.088445969 0.13090903 0.3027398
0.088990875 0.13083404 0.30243066
0.089552999 0.13076802 0.30196351
0.090159051 0.13068748 0.30149937
0.090693809 0.13061647 0.30116764
0.091274984 0.13052548 0.3008146
0.091740415 0.13044535 0.30056038
0.092282631 0.1303741 0.30015269
0.09281943 0.13028929 0.29983601
0.093318604 0.13019216 0.29968175
0.093775578 0.13011707 0.29953769
0.094268553 0.13000643 0.29953781
0.094718613 0.12993789 0.29929084
0.095328242 0.12985301 0.29894251
0.095876902 0.1297839 0.29846603
0.096425079 0.12970634 0.29810098
0.096969366 0.12964971 0.29766494
0.097452417 0.1295689 0.29746521
0.097887129 0.12949374 0.29733646
0.098331109 0.12941353 0.29718584
0.098738961 0.12933944 0.29703856
0.099180788 0.12927708 0.29676816
0.099654496 0.12920868 0.29651242
0.10013422 0.12914149 0.29626217
0.10064822 0.12905516 0.29612753
0.10112368 0.12898213 0.29595211
0.10171199 0.12889811 0.29568172
0.10220418 0.12881912 0.29543728
0.10272134 0.12874033 0.29511088
0.10324974 0.12866126 0.29478958
0.10376354 0.12857728 0.29458448
0.10421067 0.12850578 0.29434448
0.10476945 0.1284402 0.29398516
0.10519005 0.12840359 0.29358917
0.10571779 0.1283503 0.29325864
0.10624939 0.12829755 0.29284048
0.10677344 0.12825893 0.29244268
0.10722439 0.12822439 0.29199448
0.10775699 0.12818275 0.29152745
0.10827611 0.12812364 0.29122925
0.10878661 0.12806049 0.29101539
0.10924698 0.12799276 0.29087013
0.10979348 0.12792212 0.29063329
0.11026534 0.12787026 0.29040515
0.11078867 0.12781188 0.28999302
0.11123892 0.12776811 0.28965226
0.11171679 0.12770748 0.28935605
0.11208734 0.12766469 0.28920346
0.11258816 0.12758192 0.28917485
0.11306668 0.12750949 0.28914663
0.11361086 0.12742679 0.2891984
0.11413597 0.1273554 0.28902984
0.11459532 0.12730002 0.28886074
0.11506528 0.12724043 0.28863004
0.1155623 0.12717417 0.28834671
0.11595576 0.12712827 0.28789651
0.11632974 0.12708756 0.28741583
0.11676642 0.12703916 0.28687939
0.11721066 0.12698722 0.28653598
0.11779663 0.1269062 0.28645727
0.11825869 0.12682435 0.28649843
0.11884907 0.12672579 0.28657281
0.11950353 0.12662454 0.28655994
0.12002125 0.12655567 0.28641099
0.12057296 0.12649621 0.2860525
0.12099208 0.12645376 0.28551638
0.12134978 0.12643178 0.28488341
0.1218199 0.12637365 0.28440925
0.12228191 0.12631918 0.28417328
0.12285364 0.12624004 0.28416011
0.12327197 0.12617627 0.28416756
0.12379391 0.12610567 0.284022
0.12415697 0.12604676 0.28394964
0.12458474 0.12598519 0.28367835
0.12502858 0.12591651 0.28347722
0.12548777 0.12585504 0.283218
0.12603685 0.12578143 0.28306329
0.1264755 0.12572038 0.28283373
0.12698901 0.12565441 0.28248414
0.12749581 0.12558354 0.28224853
0.12806842 0.12550445 0.28214073
0.12856999 0.12544477 0.28208059
0.12917939 0.12537827 0.28214145
0.12991148 0.12527813 0.28236625
0.13089277 0.12516518 0.28306219
0.13206711 0.12504801 0.28424421
0.13341534 0.12495903 0.28552338
0.13416545 0.12491964 0.28576928
0.13461602 0.12487658 0.28560123
0.13499528 0.12481146 0.28498471
0.13531579 0.12476243 0.28443664
0.13563678 0.12470854 0.28372538
0.13601199 0.12467075 0.28341448
0.13655496 0.12463417 0.28341725
0.13736176 0.12461478 0.2839286
0.13796501 0.12458465 0.28404814
0.13845754 0.12455603 0.28403962
0.13892856 0.12450716 0.28372383
0.13946828 0.12447414 0.28369203
0.14003728 0.12444397 0.28378135
0.14051732 0.12440843 0.28374046
0.14098324 0.12436747 0.28362074
0.14144617 0.12431079 0.28331149
0.14176989 0.12423834 0.28277579
0.14223005 0.12416116 0.28240842
0.14281031 0.1240921 0.28227788
0.14329751 0.12402764 0.28214625
0.14392933 0.12398451 0.28237993
0.14452943 0.12393701 0.28258678
0.14512056 0.12389492 0.28275776
0.14553586 0.12384544 0.28261617
0.14593206 0.12377255 0.28219104
0.14623629 0.12370984 0.28175497
0.14669526 0.12365334 0.28160691
0.14724411 0.12360048 0.28167969
0.14775527 0.12354552 0.28162631
0.14818926 0.12347285 0.28121465
0.1484479 0.12339649 0.28064981
0.14882465 0.12332558 0.28019443
0.14937451 0.12325938 0.27997726
0.14981602 0.12320191 0.27972823
0.1503167 0.12313397 0.27942586
0.15068524 0.12305933 0.27893505
0.15106399 0.12300317 0.27866495
0.15175402 0.12295551 0.27875647
0.15230531 0.1229247 0.27890369
0.15280744 0.12287281 0.27886069
0.15340608 0.122813 0.27876917
0.15397374 0.12277137 0.27876905
0.15468597 0.12273417 0.27896902
0.15523964 0.12269203 0.27898327
0.15575786 0.12265509 0.27903154
0.15627557 0.12259734 0.27880761
0.1567966 0.12254038 0.2786234
0.15732528 0.12248176 0.27840838
0.15795603 0.12244247 0.27846366
0.15862779 0.12242813 0.27871457
0.1593371 0.1224109 0.27899092
0.15995075 0.12238137 0.27911744
0.16046517 0.12234449 0.27903923
0.16089004 0.12230706 0.27882114
0.16138454 0.12225237 0.27849692
0.16191623 0.12222063 0.27846295
0.16255096 0.12219611 0.27856898
0.16353901 0.12219913 0.27918473
0.16417237 0.12217837 0.27945295
0.16482167 0.12214657 0.27959812
0.16516449 0.12210152 0.27930087
0.16539541 0.12201934 0.27859285
0.16575804 0.12196172 0.27821782
0.16624856 0.12190691 0.27793452
0.16671026 0.12186238 0.27777085
0.16715272 0.12181231 0.27754778
0.16751884 0.12175011 0.27716604
0.16777027 0.12169741 0.2767446
0.16813828 0.12165875 0.27656013
0.16850975 0.12161732 0.27635264
0.16884466 0.12159042 0.27630708
0.16948737 0.12156673 0.27660823
0.16991787 0.12155911 0.27693927
0.1704772 0.12153589 0.27720341
0.1707658 0.12150925 0.2771883
0.17095198 0.121489 0.27707759
0.1711075 0.12145104 0.27674672
0.17130373 0.12142101 0.27659741
0.17151535 0.12138361 0.27644628
0.17180406 0.1213361 0.27631903
0.1720494 0.12130295 0.27629146
0.17233245 0.12127777 0.27634111
0.17259076 0.12124376 0.27628282
0.17302525 0.12122027 0.27651247
0.17333935 0.12119944 0.27666199
0.17373404 0.12117895 0.27687943
0.17406453 0.121161 0.27713516
0.17434002 0.12114303 0.27725008
0.027669724 0.12543754 0.28970113
0.028274413 0.12535714 0.28932786
0.028662233 0.1252991 0.28907833
0.028831579 0.12527923 0.28899518
0.028861972 0.12531304 0.28901944
0.028867915 0.12537421 0.28908899
0.029014824 0.12541021 0.28904685
0.03112342 0.12503073 0.28774512
0.032074545 0.1248472 0.28717181
0.033270299 0.12466884 0.28635246
0.03413881 0.12458875 0.28583485
0.0348619 0.12450457 0.28540996
0.03572154 0.1243923 0.28487504
0.036618587 0.12419286 0.28422487
0.037315972 0.12402572 0.28370595
0.037850298 0.12393998 0.28337458
0.038375925 0.12386565 0.28303352
0.038971707 0.12377653 0.2826432
0.039559267 0.12367669 0.28224739
0.040151451 0.12360232 0.28186095
0.040601041 0.12355052 0.28159359
0.041043878 0.12349289 0.28132764
0.041421928 0.12346069 0.28111538
0.041855399 0.12340757 0.28084615
0.042486411 0.12333538 0.28047019
0.04314572 0.12328845 0.28010845
0.043773733 0.12322178 0.27970698
0.044456273 0.12307798 0.27923065
0.04496165 0.12300175 0.27890337
0.045559682 0.12292923 0.27852732
0.046083298 0.12285603 0.27819303
0.046696078 0.12280442 0.27783868
0.047248386 0.12274218 0.27744159
0.047717884 0.1226762 0.27715105
0.048136175 0.12263095 0.27696252
0.048492983 0.12259015 0.27672249
0.048849173 0.12251629 0.27648988
0.049377944 0.12241172 0.27612895
0.049934015 0.12230282 0.27572301
0.050457101 0.12220618 0.27535227
0.050971091 0.1221108 0.27497256
0.051411767 0.12202644 0.27463806
0.051968127 0.12191609 0.27420899
0.052414864 0.1218274 0.27390528
0.052939598 0.12173087 0.27354258
0.053542741 0.12166755 0.2731882
0.053974085 0.12162837 0.27293417
0.054316401 0.12158771 0.27274743
0.05455159 0.12157125 0.27262953
0.054867867 0.12153901 0.27242169
0.055224217 0.12148152 0.27221775
0.055673528 0.12136829 0.27185366
0.056161795 0.12127853 0.27151424
0.056680419 0.12118035 0.27111194
0.057183214 0.12111181 0.27073976
0.057531308 0.12106923 0.27047554
0.057905138 0.1210293 0.27025059
0.058481749 0.12093907 0.26985168
0.059182052 0.12084159 0.26934898
0.059813395 0.12074018 0.26887774
0.060352843 0.1206661 0.26851076
0.059871908 0.12076957 0.26893821
0.080962211 0.13298929 0.30337244
0.081997432 0.13235623 0.30455616
0.082660213 0.1320049 0.30491957
0.083125837 0.1320183 0.30423948
0.083629757 0.13200001 0.30370149
0.084212169 0.13188387 0.30341542
0.08480344 0.13167958 0.30344242
0.085194416 0.1315387 0.30355063
0.085592136 0.13143496 0.30353296
0.086056046 0.13133603 0.30344221
0.086549893 0.13126418 0.30324969
0.087088972 0.13119434 0.30290103
0.087559842 0.13111748 0.30263251
0.088104405 0.13104501 0.30230415
0.088551849 0.13096571 0.30212009
0.089026146 0.13089506 0.30189627
0.089618683 0.13081107 0.3015905
0.090135537 0.13074131 0.30121881
0.090698503 0.13064921 0.30092105
0.091221511 0.13057289 0.30057111
0.091790482 0.13049193 0.30019242
0.092282236 0.13041796 0.29989326
0.092729211 0.13034382 0.29969832
0.093234479 0.13024664 0.29953757
0.093727611 0.13015038 0.29940423
0.094177641 0.13007243 0.29921529
0.094644576 0.12997463 0.29913265
0.095267311 0.12988342 0.2987752
0.095785521 0.12980588 0.29845089
0.096326783 0.12973388 0.29809636
0.096878834 0.12967248 0.29766101
0.097359985 0.1295937 0.29745486
0.097848423 0.12951189 0.29729366
0.09815646 0.1294485 0.29722211
0.098550603 0.12938273 0.29705566
0.099048093 0.12930974 0.29678428
0.099542156 0.12923971 0.29652169
0.10004129 0.12916459 0.29624876
0.10053719 0.12908104 0.29613131
0.10102984 0.12900627 0.29590836
0.10157461 0.12892838 0.29566199
0.10212667 0.12884444 0.29537246
0.10266221 0.12878364 0.29488224
0.10316569 0.12870429 0.29453817
0.10363355 0.12863649 0.2942788
0.10413568 0.12856197 0.29400104
0.10467152 0.12849846 0.29364505
0.10515767 0.1284344 0.29340485
0.10563759 0.12838866 0.29298303
0.10620157 0.12833612 0.29264072
0.10672012 0.12828992 0.29220769
0.10720568 0.12825818 0.29172251
0.10774005 0.12821276 0.29129174
0.10823982 0.12816909 0.29085535
0.10873894 0.12810397 0.29064694
0.10924725 0.12803885 0.29039121
0.10969158 0.12797797 0.29020107
0.11025902 0.12790148 0.28988969
0.11070164 0.12785248 0.28947857
0.1112147 0.12779978 0.28902161
0.11163529 0.12775064 0.28865704
0.11212657 0.12768388 0.2884481
0.11253051 0.12762968 0.28836137
0.11302868 0.12756145 0.28834453
0.11357027 0.12748204 0.28823638
0.1140011 0.12741812 0.28809738
0.11452752 0.12734434 0.2879307
0.11491533 0.1272884 0.28778657
0.11538606 0.12722735 0.28747147
0.11584086 0.12717073 0.28710356
0.11628622 0.12712134 0.28663328
0.11669085 0.12707186 0.28629228
0.11717603 0.12702145 0.28592348
0.11763521 0.12695861 0.285763
0.11815549 0.12688124 0.2855944
0.11868043 0.12680405 0.28544647
0.11917516 0.1267302 0.28534168
0.11967222 0.12665851 0.28516525
0.12018084 0.12659636 0.2848402
0.12064137 0.1265451 0.28450066
0.12117409 0.12648913 0.2840001
0.12164532 0.12642696 0.28372714
0.12217901 0.12635848 0.28352669
0.12261252 0.12629671 0.28328288
0.12300339 0.12623493 0.28320324
0.12342162 0.12617087 0.28307238
0.12386071 0.12610124 0.28291982
0.1243429 0.12602542 0.28275678
0.12477683 0.12595674 0.28241658
0.12525702 0.12588426 0.28216836
0.12566571 0.12583546 0.28195241
0.12620607 0.12576731 0.28177828
0.12669736 0.12570213 0.28159821
0.12721361 0.12563053 0.2813912
0.12767255 0.12557322 0.28122643
0.12820147 0.12551008 0.2812109
0.1287159 0.12543975 0.28119233
0.12931287 0.12536183 0.28127956
0.13012819 0.12526858 0.28178942
0.13101652 0.12516266 0.28231096
0.13180251 0.1250665 0.28283462
0.13246456 0.12498026 0.28286046
0.13284481 0.12492632 0.28240505
0.13318832 0.12490614 0.28185064
0.13355945 0.12486632 0.28136337
0.13387631 0.12485071 0.280635
0.13434769 0.12480009 0.28036973
0.13508455 0.12472093 0.2806631
0.13599221 0.124616 0.28137121
0.13695052 0.12455761 0.28221262
0.13766117 0.12452175 0.28255802
0.13823871 0.124479 0.28249395
0.13886259 0.1244503 0.28276801
0.13936237 0.12441951 0.28280661
0.14000644 0.12437735 0.28279662
0.14035834 0.12431321 0.28223497
0.14055939 0.12425706 0.28163409
0.14085594 0.12417287 0.28083077
0.14116666 0.12407917 0.28007409
0.14172709 0.12400561 0.27981964
0.14233115 0.123955 0.28002882
0.14318332 0.12391922 0.28060207
0.14388484 0.12388049 0.28098035
0.14441255 0.1238443 0.28120118
0.14485051 0.12377852 0.28092065
0.1450994 0.12370715 0.28037366
0.14546241 0.12362995 0.27991769
0.14589576 0.12358838 0.27988502
0.1464152 0.12354052 0.27991828
0.14689496 0.12348513 0.27986777
0.14726938 0.12340822 0.27939546
0.14750274 0.12331349 0.2785711
0.14795022 0.12324017 0.27823615
0.14850986 0.12316726 0.2780042
0.14894727 0.12310944 0.27784428
0.1494257 0.1230334 0.27751893
0.14992173 0.12296245 0.27725539
0.15041158 0.12291342 0.27718911
0.1510102 0.12288839 0.27746129
0.15157083 0.12285063 0.27756917
0.15211911 0.12280431 0.27759153
0.15249172 0.12274051 0.2772747
0.15295255 0.12266703 0.27697048
0.15350766 0.12260284 0.2767916
0.15414272 0.1225761 0.27696943
0.15471697 0.12253588 0.27705932
0.15534012 0.12249892 0.2771239
0.1559141 0.12245855 0.27708399
0.1565008 0.12241 0.27699474
0.15712303 0.12238667 0.27721012
0.15773018 0.12234753 0.2771937
0.15826151 0.12230791 0.27714854
0.15877339 0.12226564 0.27704039
0.15922755 0.12221823 0.27680987
0.15971918 0.12218834 0.27677128
0.16025788 0.12217004 0.27689019
0.16084279 0.1221311 0.27680296
0.16159868 0.12211611 0.27702832
0.16236936 0.12209876 0.27727506
0.16321068 0.1220867 0.27768749
0.16386797 0.12206419 0.27789357
0.16427986 0.1220052 0.27753618
0.164554 0.12193873 0.27700859
0.16487217 0.12187499 0.27650839
0.1652339 0.12181896 0.27611259
0.16567665 0.12177631 0.27597499
0.16609746 0.12173534 0.27580151
0.166577 0.12168039 0.27555576
0.16685279 0.12162794 0.2751382
0.16723199 0.12159277 0.27501184
0.16762251 0.12155982 0.27488086
0.16805871 0.12153341 0.27494311
0.16861656 0.1215195 0.27528104
0.16929202 0.12150532 0.2757898
0.16991141 0.121521 0.27644005
0.17027152 0.12150659 0.27662659
0.1704542 0.12146429 0.27630836
0.17047444 0.12141605 0.27575034
0.17058833 0.12137599 0.27540779
0.17067902 0.12134244 0.27515271
0.17089082 0.1212906 0.27491638
0.17111082 0.12126088 0.27487403
0.17143458 0.12123438 0.27494907
0.17190033 0.12121595 0.27524078
0.17237502 0.12119313 0.27549002
0.17262737 0.12117534 0.27555653
0.17280956 0.1211456 0.27545354
0.17303765 0.12112952 0.27547759
0.1732865 0.1211144 0.27560666
0.034442119 0.1245942 0.28571644
0.035522252 0.12445839 0.28503329
0.036364786 0.12429946 0.28446177
0.036451299 0.12429038 0.28441688
0.036861811 0.12420943 0.28414017
0.037819766 0.12398765 0.283454
0.038664781 0.12384119 0.28288797
0.039472423 0.12373178 0.28234598
0.040267948 0.12360692 0.28179958
0.040831245 0.12354374 0.28147218
0.041237023 0.12349346 0.28123042
0.041746691 0.12342365 0.28091642
0.042344369 0.12338636 0.28060502
0.042934563 0.12333198 0.28027007
0.043582782 0.12325328 0.27987015
0.044274148 0.12314691 0.27939022
0.044853993 0.12304573 0.27898124
0.045325845 0.12299325 0.27869463
0.046015441 0.12290343 0.27827269
0.046664581 0.1228167 0.2778632
0.047382217 0.12271758 0.27734506
0.047751829 0.12266579 0.27712911
0.048164073 0.12261857 0.27690241
0.048492983 0.12259016 0.27672252
0.048805099 0.12255087 0.27654615
0.049343925 0.12242359 0.27615058
0.049971413 0.12229847 0.27570143
0.050513864 0.12218629 0.27529499
0.051092658 0.12207139 0.27487388
0.051615331 0.12198015 0.27446204
0.052031636 0.121912 0.27415863
0.052672353 0.12178188 0.27372772
0.053083275 0.12169778 0.27342364
0.053649619 0.12161471 0.27306947
0.054231945 0.12155562 0.2727339
0.05469279 0.12148973 0.27240947
0.054930098 0.12147839 0.27229273
0.055269651 0.12142021 0.27206361
0.055645499 0.12135413 0.2718246
0.056317542 0.12123325 0.27130604
0.056970049 0.12112945 0.27082166
0.057543736 0.12103546 0.27038896
0.058071613 0.12094747 0.2699714
0.058487974 0.12089489 0.26969564
0.058979273 0.12082108 0.26935637
0.059304275 0.1207902 0.26916879
0.059712633 0.12072586 0.26889524
0.060134947 0.12068021 0.26862171
0.060406785 0.12065907 0.26846957
0.060562652 0.12064721 0.26839519
0.060515784 0.12066634 0.26844013
0.060631506 0.12067353 0.26840991
0.061075393 0.12061786 0.26814774
0.06163558 0.12052837 0.26774752
0.062297355 0.12043306 0.26725304
0.062675752 0.12037181 0.26697376
0.062477142 0.12042344 0.26717377
0.085889369 0.13187346 0.30167487
0.086238384 0.13147618 0.30266562
0.086560294 0.13129386 0.30310246
0.087260537 0.13128956 0.30228987
0.087908827 0.13125406 0.30171034
0.088483356 0.13123524 0.30113921
0.089054815 0.131116 0.3008998
0.089424558 0.13098618 0.30095115
0.089802146 0.13089059 0.30091995
0.090276696 0.13078134 0.30084825
0.090720758 0.13071054 0.30058929
0.091259897 0.13062385 0.30029058
0.09181051 0.13054997 0.29985547
0.092275485 0.1304881 0.29953122
0.092767097 0.13040945 0.29929817
0.093212962 0.13031551 0.29923397
0.093650423 0.13022254 0.29915622
0.094166897 0.13012134 0.29901299
0.09464699 0.13002469 0.29883027
0.095135219 0.12994392 0.29855129
0.095650822 0.12986508 0.29826912
0.096188933 0.12978441 0.29795158
0.09681318 0.12969998 0.29759023
0.097269334 0.12962638 0.29737321
0.097707927 0.12954752 0.29726386
0.09811651 0.12946671 0.29715297
0.098636478 0.12939398 0.29686534
0.099018723 0.12934071 0.29659668
0.099482045 0.12927307 0.2962926
0.10000373 0.12919334 0.29595155
0.10047019 0.12911737 0.295793
0.100978 0.12903796 0.29562074
0.1014722 0.12896165 0.29543903
0.10196792 0.12889539 0.29513627
0.10244863 0.12883873 0.29471037
0.10304771 0.12875588 0.29427037
0.10356473 0.1286774 0.29397646
0.10406078 0.12859872 0.2937519
0.10459493 0.12853102 0.29347551
0.10509188 0.12846602 0.29313841
0.10556308 0.12843013 0.29273793
0.10608772 0.12838173 0.29242003
0.1065954 0.12833957 0.29201546
0.10716338 0.12828529 0.29155338
0.10767281 0.12825388 0.2909857
0.10812402 0.12822172 0.2905685
0.10868423 0.12815265 0.29033947
0.10914356 0.12808785 0.29009399
0.10967591 0.12801774 0.28980789
0.11016515 0.12795448 0.28953218
0.11069096 0.12788111 0.28922847
0.11112297 0.12783435 0.28879172
0.1116175 0.1277729 0.28846696
0.11204507 0.12772965 0.2881276
0.11249444 0.12766862 0.28790909
0.11296709 0.12759666 0.28776863
0.11348158 0.12752363 0.28761137
0.11389877 0.12745911 0.28752774
0.11440363 0.1273859 0.28734669
0.11484864 0.12731434 0.28722575
0.11528978 0.12725681 0.28693476
0.11572869 0.12720881 0.28653157
0.11612139 0.12716199 0.28613579
0.11660201 0.12710764 0.28590178
0.11707719 0.12704363 0.28560528
0.11758265 0.12697068 0.28537115
0.11801077 0.12692399 0.2850951
0.11847004 0.12686029 0.28491673
0.1190109 0.12679762 0.28460774
0.11946689 0.12673469 0.2843678
0.12000099 0.12666734 0.28396431
0.12048133 0.12660407 0.28365034
0.1209923 0.12653472 0.28334835
0.12144297 0.12647037 0.28300446
0.12186442 0.12640767 0.28280789
0.12234148 0.12634298 0.28254691
0.12278003 0.12627268 0.28236625
0.12327293 0.12619653 0.28223619
0.12369746 0.12612818 0.28215775
0.12420259 0.12605055 0.28193539
0.12457156 0.12599592 0.28162083
0.1249572 0.12594537 0.28122097
0.1254206 0.12588471 0.28093508
0.12592129 0.1258226 0.28076607
0.12636639 0.12575488 0.28069651
0.12675671 0.1257015 0.28054771
0.12736577 0.12562692 0.28040653
0.12785128 0.12557136 0.2802031
0.12831922 0.12551625 0.28008446
0.1288621 0.12544763 0.2801961
0.1295341 0.12535273 0.28064165
0.13012977 0.12527236 0.28069907
0.13086572 0.12519659 0.28080493
0.13139291 0.12514497 0.28050518
0.13175452 0.12511963 0.27998084
0.13216889 0.12509896 0.27944458
0.13252781 0.12506826 0.27915451
0.13289821 0.12503572 0.27883554
0.13353752 0.12496019 0.27881086
0.13411148 0.12488018 0.27893734
0.13479453 0.12479703 0.27929974
0.13558237 0.12468949 0.27971479
0.13640369 0.1246055 0.28011155
0.13700445 0.12454914 0.28022835
0.13772967 0.12446903 0.28049493
0.13846323 0.12440039 0.28093645
0.13914572 0.12433822 0.28108901
0.1394814 0.12429672 0.28059939
0.13947745 0.1242665 0.27948603
0.13966063 0.12420511 0.27830032
0.13985795 0.12415493 0.27728015
0.1404096 0.12408313 0.27718452
0.14116591 0.12398607 0.27770871
0.14224547 0.12389058 0.27884153
0.14318946 0.12384426 0.27967432
0.14375851 0.12377955 0.27965444
0.14398906 0.12371852 0.27912948
0.14412756 0.12364337 0.27835244
0.14449728 0.12358495 0.27803135
0.14516206 0.12353414 0.27831325
0.14576197 0.12348132 0.27845415
0.14618194 0.12341767 0.27819657
0.14647895 0.12333502 0.27753121
0.14666127 0.12326492 0.27684054
0.14712763 0.12317068 0.27631652
0.14767984 0.12310258 0.2762495
0.1481176 0.12304461 0.27616984
0.14860901 0.12297881 0.27600408
0.14898412 0.12290496 0.27555579
0.14947847 0.12284657 0.27551088
0.15024559 0.12280677 0.27594051
0.1508701 0.12276913 0.27615896
0.15140283 0.12271161 0.27608675
0.15172082 0.12265803 0.27584291
0.15211825 0.12257559 0.27537271
0.15263443 0.12252382 0.27530295
0.15318932 0.12248241 0.27529922
0.15374984 0.12243556 0.27524641
0.15438467 0.12239122 0.27531311
0.15503584 0.12235092 0.27538043
0.15554358 0.12232495 0.2754091
0.15617624 0.12228035 0.27540022
0.15664779 0.12224015 0.2753132
0.1571316 0.12220383 0.27522516
0.1576217 0.12215932 0.27507046
0.15821116 0.12211698 0.27502778
0.15868336 0.12209015 0.27500102
0.15927249 0.12205847 0.27500653
0.15977326 0.12203036 0.27497607
0.16027857 0.12199401 0.27483878
0.16104297 0.12197509 0.2750093
0.16182889 0.12195801 0.27525923
0.16256982 0.12192929 0.27540556
0.16318962 0.12189183 0.27539018
0.16357441 0.12184399 0.27516916
0.16385248 0.12179992 0.27482933
0.16430958 0.12173615 0.27441657
0.16476889 0.12170201 0.27432209
