# .PCD v0.7 - Point Cloud Data file format
VERSION 0.7
FIELDS x y z
SIZE 4 4 4
TYPE F F F
COUNT 1 1 1
WIDTH 1448
HEIGHT 1
VIEWPOINT 0 0 0 1 0 0 0
POINTS 1448
DATA ascii
0.15881218 0.12207667 0.27542552
0.15943569 0.12212382 0.27553192
0.15993609 0.12207667 0.27542552
0.16043605 0.12202953 0.27531916
0.16105999 0.12207667 0.27542552
0.16174681 0.12217098 0.27563831
0.16243447 0.12226529 0.27585107
0.16293444 0.12221812 0.27574468
0.1633078 0.12207667 0.27542552
0.16367987 0.12193521 0.27510637
0.16405065 0.12179377 0.27478725
0.16454758 0.12174661 0.27468085
0.16498011 0.12165231 0.27446809
0.16547595 0.12160515 0.2743617
0.16590698 0.12151085 0.27414894
0.16633715 0.12141655 0.27393618
0.16676642 0.12132224 0.27372339
0.16725987 0.12127509 0.27361703
0.16794863 0.12136939 0.27382979
0.16876918 0.121558 0.27425531
0.1695258 0.12169945 0.27457446
0.17021783 0.12179377 0.27478725
0.17071235 0.12174661 0.27468085
0.17100745 0.121558 0.27425531
0.17123426 0.12132224 0.27372339
0.17145891 0.12108648 0.27319148
0.17168139 0.12085072 0.27265957
0.1721033 0.12075642 0.27244681
0.1727266 0.12080357 0.27255321
0.17348558 0.12094502 0.27287233
0.17417805 0.12103933 0.27308512
0.17459907 0.12094502 0.27287233
0.17488268 0.12075642 0.27244681
0.17509604 0.12052066 0.2719149
0.17551339 0.12042636 0.27170214
0.040072918 0.12747028 0.28627661
0.040264189 0.12623867 0.28351063
0.040536128 0.1252913 0.28138298
0.041110236 0.1252913 0.28138298
0.041684348 0.1252913 0.28138298
0.042242479 0.12524392 0.28127658
0.042751595 0.12505445 0.28085107
0.043242566 0.12481761 0.28031915
0.043714736 0.12453339 0.27968085
0.044184301 0.12424918 0.27904254
0.044651266 0.12396497 0.27840427
0.045115624 0.12368075 0.27776596
0.045559883 0.12334917 0.27702129
0.046018813 0.12306495 0.27638298
0.046510994 0.12287547 0.27595744
0.047055893 0.1228281 0.27585107
0.047637075 0.12287547 0.27595744
0.048218697 0.12292284 0.27606383
0.048744358 0.1228281 0.27585107
0.049212106 0.12259126 0.27531916
0.049658444 0.12230705 0.27468085
0.050102178 0.12202282 0.27404255
0.050602313 0.12188072 0.27372339
0.051101141 0.12173861 0.27340424
0.05157857 0.12154914 0.27297872
0.052013624 0.12126492 0.27234042
0.052425541 0.12093334 0.27159575
0.052875921 0.12069649 0.27106383
0.053408008 0.12064912 0.27095744
0.053960845 0.12064912 0.27095744
0.054513682 0.12064912 0.27095744
0.055023283 0.12055439 0.27074468
0.055488341 0.12036492 0.27031916
0.055929597 0.12012806 0.26978722
0.056390967 0.11993859 0.2693617
0.05685059 0.11974911 0.26893616
0.057331193 0.11960701 0.26861703
0.057810489 0.1194649 0.26829788
0.058311615 0.11937016 0.26808509
0.058835242 0.11932279 0.26797873
0.059358425 0.11927541 0.26787233
0.05995255 0.11937016 0.26808509
0.060571548 0.11951226 0.26840425
0.061191853 0.11965437 0.2687234
0.061740134 0.11965437 0.2687234
0.06218978 0.1194649 0.26829788
0.062587932 0.11918068 0.26765957
0.063033678 0.11899121 0.26723406
0.063578919 0.11899121 0.26723406
0.064226262 0.11918068 0.26765957
0.064978324 0.11955964 0.26851064
0.0657079 0.11989121 0.26925531
0.066283442 0.11993859 0.2693617
0.066621862 0.11955964 0.26851064
0.06687697 0.11903857 0.26734042
0.067449257 0.11908595 0.26744682
0.068427682 0.11984386 0.26914895
0.086786717 0.13097559 0.29414892
0.088018969 0.13192298 0.2962766
0.0888144 0.13220719 0.29691491
0.088971652 0.13154402 0.29542553
0.0892196 0.13102296 0.29425532
0.089690089 0.13083349 0.2938298
0.090354972 0.13092822 0.29404256
0.091218166 0.13130717 0.29489362
0.092084832 0.13168614 0.29574469
0.092821606 0.1318756 0.2961702
0.093459442 0.13192298 0.2962766
0.093996391 0.13182823 0.29606384
0.094566457 0.13178086 0.29595745
0.095101885 0.13168614 0.29574469
0.095602021 0.13154402 0.29542553
0.096135497 0.13144928 0.29521278
0.096737824 0.13144928 0.29521278
0.09726999 0.13135454 0.29499999
0.097766005 0.13121244 0.29468086
0.098189674 0.13097559 0.29414892
0.098646924 0.13078612 0.2937234
0.099210262 0.13073874 0.29361701
0.099845499 0.13078612 0.2937234
0.10048117 0.13083349 0.2938298
0.10108067 0.13083349 0.2938298
0.10153291 0.13064401 0.29340425
0.1019464 0.13040715 0.29287234
0.10239496 0.13021769 0.29244682
0.10287925 0.13007557 0.29212767
0.10339991 0.12998083 0.29191488
0.10391971 0.12988609 0.29170212
0.10443864 0.12979136 0.29148936
0.10491837 0.12964925 0.29117021
0.10535825 0.12945978 0.29074469
0.10579639 0.1292703 0.29031914
0.10619381 0.12903346 0.28978723
0.10658906 0.12879661 0.28925532
0.10702155 0.12860712 0.28882977
0.10753158 0.1285124 0.28861701
0.1080806 0.12846503 0.28851065
0.10862918 0.12841766 0.28840426
0.10913705 0.12832293 0.2881915
0.10964403 0.12822817 0.28797871
0.11006872 0.1280387 0.28755319
0.1105326 0.12789659 0.28723404
0.11095404 0.12770712 0.28680852
0.11145646 0.12761238 0.28659573
0.11195803 0.12751764 0.28638297
0.11250054 0.12747028 0.28627661
0.11312665 0.12751764 0.28638297
0.11375321 0.12756501 0.28648937
0.11433773 0.12756501 0.28648937
0.11483692 0.12747028 0.28627661
0.11524944 0.1272808 0.28585106
0.11566024 0.12709133 0.28542554
0.11615594 0.12699658 0.28521276
0.11669432 0.12694922 0.28510639
0.11714475 0.12680711 0.28478724
0.11763785 0.12671238 0.28457448
0.11808589 0.12657027 0.28425533
0.11848821 0.12638079 0.28382978
0.11893342 0.12623867 0.28351063
0.11937735 0.12609658 0.2831915
0.11986502 0.12600183 0.28297871
0.12035183 0.12590709 0.28276595
0.12079227 0.12576498 0.2824468
0.12123141 0.12562287 0.28212765
0.12162332 0.1254334 0.28170213
0.12205964 0.1252913 0.28138298
0.12263375 0.1252913 0.28138298
0.12320785 0.1252913 0.28138298
0.12373516 0.12524392 0.28127658
0.12416802 0.12510182 0.28095746
0.12459956 0.12495971 0.28063831
0.1250298 0.12481761 0.28031915
0.12560174 0.12481761 0.28031915
0.12622155 0.12486497 0.28042552
0.12679371 0.12486497 0.28042552
0.12731755 0.12481761 0.28031915
0.12779242 0.12472288 0.2801064
0.12826641 0.12462813 0.27989361
0.12888646 0.1246755 0.28
0.12960531 0.12481761 0.28031915
0.13032545 0.12495971 0.28063831
0.13089804 0.12495971 0.28063831
0.13127127 0.12477023 0.28021276
0.13154267 0.12448601 0.27957445
0.13186173 0.12424918 0.27904254
0.13227962 0.12410708 0.27872342
0.13284831 0.12410708 0.27872342
0.13341698 0.12410708 0.27872342
0.13403679 0.12415443 0.27882978
0.13475977 0.12429655 0.27914894
0.13548404 0.12443866 0.27946809
0.13615783 0.12453339 0.27968085
0.13678047 0.12458076 0.27978724
0.13745578 0.1246755 0.28
0.13813195 0.12477023 0.28021276
0.13870366 0.12477023 0.28021276
0.13901101 0.12453339 0.27968085
0.13921 0.12420181 0.27893618
0.13940594 0.12387022 0.27819148
0.1397059 0.12363338 0.27765957
0.14027241 0.12363338 0.27765957
0.14100081 0.12377548 0.27797872
0.14183886 0.12401233 0.27851063
0.14262469 0.12420181 0.27893618
0.1431392 0.12415443 0.27882978
0.14343394 0.12391759 0.27829787
0.14372653 0.12368075 0.27776596
0.14412747 0.12353864 0.27744681
0.14474903 0.12358601 0.2775532
0.14531533 0.12358601 0.2775532
0.14571388 0.1234439 0.27723405
0.14599887 0.12320706 0.27670214
0.14628167 0.12297022 0.27617022
0.146732 0.12287547 0.27595744
0.14729504 0.12287547 0.27595744
0.14774409 0.12278073 0.27574468
0.14813505 0.12263862 0.27542552
0.14858213 0.12254389 0.27521276
0.14914365 0.12254389 0.27521276
0.14982091 0.12263862 0.27542552
0.15049905 0.12273337 0.27563831
0.15100312 0.122686 0.27553192
0.1513312 0.12249652 0.27510637
0.15165757 0.12230705 0.27468085
0.15215905 0.12225967 0.27457446
0.15271926 0.12225967 0.27457446
0.15327948 0.12225967 0.27457446
0.1537801 0.12221231 0.27446809
0.15428028 0.12216493 0.2743617
0.15478002 0.12211756 0.27425531
0.15533958 0.12211756 0.27425531
0.15589915 0.12211756 0.27425531
0.15645872 0.12211756 0.27425531
0.15689647 0.12202282 0.27404255
0.15745561 0.12202282 0.27404255
0.15795341 0.12197547 0.27393618
0.15851232 0.12197547 0.27393618
0.15894768 0.12188072 0.27372339
0.15932018 0.12173861 0.27340424
0.159878 0.12173861 0.27340424
0.16049828 0.12178598 0.27351063
0.1611816 0.12188072 0.27372339
0.16174008 0.12188072 0.27372339
0.1622355 0.12183335 0.27361703
0.16273046 0.12178598 0.27351063
0.16316149 0.12169125 0.27329788
0.16359165 0.12159651 0.27308512
0.16408488 0.12154914 0.27297872
0.16470601 0.12159651 0.27308512
0.1651988 0.12154914 0.27297872
0.16562657 0.1214544 0.27276596
0.16592383 0.12126492 0.27234042
0.1662844 0.12112281 0.27202126
0.16690466 0.12117019 0.27212766
0.16765629 0.12131229 0.27244681
0.16840921 0.1214544 0.27276596
0.16909753 0.12154914 0.27297872
0.16965449 0.12154914 0.27297872
0.17014511 0.12150177 0.27287233
0.17043567 0.12131229 0.27244681
0.17065771 0.12107545 0.2719149
0.17087758 0.1208386 0.27138299
0.17122968 0.12069649 0.27106383
0.17185014 0.12074386 0.2711702
0.17267397 0.12093334 0.27159575
0.1733638 0.12102807 0.27180851
0.17378224 0.12093334 0.27159575
0.17399496 0.12069649 0.27106383
0.17406848 0.12036492 0.27031916
0.17441386 0.12022281 0.27000001
0.034883652 0.14266331 0.31893617
0.035427708 0.14223504 0.31797871
0.035967857 0.14180677 0.31702128
0.042466152 0.12648402 0.28276595
0.043124054 0.12672195 0.28329787
0.043734889 0.12681712 0.28351063
0.04424683 0.12662679 0.28308511
0.044706501 0.12629369 0.28234044
0.045129001 0.1258654 0.28138298
0.045530323 0.12538955 0.28031915
0.045909803 0.1248661 0.27914894
0.046302222 0.12439024 0.27808511
0.04672616 0.12400955 0.27723405
0.047201071 0.12377162 0.27670214
0.047747262 0.12372403 0.27659574
0.048293021 0.12367643 0.27648935
0.048819549 0.12358127 0.27627659
0.049288165 0.12334334 0.27574468
0.049773842 0.123153 0.27531916
0.050277229 0.12301024 0.27500001
0.050779313 0.12286748 0.27468085
0.051260211 0.12267713 0.27425531
0.051699176 0.12239162 0.27361703
0.052094899 0.12201093 0.27276596
0.05250768 0.12167782 0.27202126
0.052958928 0.12143989 0.27148935
0.053470913 0.12134472 0.27127659
0.054024402 0.12134472 0.27127659
0.054535087 0.12124955 0.27106383
0.055023283 0.12110679 0.27074468
0.055466499 0.12086886 0.27021277
0.055907547 0.12063093 0.26968086
0.056346424 0.120393 0.26914895
0.056805614 0.12020265 0.2687234
0.057263076 0.12001231 0.26829788
0.05774172 0.11986955 0.26797873
0.058242202 0.11977438 0.26776597
0.058765169 0.11972679 0.26765957
0.059287705 0.1196792 0.26755318
0.059833594 0.1196792 0.26755318
0.060379487 0.1196792 0.26755318
0.060925379 0.1196792 0.26755318
0.061446834 0.11963162 0.26744682
0.061918531 0.11948887 0.26712766
0.062339175 0.11925093 0.26659575
0.062782742 0.11906058 0.2661702
0.063275188 0.11896541 0.26595744
0.063843355 0.119013 0.26606384
0.064411953 0.11906058 0.2661702
0.064980984 0.11910817 0.2662766
0.065524273 0.11910817 0.2662766
0.066014774 0.119013 0.26606384
0.066477783 0.11887024 0.26574469
0.066939496 0.11872748 0.26542553
0.067454003 0.11867989 0.26531914
0.068104394 0.11887024 0.26574469
0.068756513 0.11906058 0.2661702
0.069327287 0.11910817 0.2662766
0.069647253 0.11872748 0.26542553
0.069851227 0.11815646 0.26414895
0.070446871 0.11825162 0.26436171
0.071529001 0.11915576 0.26638299
0.09089236 0.13057643 0.29191488
0.091854714 0.13109988 0.2930851
0.09251982 0.13119507 0.29329789
0.093016915 0.1310523 0.29297873
0.093648665 0.13109988 0.2930851
0.094246648 0.13109988 0.2930851
0.094810218 0.1310523 0.29297873
0.09537334 0.13100471 0.29287234
0.095970891 0.13100471 0.29287234
0.096463203 0.13086195 0.29255319
0.096848339 0.13057643 0.29191488
0.097266376 0.1303385 0.29138297
0.097753704 0.13019574 0.29106382
0.098419458 0.13029093 0.2912766
0.099158399 0.13048126 0.29170212
0.099899091 0.13067162 0.29212767
0.10060491 0.13081437 0.29244682
0.10116478 0.13076678 0.29234043
0.10157609 0.13052885 0.29180852
0.10198523 0.13029093 0.2912766
0.10246713 0.13014816 0.29095745
0.10302309 0.13010058 0.29085106
0.10357862 0.130053 0.29074469
0.10409559 0.12995781 0.2905319
0.10453504 0.12976748 0.29010639
0.10497274 0.12957712 0.28968084
0.10536994 0.12933919 0.28914893
0.10584294 0.12919644 0.28882977
0.10631465 0.12905368 0.28851065
0.10682446 0.12895851 0.28829786
0.10737304 0.12891093 0.2881915
0.10792119 0.12886333 0.2880851
0.10850897 0.12886333 0.2880851
0.10901619 0.12876816 0.28787234
0.10952253 0.128673 0.28765959
0.110028 0.12857781 0.2874468
0.11045073 0.12838748 0.28702128
0.11091287 0.12824471 0.28670213
0.11133236 0.12805438 0.28627661
0.11175009 0.12786402 0.28585106
0.1122497 0.12776886 0.2856383
0.11291654 0.12786402 0.28585106
0.11358424 0.12795919 0.28606382
0.1141679 0.12795919 0.28606382
0.11466622 0.12786402 0.28585106
0.11507788 0.12767369 0.28542554
0.11553091 0.12753093 0.28510639
0.11602595 0.12743574 0.2848936
0.11652014 0.12734057 0.28468084
0.1169697 0.12719782 0.28436169
0.11746193 0.12710264 0.28414893
0.11790911 0.12695989 0.28382978
0.11831057 0.12676954 0.28340426
0.11871029 0.1265792 0.28297871
0.11915311 0.12643643 0.28265956
0.11959466 0.12629369 0.28234044
0.12008015 0.1261985 0.28212765
0.12056479 0.12610334 0.28191489
0.12100284 0.12596057 0.28159574
0.12139367 0.12577024 0.28117022
0.12178275 0.12557988 0.28074467
0.12226283 0.12548472 0.28053191
0.12278862 0.12543713 0.28042552
0.12336078 0.12543713 0.28042552
0.1237919 0.12529437 0.2801064
0.12417446 0.12510403 0.27968085
0.1246502 0.12500885 0.27946809
0.1252204 0.12500885 0.27946809
0.12583847 0.12505643 0.27957445
0.1264089 0.12505643 0.27957445
0.12688269 0.12496126 0.2793617
0.12730706 0.1248185 0.27904254
0.1277789 0.12472334 0.27882978
0.12829883 0.12467576 0.27872342
0.12896588 0.12477092 0.27893618
0.12963381 0.1248661 0.27914894
0.13015373 0.1248185 0.27904254
0.13052373 0.12462816 0.27861702
0.13079186 0.12434265 0.27797872
0.13110767 0.12410472 0.27744681
0.13157277 0.12400955 0.27723405
0.13213842 0.12400955 0.27723405
0.1328059 0.12410472 0.27744681
0.13342313 0.12415231 0.2775532
0.13404077 0.12419989 0.27765957
0.13460729 0.12419989 0.27765957
0.13522559 0.12424748 0.27776596
0.13589634 0.12434265 0.27797872
0.13667241 0.124533 0.27840427
0.13739777 0.12467576 0.27872342
0.13791378 0.12462816 0.27861702
0.13821787 0.12439024 0.27808511
0.13846669 0.12410472 0.27744681
0.13876621 0.12386679 0.27691489
0.13927768 0.12381919 0.2768085
0.1398962 0.12386679 0.27691489
0.14062308 0.12400955 0.27723405
0.14129707 0.12410472 0.27744681
0.14197195 0.12419989 0.27765957
0.14242923 0.12410472 0.27744681
0.14272116 0.12386679 0.27691489
0.14306596 0.12367643 0.27648935
0.14351957 0.12358127 0.27627659
0.14408326 0.12358127 0.27627659
0.14464694 0.12358127 0.27627659
0.1450429 0.12343851 0.27595744
0.14532527 0.12320058 0.27542552
0.14566185 0.12301024 0.27500001
0.1461098 0.12291507 0.27478725
0.14667045 0.12291507 0.27478725
0.14717409 0.12286748 0.27468085
0.1476201 0.12277231 0.27446809
0.14812265 0.12272472 0.2743617
0.14868245 0.12272472 0.2743617
0.1493001 0.12277231 0.27446809
0.14991818 0.12281989 0.27457446
0.15030348 0.12267713 0.27425531
0.15057045 0.1224392 0.27372339
0.150894 0.12224886 0.27329788
0.15139265 0.12220127 0.27319148
0.15195005 0.12220127 0.27319148
0.15256684 0.12224886 0.27329788
0.15306485 0.12220127 0.27319148
0.1535026 0.1221061 0.27297872
0.15393949 0.12201093 0.27276596
0.15449601 0.12201093 0.27276596
0.15511301 0.12205851 0.27287233
0.15566975 0.12205851 0.27287233
0.1561656 0.12201093 0.27276596
0.15666099 0.12196334 0.27265957
0.15715598 0.12191576 0.27255321
0.15758894 0.12182058 0.27234042
0.15795927 0.12167782 0.27202126
0.15832832 0.12153507 0.27170214
0.15882047 0.12148748 0.27159575
0.15943703 0.12153507 0.27170214
0.16011667 0.12163024 0.2719149
0.16073431 0.12167782 0.27202126
0.16128932 0.12167782 0.27202126
0.16178104 0.12163024 0.2719149
0.16227232 0.12158265 0.27180851
0.16269945 0.12148748 0.27159575
0.16325358 0.12148748 0.27159575
0.16393605 0.12158265 0.27180851
0.164555 0.12163024 0.2719149
0.16498061 0.12153507 0.27170214
0.16514607 0.12124955 0.27106383
0.16543899 0.1210592 0.27063829
0.16586068 0.12096403 0.27042553
0.16654336 0.1210592 0.27063829
0.16722693 0.12115438 0.27085108
0.16791135 0.12124955 0.27106383
0.16859663 0.12134472 0.27127659
0.16921645 0.12139231 0.27138299
0.16963705 0.12129713 0.2711702
0.16985649 0.1210592 0.27063829
0.17007375 0.12082127 0.27010638
0.17049046 0.1207261 0.26989362
0.17110854 0.12077369 0.27000001
0.17186235 0.12091645 0.27031916
0.17254958 0.12101162 0.27053192
0.17296541 0.12091645 0.27031916
0.1731755 0.12067851 0.26978722
0.17338343 0.12044058 0.26925531
0.17372663 0.12029782 0.26893616
0.041170049 0.1425492 0.31723404
0.047425438 0.12643951 0.28138298
0.047781784 0.12586588 0.2801064
0.048224736 0.12553126 0.2793617
0.048720397 0.12534004 0.27893618
0.049195521 0.12510103 0.27840427
0.049668476 0.12486202 0.27787235
0.050139256 0.12462299 0.27734041
0.050607868 0.12438397 0.2768085
0.051093981 0.12419277 0.27638298
0.051538583 0.12390594 0.27574468
0.051940385 0.12352352 0.27489361
0.052318394 0.12309329 0.27393618
0.052713033 0.12271087 0.27308512
0.053187199 0.12251965 0.27265957
0.053680602 0.12237624 0.27234042
0.054193892 0.12228063 0.27212766
0.054684907 0.12213723 0.27180851
0.05513138 0.12189821 0.27127659
0.055575684 0.1216592 0.27074468
0.056017816 0.12142018 0.27021277
0.05645778 0.12118117 0.26968086
0.056895573 0.12094215 0.26914895
0.057331193 0.12070314 0.26861703
0.057764638 0.12046411 0.26808509
0.058242202 0.12032071 0.26776597
0.058765169 0.1202729 0.26765957
0.059287705 0.12022509 0.26755318
0.059786014 0.12012949 0.26734042
0.060307469 0.12008169 0.26723406
0.060804255 0.11998608 0.26702127
0.061275735 0.11984266 0.26670212
0.061696596 0.11960365 0.2661702
0.062115289 0.11936463 0.26563829
0.062556908 0.11917343 0.26521277
0.063072711 0.11912562 0.26510638
0.063613608 0.11912562 0.26510638
0.064154513 0.11912562 0.26510638
0.064669445 0.11907782 0.26499999
0.065183952 0.11903002 0.26489362
0.06567163 0.11893442 0.26468086
0.066158436 0.1188388 0.26446807
0.066617548 0.1186954 0.26414895
0.067075357 0.11855199 0.2638298
0.067531854 0.11840858 0.26351064
0.068042018 0.11836077 0.26340425
0.068579443 0.11836077 0.26340425
0.069061041 0.11826517 0.26319149
0.069485508 0.11807395 0.26276594
0.069936588 0.11793055 0.26244682
0.070529193 0.11802615 0.26265958
0.071237803 0.11831298 0.26329789
0.07197801 0.11864759 0.26404256
0.072604388 0.11879101 0.26436171
0.073055468 0.11864759 0.26404256
0.073297687 0.11816956 0.26297873
0.073475823 0.11759592 0.26170212
0.073678836 0.11707008 0.2605319
0.074725546 0.11788274 0.26234043
0.075901709 0.1188866 0.26457447
0.09851665 0.12945111 0.2880851
0.09943381 0.12988135 0.28904256
0.10006036 0.12992914 0.28914893
0.10046516 0.12969013 0.28861701
0.10090504 0.12949893 0.2881915
0.1015305 0.12954672 0.28829786
0.1023825 0.12988135 0.28904256
0.10312383 0.13007256 0.28946808
0.10367632 0.13002476 0.28936172
0.10399837 0.12969013 0.28861701
0.10424029 0.12925991 0.28765959
0.1045946 0.12897308 0.28702128
0.10514122 0.12892528 0.28691489
0.10576583 0.12897308 0.28702128
0.10643027 0.12906869 0.28723404
0.10701632 0.12906869 0.28723404
0.10764223 0.12911651 0.28734043
0.10822849 0.12911651 0.28734043
0.10881475 0.12911651 0.28734043
0.10936051 0.12906869 0.28723404
0.10986511 0.12897308 0.28702128
0.11032791 0.12882967 0.28670213
0.11074826 0.12863848 0.28627661
0.11116686 0.12844725 0.28585106
0.11158373 0.12825604 0.28542554
0.11208247 0.12816043 0.28521276
0.11270642 0.12820823 0.28531915
0.11337304 0.12830384 0.28553191
0.11391316 0.12825604 0.28542554
0.1143675 0.12811263 0.28510639
0.11482053 0.12796922 0.28478724
0.11531537 0.12787361 0.28457448
0.11580933 0.12777799 0.28436169
0.11630243 0.1276824 0.28414893
0.11679467 0.1275868 0.28393617
0.11724205 0.12744339 0.28361702
0.11773234 0.12734778 0.28340426
0.11817734 0.12720437 0.28308511
0.11862104 0.12706095 0.28276595
0.11901859 0.12686975 0.28234044
0.11945947 0.12672634 0.28202128
0.1199896 0.12667853 0.28191489
0.1204738 0.12658292 0.28170213
0.12095714 0.12648733 0.28148937
0.12134773 0.1262961 0.28106382
0.12169046 0.12605709 0.28053191
0.12212373 0.12591368 0.28021276
0.1226023 0.12581807 0.28
0.12312678 0.12577027 0.27989361
0.1235568 0.12562685 0.27957445
0.12398554 0.12548345 0.27925533
0.12446039 0.12538783 0.27904254
0.12502973 0.12538783 0.27904254
0.12564695 0.12543565 0.27914894
0.1261684 0.12538783 0.27904254
0.12659279 0.12524444 0.27872342
0.12701586 0.12510103 0.27840427
0.12743764 0.12495762 0.27808511
0.12795605 0.12490981 0.27797872
0.1285724 0.12495762 0.27808511
0.12909037 0.12490981 0.27797872
0.12960793 0.12486202 0.27787235
0.12992567 0.12462299 0.27734041
0.13029133 0.12443178 0.27691489
0.13060495 0.12419277 0.27638298
0.13106789 0.12409716 0.27617022
0.13168207 0.12414496 0.27627659
0.13229668 0.12419277 0.27638298
0.13291173 0.12424056 0.27648935
0.13342449 0.12419277 0.27638298
0.13393682 0.12414496 0.27627659
0.13444874 0.12409716 0.27617022
0.13511622 0.12419277 0.27638298
0.13594125 0.12443178 0.27691489
0.13666357 0.12457519 0.27723405
0.1371239 0.12447959 0.27702129
0.13742472 0.12424056 0.27648935
0.13772339 0.12400155 0.27595744
0.13817981 0.12390594 0.27574468
0.13884945 0.12400155 0.27595744
0.13952 0.12409716 0.27617022
0.14013742 0.12414496 0.27627659
0.1407553 0.12419277 0.27638298
0.14121042 0.12409716 0.27617022
0.14155543 0.12390594 0.27574468
0.14189872 0.12371474 0.27531916
0.14229533 0.12357132 0.27500001
0.14274588 0.12347572 0.27478725
0.14330654 0.12347572 0.27478725
0.14386719 0.12347572 0.27478725
0.144316 0.1233801 0.27457446
0.1446517 0.1231889 0.27414894
0.145042 0.12304549 0.27382979
0.145431 0.12290207 0.27351063
0.14587548 0.12280647 0.27329788
0.1464331 0.12280647 0.27329788
0.14704792 0.12285427 0.27340424
0.14772062 0.12294988 0.27361703
0.14833653 0.12299768 0.27372339
0.14883715 0.12294988 0.27361703
0.14927924 0.12285427 0.27340424
0.14960386 0.12266306 0.27297872
0.14986823 0.12242404 0.27244681
0.15018915 0.12223282 0.27202126
0.15068522 0.12218503 0.2719149
0.15129916 0.12223282 0.27202126
0.15191357 0.12228063 0.27212766
0.15240918 0.12223282 0.27202126
0.15284456 0.12213723 0.27180851
0.15327905 0.12204162 0.27159575
0.1538332 0.12204162 0.27159575
0.15438734 0.12204162 0.27159575
0.15494148 0.12204162 0.27159575
0.15537381 0.12194601 0.27138299
0.15580526 0.1218504 0.2711702
0.15623584 0.1217548 0.27095744
0.15666558 0.1216592 0.27074468
0.15709443 0.12156359 0.27053192
0.15746042 0.12142018 0.27021277
0.15794952 0.12137237 0.27010638
0.15856306 0.12142018 0.27021277
0.15923966 0.12151578 0.27042553
0.15991713 0.12161139 0.27063829
0.1605324 0.1216592 0.27074468
0.1610215 0.12161139 0.27063829
0.16144668 0.12151578 0.27042553
0.16187097 0.12142018 0.27021277
0.16242228 0.12142018 0.27021277
0.16316609 0.12156359 0.27053192
0.16378243 0.12161139 0.27063829
0.16420543 0.12151578 0.27042553
0.16443312 0.12127677 0.26989362
0.16459359 0.12098994 0.26925531
0.16501246 0.12089434 0.26904255
0.16562687 0.12094215 0.26914895
0.16624169 0.12098994 0.26925531
0.16692287 0.12108556 0.2694681
0.16760489 0.12118117 0.26968086
0.16822144 0.12122896 0.26978722
0.16870536 0.12118117 0.26968086
0.16905528 0.12103775 0.2693617
0.16940391 0.12089434 0.26904255
0.16975124 0.12075093 0.2687234
0.17029952 0.12075093 0.2687234
0.17098306 0.12084653 0.26893616
0.1716675 0.12094215 0.26914895
0.17214857 0.12089434 0.26904255
0.17249264 0.12075093 0.2687234
0.17276691 0.12055972 0.26829788
0.17324559 0.12051191 0.26819149
0.042027652 0.14391676 0.31882977
0.042521525 0.14338854 0.31765959
0.043025073 0.14290833 0.31659573
0.043568309 0.14257219 0.31585106
0.04416807 0.14242813 0.31553191
0.044811852 0.14242813 0.31553191
0.045486286 0.14252417 0.31574467
0.046146046 0.14257219 0.31585106
0.051385853 0.12686956 0.28106382
0.05180198 0.12648539 0.28021276
0.052154977 0.12595718 0.27904254
0.052442905 0.1252849 0.2775532
0.052704431 0.12456459 0.27595744
0.053021055 0.12398835 0.27468085
0.053436227 0.12365221 0.27393618
0.053932235 0.12350815 0.27361703
0.054405753 0.12331606 0.27319148
0.054856133 0.12307596 0.27265957
0.055304341 0.12283586 0.27212766
0.055750381 0.12259576 0.27159575
0.056194253 0.12235566 0.27106383
0.05663595 0.12211556 0.27053192
0.057075478 0.12187546 0.27000001
0.057467423 0.12153931 0.26925531
0.057879258 0.1212512 0.26861703
0.058334757 0.12105911 0.26819149
0.058835242 0.12096307 0.26797873
0.059358425 0.12091505 0.26787233
0.059857387 0.12081901 0.26765957
0.060355484 0.12072297 0.26744682
0.060828485 0.12057891 0.26712766
0.061251298 0.12033881 0.26659575
0.061647281 0.12005068 0.26595744
0.06201579 0.11971454 0.26521277
0.06245653 0.11952246 0.26478723
0.062946163 0.11942642 0.26457447
0.063460447 0.1193784 0.26446807
0.06400004 0.1193784 0.26446807
0.06446176 0.11923435 0.26414895
0.06494835 0.11913829 0.26393616
0.065407671 0.11899424 0.26361701
0.065918922 0.11894622 0.26351064
0.066402912 0.11885019 0.26329789
0.066886023 0.11875413 0.2630851
0.067341007 0.11861007 0.26276594
0.067822173 0.11851403 0.26255319
0.068330169 0.11846602 0.26244682
0.068837725 0.11841799 0.26234043
0.069316722 0.11832196 0.26212767
0.069738142 0.11812987 0.26170212
0.070157841 0.1179378 0.2612766
0.070633359 0.11784176 0.26106384
0.071137011 0.11779373 0.26095745
0.071669444 0.11779373 0.26095745
0.072172441 0.1177457 0.26085106
0.072645359 0.11764967 0.2606383
0.073087536 0.11750561 0.26031914
0.073558502 0.11740957 0.26010638
0.074149802 0.11750561 0.26031914
0.074803017 0.11769769 0.26074469
0.075519428 0.11798581 0.26138297
0.076114647 0.11808186 0.26159576
0.076617211 0.11803383 0.26148936
0.076899625 0.11764967 0.2606383
0.077146962 0.11721748 0.25968084
0.077995017 0.11769769 0.26074469
0.079263911 0.11880216 0.26319149
0.10095057 0.12864631 0.285
0.10236584 0.12970276 0.28734043
0.10302834 0.1297988 0.28755319
0.10288671 0.12888642 0.28553191
0.10358184 0.12758987 0.28265956
0.10443297 0.12792601 0.28340426
0.10528713 0.12826215 0.28414893
0.1061047 0.12855028 0.28478724
0.10688502 0.12879038 0.28531915
0.10766751 0.12903048 0.28585106
0.10837159 0.12917453 0.28617021
0.10899598 0.12922256 0.28627661
0.10953935 0.12917453 0.28617021
0.11004135 0.12907851 0.28595746
0.11054248 0.12898245 0.28574467
0.11096 0.12879038 0.28531915
0.11145896 0.12869434 0.28510639
0.11195705 0.12859829 0.2848936
0.11253832 0.12859829 0.2848936
0.11307736 0.12855028 0.28478724
0.11361595 0.12850225 0.28468084
0.11406877 0.12835819 0.28436169
0.11452029 0.12821414 0.28404257
0.1150136 0.12811808 0.28382978
0.11554939 0.12807007 0.28372341
0.11608472 0.12802204 0.28361702
0.11657587 0.12792601 0.28340426
0.11706615 0.12782997 0.2831915
0.11759976 0.12778194 0.28308511
0.11808852 0.12768592 0.28287235
0.11853178 0.12754185 0.2825532
0.11897374 0.12739779 0.28223404
0.1194144 0.12725373 0.28191489
0.11994432 0.12720571 0.28180853
0.12042829 0.12710966 0.28159574
0.12091142 0.12701362 0.28138298
0.12134773 0.12686956 0.28106382
0.12169046 0.12662946 0.28053191
0.12207738 0.12643738 0.2801064
0.12250914 0.12629333 0.27978724
0.12303319 0.1262453 0.27968085
0.12350979 0.12614927 0.27946809
0.1239383 0.1260052 0.27914894
0.1243655 0.12586114 0.27882978
0.1249344 0.12586114 0.27882978
0.1255033 0.12586114 0.27882978
0.12602411 0.12581313 0.27872342
0.12644783 0.12566906 0.27840427
0.12682171 0.12547697 0.27797872
0.12724262 0.12533291 0.27765957
0.12771121 0.12523687 0.27744681
0.12827727 0.12523687 0.27744681
0.12874456 0.12514083 0.27723405
0.12916134 0.12499677 0.27691489
0.12952697 0.12480468 0.27648935
0.12994094 0.12466063 0.27617022
0.13030332 0.12446855 0.27574468
0.13081545 0.12442054 0.27563831
0.13132714 0.12437251 0.27553192
0.13194023 0.12442054 0.27563831
0.13250262 0.12442054 0.27563831
0.13301365 0.12437251 0.27553192
0.13342109 0.12422845 0.27521276
0.13387904 0.12413241 0.27500001
0.13449211 0.12418042 0.27510637
0.1352101 0.12432449 0.27542552
0.13592938 0.12446855 0.27574468
0.13638668 0.12437251 0.27553192
0.13673733 0.12418042 0.27510637
0.13708627 0.12398835 0.27468085
0.13759339 0.12394033 0.27457446
0.13831419 0.12408438 0.27489361
0.13898255 0.12418042 0.27510637
0.13959782 0.12422845 0.27521276
0.14005098 0.12413241 0.27500001
0.14039448 0.12394033 0.27457446
0.14068164 0.12370022 0.27404255
0.14091179 0.1234121 0.27340424
0.14124943 0.12322002 0.27297872
0.14175113 0.123172 0.27287233
0.14236335 0.12322002 0.27297872
0.14297603 0.12326805 0.27308512
0.1435332 0.12326805 0.27308512
0.14403425 0.12322002 0.27297872
0.14436582 0.12302795 0.27255321
0.14463907 0.12278783 0.27202126
0.14502375 0.12264378 0.27170214
0.1455781 0.12264378 0.27170214
0.14636132 0.12283586 0.27212766
0.14714628 0.12302795 0.27255321
0.14776002 0.12307596 0.27265957
0.1482006 0.12297992 0.27244681
0.14852414 0.12278783 0.27202126
0.14878763 0.12254774 0.27148935
0.14904895 0.12230764 0.27095744
0.14942558 0.12216357 0.27063829
0.14997777 0.12216357 0.27063829
0.15064831 0.12225962 0.27085108
0.1513197 0.12235566 0.27106383
0.15187275 0.12235566 0.27106383
0.15230617 0.12225962 0.27085108
0.15273871 0.12216357 0.27063829
0.15317038 0.12206753 0.27042553
0.15366167 0.12201952 0.27031916
0.15415251 0.1219715 0.27021277
0.15446019 0.12177941 0.26978722
0.15482728 0.12163536 0.2694681
0.15525439 0.12153931 0.26925531
0.15580375 0.12153931 0.26925531
0.15629135 0.1214913 0.26914895
0.1567785 0.12144327 0.26904255
0.15726522 0.12139525 0.26893616
0.15781394 0.12139525 0.26893616
0.15848795 0.1214913 0.26914895
0.1591628 0.12158734 0.2693617
0.15977548 0.12163536 0.2694681
0.16032527 0.12163536 0.2694681
0.16074803 0.12153931 0.26925531
0.16110621 0.12139525 0.26893616
0.16165493 0.12139525 0.26893616
0.1622678 0.12144327 0.26904255
0.16294549 0.12153931 0.26925531
0.16336568 0.12144327 0.26904255
0.16365536 0.1212512 0.26861703
0.16394329 0.12105911 0.26819149
0.16435999 0.12096307 0.26797873
0.16490676 0.12096307 0.26797873
0.16551918 0.12101109 0.26808509
0.16613206 0.12105911 0.26819149
0.16674538 0.12110713 0.26829788
0.16735911 0.12115515 0.26840425
0.1678402 0.12110713 0.26829788
0.16825406 0.12101109 0.26808509
0.16860011 0.12086704 0.26776597
0.16901201 0.12077098 0.26755318
0.1694905 0.12072297 0.26744682
0.1701038 0.12077098 0.26755318
0.17078541 0.12086704 0.26776597
0.1713998 0.12091505 0.26787233
0.17187807 0.12086704 0.26776597
0.17235588 0.12081901 0.26765957
0.17283326 0.12077098 0.26755318
0.04328531 0.14442256 0.31851065
0.043817773 0.14403667 0.31765959
0.044346768 0.14365077 0.31680852
0.044917613 0.14340958 0.31627661
0.045516942 0.14326487 0.31595746
0.046192676 0.14336134 0.31617022
0.046869282 0.14345782 0.31638297
0.047355033 0.14297545 0.31531915
0.047658313 0.14196245 0.31308511
0.047936067 0.14090124 0.31074467
0.05349683 0.12700889 0.2801064
0.053493354 0.12565824 0.27712765
0.053560734 0.12450054 0.27457446
0.054058045 0.12435583 0.27425531
0.054638799 0.12440407 0.2743617
0.055219986 0.12445231 0.27446809
0.055779986 0.12445231 0.27446809
0.056274477 0.1243076 0.27414894
0.056723554 0.12406641 0.27361703
0.057125915 0.12372874 0.27287233
0.057480268 0.12329461 0.2719149
0.057808008 0.12281224 0.27085108
0.058131397 0.12232986 0.26978722
0.058519874 0.1219922 0.26904255
0.058998734 0.12184749 0.2687234
0.059499867 0.12175102 0.26851064
0.060023922 0.12170278 0.26840425
0.060523536 0.12160631 0.26819149
0.060973834 0.12141336 0.26776597
0.061373506 0.12112393 0.26712766
0.061721258 0.12073804 0.2662766
0.062040661 0.12030389 0.26531914
0.06243144 0.12001448 0.26468086
0.062895544 0.11986976 0.26436171
0.063434921 0.11986976 0.26436171
0.063948557 0.11982152 0.26425532
0.064409837 0.11967681 0.26393616
0.06484364 0.11948387 0.26351064
0.065302096 0.11933915 0.26319149
0.065785863 0.11924268 0.26297873
0.066295594 0.11919444 0.26287234
0.06677784 0.11909796 0.26265958
0.067231961 0.11895325 0.26234043
0.06768477 0.11880854 0.26202127
0.068136282 0.11866383 0.26170212
0.068670236 0.11866383 0.26170212
0.069176063 0.1186156 0.26159576
0.069624752 0.11847088 0.2612766
0.070015013 0.11822969 0.26074469
0.070431873 0.11803674 0.26031914
0.070876002 0.11789203 0.25999999
0.071377277 0.1178438 0.25989363
0.071878105 0.11779556 0.25978723
0.072378494 0.11774731 0.25968084
0.072878465 0.11769909 0.25957447
0.073377989 0.11765084 0.25946808
0.073877089 0.11760261 0.25936171
0.074345216 0.11750612 0.25914893
0.074812494 0.11740965 0.25893617
0.075247943 0.11726494 0.25861701
0.075713262 0.11716847 0.25840425
0.076177716 0.117072 0.2581915
0.076736107 0.11712023 0.25829786
0.077390403 0.11731318 0.25872341
0.078142554 0.11765084 0.25946808
0.078929991 0.11803674 0.26031914
0.079655968 0.11832616 0.26095745
0.080221094 0.11837441 0.26106384
0.080655023 0.11822969 0.26074469
0.081220143 0.11827792 0.26085106
0.082019091 0.11866383 0.26170212
0.10525107 0.1273948 0.28095746
0.10646541 0.12816657 0.28265956
0.10756586 0.12879367 0.28404257
0.10846942 0.12917955 0.2848936
0.10913214 0.12927604 0.28510639
0.1096729 0.1292278 0.285
0.11021324 0.12917955 0.2848936
0.11071177 0.12908308 0.28468084
0.11120943 0.12898661 0.28446808
0.11166441 0.12884191 0.28414893
0.11216012 0.12874544 0.28393617
0.11265496 0.12864897 0.28372341
0.11314892 0.12855248 0.28351063
0.11364203 0.128456 0.28329787
0.11413426 0.12835953 0.28308511
0.11466873 0.12831129 0.28297871
0.11520278 0.12826306 0.28287235
0.11577993 0.12826306 0.28287235
0.11631331 0.12821482 0.28276595
0.11684626 0.12816657 0.28265956
0.11737879 0.12811835 0.2825532
0.11791087 0.1280701 0.2824468
0.1183979 0.12797363 0.28223404
0.11892889 0.1279254 0.28212765
0.1194144 0.12782893 0.28191489
0.11989903 0.12773244 0.28170213
0.12038281 0.12763597 0.28148937
0.1208657 0.12753949 0.28127658
0.12125587 0.12734655 0.28085107
0.1216443 0.12715359 0.28042552
0.12207738 0.12700889 0.2801064
0.12250914 0.12686418 0.27978724
0.12298638 0.12676769 0.27957445
0.12346277 0.12667122 0.2793617
0.1239383 0.12657475 0.27914894
0.1243655 0.12643003 0.27882978
0.12488674 0.12638181 0.27872342
0.12540753 0.12633356 0.27861702
0.1259279 0.12628533 0.27851063
0.12639952 0.12618884 0.27829787
0.12677319 0.1259959 0.27787235
0.12719388 0.1258512 0.2775532
0.12761326 0.12570648 0.27723405
0.12808055 0.12561001 0.27702129
0.12849754 0.12546529 0.27670214
0.12891324 0.12532058 0.27638298
0.1292778 0.12512763 0.27595744
0.12974072 0.12503116 0.27574468
0.13020279 0.12493468 0.27553192
0.13061349 0.12478997 0.27521276
0.1311243 0.12474173 0.27510637
0.1316347 0.1246935 0.27500001
0.13219577 0.1246935 0.27500001
0.13270549 0.12464526 0.27489361
0.13311164 0.12450054 0.27457446
0.13351649 0.12435583 0.27425531
0.13402405 0.1243076 0.27414894
0.13463563 0.12435583 0.27425531
0.13524763 0.12440407 0.2743617
0.13575475 0.12435583 0.27425531
0.13615571 0.12421113 0.27393618
0.13655534 0.12406641 0.27361703
0.1371136 0.12406641 0.27361703
0.13772538 0.12411464 0.27372339
0.13839138 0.12421113 0.27393618
0.13895029 0.12421113 0.27393618
0.13940082 0.12411464 0.27372339
0.13963296 0.12382523 0.27308512
0.13986245 0.1235358 0.27244681
0.14003453 0.12319814 0.27170214
0.14031364 0.12295695 0.2711702
0.14081165 0.12290871 0.27106383
0.14142019 0.12295695 0.2711702
0.14208487 0.12305343 0.27138299
0.14280631 0.12319814 0.27170214
0.14341679 0.12324637 0.27180851
0.14380231 0.12310166 0.27148935
0.14401686 0.12281224 0.27085108
0.14428556 0.12257106 0.27031916
0.1448371 0.12257106 0.27031916
0.1456175 0.122764 0.27074468
0.14639963 0.12295695 0.2711702
0.14701056 0.12300519 0.27127659
0.14744832 0.12290871 0.27106383
0.14771095 0.12266753 0.27053192
0.14797141 0.12242635 0.27000001
0.14828821 0.12223339 0.26957446
0.14872076 0.12213691 0.2693617
0.14932929 0.12218516 0.2694681
0.14999743 0.12228163 0.26968086
0.15066643 0.1223781 0.26989362
0.1512171 0.1223781 0.26989362
0.15164813 0.12228163 0.26968086
0.15201825 0.12213691 0.2693617
0.15250756 0.12208867 0.26925531
0.15287551 0.12194396 0.26893616
0.15330285 0.12184749 0.2687234
0.15354659 0.12160631 0.26819149
0.1538493 0.12141336 0.26776597
0.15433428 0.12136512 0.26765957
0.1550035 0.12146159 0.26787233
0.15555003 0.12146159 0.26787233
0.15609658 0.12146159 0.26787233
0.15651871 0.12136512 0.26765957
0.15706483 0.12136512 0.26765957
0.15767358 0.12141336 0.26776597
0.15834562 0.12150984 0.26797873
0.15901853 0.12160631 0.26819149
0.15962903 0.12165455 0.26829788
0.16004941 0.12155806 0.26808509
0.16046894 0.12146159 0.26787233
0.16088758 0.12136512 0.26765957
0.1614337 0.12136512 0.26765957
0.16197981 0.12136512 0.26765957
0.16246131 0.12131687 0.26755318
0.16294239 0.12126864 0.26744682
0.16329297 0.12112393 0.26712766
0.16377275 0.12107569 0.26702127
0.1642521 0.12102746 0.2669149
0.16486236 0.12107569 0.26702127
0.16547307 0.12112393 0.26712766
0.1660181 0.12112393 0.26712766
0.16649678 0.12107569 0.26702127
0.16684194 0.12093098 0.26670212
0.16725256 0.12083451 0.26648936
0.16759533 0.12068979 0.2661702
0.16807121 0.12064156 0.26606384
0.16854663 0.12059332 0.26595744
0.16915691 0.12064156 0.26606384
0.16990332 0.12078628 0.26638299
0.17065102 0.12093098 0.26670212
0.17126347 0.12097922 0.26680851
0.17173934 0.12093098 0.26670212
0.17221478 0.12088275 0.26659575
0.042055704 0.14531469 0.31904256
0.042678166 0.14521778 0.31882977
0.043256391 0.14497551 0.31829786
0.043817773 0.14468479 0.31765959
0.044376548 0.14439407 0.31702128
0.044947829 0.14415179 0.31648937
0.045578241 0.14410333 0.31638297
0.04622376 0.14410333 0.31638297
0.046885043 0.14415179 0.31648937
0.047498826 0.14405489 0.31627661
0.048063155 0.1438126 0.31574467
0.048576087 0.14342497 0.3148936
0.049102176 0.14308579 0.31414893
0.049591534 0.14264971 0.3131915
0.050008733 0.14201979 0.3118085
0.050403018 0.14134143 0.31031916
0.050756227 0.14056617 0.30861703
0.05115563 0.13993627 0.30723405
0.05153146 0.13925789 0.30574468
0.058864918 0.12443085 0.27319148
0.05916778 0.12389785 0.27202126
0.059535936 0.12351022 0.2711702
0.05994777 0.1232195 0.27053192
0.060380787 0.12297723 0.27000001
0.060811631 0.12273496 0.2694681
0.061240301 0.12249267 0.26893616
0.06159348 0.12210504 0.26808509
0.061869215 0.12157205 0.2669149
0.062140167 0.12103905 0.26574469
0.062506713 0.12069986 0.26499999
0.062971473 0.12055451 0.26468086
0.063485973 0.12050605 0.26457447
0.06400004 0.12045759 0.26446807
0.06446176 0.12031224 0.26414895
0.064895995 0.12011842 0.2637234
0.065328494 0.1199246 0.26329789
0.065812469 0.11982769 0.2630851
0.066295594 0.11973078 0.26287234
0.066750795 0.11958542 0.26255319
0.067204691 0.11944005 0.26223403
0.067629814 0.11924624 0.26180851
0.068080887 0.11910088 0.26148936
0.068586491 0.11905241 0.26138297
0.069119796 0.11905241 0.26138297
0.069568053 0.11890706 0.26106384
0.069957875 0.11866478 0.2605319
0.070316747 0.11837406 0.25989363
0.070731007 0.11818024 0.25946808
0.071201973 0.11808333 0.25925532
0.071701497 0.11803487 0.25914893
0.072200596 0.11798643 0.25904256
0.072699249 0.11793797 0.25893617
0.073197469 0.11788951 0.25882977
0.073664963 0.1177926 0.25861701
0.074101061 0.11764724 0.25829786
0.074535869 0.11750188 0.25797874
0.074969366 0.11735652 0.25765958
0.075432725 0.1172596 0.2574468
0.075926617 0.11721116 0.25734043
0.076514877 0.11730806 0.25755319
0.077104002 0.11740497 0.25776595
0.077661969 0.11745343 0.25787234
0.078220367 0.11750188 0.25797874
0.078714252 0.11745343 0.25787234
0.07917501 0.11735652 0.25765958
0.079667807 0.11730806 0.25755319
0.080193296 0.11730806 0.25755319
0.080752134 0.11735652 0.25765958
0.08131139 0.11740497 0.25776595
0.081871092 0.11745343 0.25787234
0.08239723 0.11745343 0.25787234
0.082957588 0.11750188 0.25797874
0.083552793 0.11759879 0.2581915
0.084148869 0.1176957 0.25840425
0.084780678 0.11784106 0.25872341
0.085413791 0.11798643 0.25904256
0.086083487 0.11818024 0.25946808
0.088564523 0.1172596 0.2574468
0.10591409 0.12738657 0.27968085
0.10757834 0.12869485 0.2825532
0.10892854 0.12961549 0.28457448
0.10946821 0.12956703 0.28446808
0.11000746 0.12951855 0.28436169
0.11050491 0.12942165 0.28414893
0.11091831 0.12922785 0.28372341
0.11124635 0.12893711 0.28308511
0.11157179 0.12864639 0.2824468
0.11202135 0.12850101 0.28212765
0.11263944 0.12854947 0.28223404
0.11321528 0.12854947 0.28223404
0.11374824 0.12850101 0.28212765
0.11423765 0.12840411 0.28191489
0.11476953 0.12835567 0.28180853
0.1153445 0.12835567 0.28180853
0.11591948 0.12835567 0.28180853
0.11645047 0.12830721 0.28170213
0.11702523 0.12830721 0.28170213
0.11755558 0.12825875 0.28159574
0.11813013 0.12825875 0.28159574
0.11870467 0.12825875 0.28159574
0.11923416 0.12821031 0.28148937
0.1197632 0.12816185 0.28138298
0.12020082 0.12801647 0.28106382
0.12059143 0.12782267 0.28063831
0.12102623 0.12767731 0.28031915
0.12145972 0.12753193 0.28
0.12193828 0.12743503 0.27978724
0.12241597 0.12733811 0.27957445
0.12293959 0.12728967 0.27946809
0.12346277 0.12724121 0.2793617
0.1239383 0.12714431 0.27914894
0.1243655 0.12699893 0.27882978
0.12488674 0.12695049 0.27872342
0.12540753 0.12690203 0.27861702
0.12587979 0.12680513 0.27840427
0.12630288 0.12665977 0.27808511
0.12667611 0.12646593 0.27765957
0.12709637 0.12632057 0.27734041
0.12751533 0.12617522 0.27702129
0.12793298 0.12602985 0.27670214
0.12829992 0.12583603 0.27627659
0.12866513 0.12564223 0.27585107
0.12907845 0.12549685 0.27553192
0.12959056 0.12544839 0.27542552
0.13005197 0.12535149 0.27521276
0.13051252 0.12525459 0.27500001
0.13092148 0.12510921 0.27468085
0.131431 0.12506075 0.27457446
0.13194008 0.12501231 0.27446809
0.13244872 0.12496385 0.2743617
0.13290536 0.12486695 0.27414894
0.13325754 0.12467312 0.27372339
0.13365999 0.12452776 0.27340424
0.13416561 0.12447931 0.27329788
0.13477565 0.12452776 0.27340424
0.13528083 0.12447931 0.27329788
0.13578556 0.12443085 0.27319148
0.13618368 0.12428549 0.27287233
0.13668713 0.12423704 0.27276596
0.13719012 0.12418858 0.27265957
0.13780019 0.12423704 0.27276596
0.13835672 0.12423704 0.27276596
0.13880488 0.12414014 0.27255321
0.13908899 0.12389785 0.27202126
0.13926171 0.12355868 0.27127659
0.1394314 0.1232195 0.27053192
0.13965309 0.12292877 0.26989362
0.14009324 0.12283187 0.26968086
0.14069894 0.12288031 0.26978722
0.14141648 0.12302568 0.27010638
0.14224716 0.12326795 0.27063829
0.14291161 0.12336487 0.27085108
0.14335153 0.12326795 0.27063829
0.14356433 0.12297723 0.27000001
0.14377451 0.1226865 0.2693617
0.1442101 0.1225896 0.26914895
0.14487368 0.1226865 0.2693617
0.14565298 0.12288031 0.26978722
0.1462611 0.12292877 0.26989362
0.14663815 0.12278341 0.26957446
0.14695583 0.1225896 0.26914895
0.14727177 0.12239577 0.2687234
0.14764449 0.1222504 0.26840425
0.14813338 0.12220196 0.26829788
0.14868081 0.12220196 0.26829788
0.14934655 0.12229887 0.26851064
0.14995378 0.12234733 0.26861703
0.15044224 0.12229887 0.26851064
0.15087044 0.12220196 0.26829788
0.15129776 0.12210504 0.26808509
0.15172423 0.12200813 0.26787233
0.15214984 0.12191123 0.26765957
0.15251388 0.12176586 0.26734042
0.15269388 0.12147513 0.26670212
0.15299356 0.12128132 0.2662766
0.15347549 0.12123286 0.2661702
0.15420324 0.12137823 0.26648936
0.15480874 0.12142669 0.26659575
0.15535268 0.12142669 0.26659575
0.15577221 0.12132978 0.26638299
0.15625328 0.12128132 0.2662766
0.15685922 0.12132978 0.26638299
0.15759128 0.12147513 0.26670212
0.15832467 0.1216205 0.26702127
0.15893279 0.12166896 0.26712766
0.15941429 0.1216205 0.26702127
0.15983164 0.12152359 0.26680851
0.16018417 0.12137823 0.26648936
0.16059957 0.12128132 0.2662766
0.16114287 0.12128132 0.2662766
0.16168615 0.12128132 0.2662766
0.16222945 0.12128132 0.2662766
0.16277273 0.12128132 0.2662766
0.16325076 0.12123286 0.2661702
0.16372837 0.12118442 0.26606384
0.16427124 0.12118442 0.26606384
0.16487998 0.12123286 0.2661702
0.16535693 0.12118442 0.26606384
0.16570079 0.12103905 0.26574469
0.16591024 0.12079678 0.26521277
0.16625105 0.12065142 0.26489362
0.16659056 0.12050605 0.26457447
0.16706316 0.12045759 0.26446807
0.16760276 0.12045759 0.26446807
0.16821 0.12050605 0.26457447
0.16902122 0.12069986 0.26499999
0.1698342 0.12089369 0.26542553
0.17044404 0.12094215 0.26553193
0.1709173 0.12089369 0.26542553
0.17139012 0.12084523 0.26531914
0.034906924 0.1460143 0.31914893
0.035558086 0.1460143 0.31914893
0.036209252 0.1460143 0.31914893
0.038162742 0.1460143 0.31914893
0.038788032 0.14591697 0.31893617
0.039386142 0.14572228 0.31851065
0.039995886 0.14557627 0.3181915
0.040617917 0.14547892 0.31797871
0.041266691 0.14547892 0.31797871
0.041915465 0.14547892 0.31797871
0.042550005 0.14543025 0.31787235
0.043140732 0.14523557 0.3174468
0.043729726 0.14504088 0.31702128
0.044316981 0.14484619 0.31659573
0.044932719 0.14474885 0.31638297
0.045578241 0.14474885 0.31638297
0.046208221 0.14470018 0.31627661
0.046837762 0.14465152 0.31617022
0.047434919 0.1445055 0.31585106
0.048063155 0.14445682 0.31574467
0.048690967 0.14440815 0.3156383
0.049301714 0.14431082 0.31542554
0.049861051 0.14406745 0.3148936
0.050315853 0.14353207 0.31372342
0.05073132 0.14289935 0.31234044
0.051158637 0.14231528 0.31106383
0.051651597 0.14192592 0.31021276
0.052194878 0.14168255 0.30968085
0.052735988 0.1414392 0.30914894
0.053238198 0.1410985 0.30840427
0.05371879 0.14070913 0.3075532
0.054233503 0.1404171 0.3069149
0.054764628 0.14017375 0.30638298
0.055274349 0.13988172 0.30574468
0.055762019 0.13954102 0.30500001
0.05622698 0.13915165 0.30414894
0.06118967 0.12518294 0.27361703
0.061483845 0.12464755 0.27244681
0.061845925 0.12425818 0.27159575
0.062180087 0.12382013 0.27063829
0.062313076 0.12299272 0.26882979
0.062413804 0.12211664 0.2669149
0.062657274 0.12153257 0.26563829
0.063072711 0.12128922 0.26510638
0.063639142 0.1213379 0.26521277
0.064154513 0.12128922 0.26510638
0.064643487 0.12119188 0.26489362
0.065079235 0.12099719 0.26446807
0.065513261 0.12080251 0.26404256
0.065945536 0.12060782 0.26361701
0.066402912 0.12046181 0.26329789
0.066858985 0.1203158 0.26297873
0.067286484 0.12012111 0.26255319
0.067712255 0.11992642 0.26212767
0.068163984 0.11978041 0.26180851
0.068642326 0.11968307 0.26159576
0.06914793 0.11963439 0.26148936
0.069568053 0.11943971 0.26106384
0.069957875 0.11919635 0.2605319
0.070316747 0.11890432 0.25989363
0.070702009 0.11866097 0.25936171
0.071143538 0.11851496 0.25904256
0.07164263 0.11846628 0.25893617
0.072141282 0.1184176 0.25882977
0.072639517 0.11836894 0.25872341
0.07310722 0.1182716 0.25851065
0.073543757 0.11812558 0.2581915
0.07397899 0.11797956 0.25787234
0.07441292 0.11783355 0.25755319
0.074814595 0.11763887 0.25712767
0.075276874 0.11754151 0.25691488
0.07580106 0.11754151 0.25691488
0.076356851 0.1175902 0.25702128
0.076944895 0.11768753 0.25723404
0.077469736 0.11768753 0.25723404
0.077930063 0.1175902 0.25702128
0.078357048 0.11744418 0.25670213
0.078815423 0.11734684 0.25648937
0.079272933 0.1172495 0.25627661
0.079795815 0.1172495 0.25627661
0.080252007 0.11715215 0.25606382
0.080673791 0.11700615 0.2557447
0.081026711 0.11676277 0.25521275
0.081411459 0.1165681 0.25478724
0.081862889 0.11647075 0.25457448
0.08234787 0.11642208 0.25446808
0.082901709 0.11647075 0.25457448
0.083455972 0.11651941 0.25468084
0.084045768 0.11661677 0.25489363
0.084636413 0.11671411 0.25510639
0.085227937 0.11681145 0.25531915
0.085748866 0.11681145 0.25531915
0.086126015 0.11661677 0.25489363
0.086392932 0.11627606 0.25414893
0.086693197 0.11598403 0.25351062
0.087137245 0.11588669 0.25329787
0.087838121 0.11613005 0.25382978
0.088652261 0.11651941 0.25468084
0.089320883 0.11671411 0.25510639
0.08969152 0.11651941 0.25468084
0.08979664 0.11598403 0.25351062
0.08982119 0.1153513 0.25212765
0.090411849 0.11544865 0.25234044
0.091578364 0.11627606 0.25414893
0.11029446 0.12907664 0.28212765
0.11011758 0.12820056 0.28021276
0.110143 0.12756784 0.27882978
0.11058518 0.12742183 0.27851063
0.11153555 0.12785988 0.27946809
0.1123618 0.12815189 0.2801064
0.11284751 0.12805454 0.27989361
0.11307371 0.12766518 0.27904254
0.11351308 0.12751918 0.27872342
0.11408176 0.12751918 0.27872342
0.11478171 0.12766518 0.27904254
0.11543901 0.12776253 0.27925533
0.11614135 0.12790853 0.27957445
0.116845 0.12805454 0.27989361
0.11754996 0.12820056 0.28021276
0.11821137 0.12829791 0.28042552
0.11878353 0.12829791 0.28042552
0.11926512 0.12820056 0.28021276
