# .PCD v0.7 - Point Cloud Data file format
VERSION 0.7
FIELDS x y z
SIZE 4 4 4
TYPE F F F
COUNT 1 1 1
WIDTH 1357
HEIGHT 1
VIEWPOINT 0 0 0 1 0 0 0
POINTS 1357
DATA ascii
-0.093965515 0.078853898 0.21680851
-0.093614899 0.078931279 0.21702127
-0.093263425 0.079008661 0.21723405
-0.092865616 0.079047352 0.21734042
-0.09237691 0.079008661 0.21723405
-0.091933645 0.079008661 0.21723405
-0.091490388 0.079008661 0.21723405
-0.091136299 0.079086043 0.2174468
-0.09087009 0.079240814 0.21787234
-0.090602145 0.079395577 0.21829787
-0.09028852 0.079511657 0.21861702
-0.089929879 0.079589039 0.21882978
-0.089483358 0.079589039 0.21882978
-0.089036845 0.079589039 0.21882978
-0.088590331 0.079589039 0.21882978
-0.088143818 0.079589039 0.21882978
-0.087697305 0.079589039 0.21882978
-0.087208368 0.079550348 0.2187234
-0.086804271 0.079589039 0.21882978
-0.086441725 0.079666428 0.21904255
-0.086078301 0.079743803 0.21925531
-0.08571402 0.079821192 0.21946809
-0.085307531 0.079859883 0.21957447
-0.08494173 0.079937272 0.21978724
-0.084534153 0.079975963 0.21989362
-0.084126152 0.080014654 0.22
-0.083717711 0.080053337 0.22010638
-0.083308838 0.080092035 0.22021277
-0.082899526 0.080130726 0.22031915
-0.082449973 0.080130726 0.22031915
-0.082000419 0.080130726 0.22031915
-0.081590243 0.080169417 0.22042553
-0.081218794 0.080246806 0.2206383
-0.080885418 0.080362879 0.22095744
-0.080550745 0.080478951 0.2212766
-0.080214761 0.080595031 0.22159575
-0.079800896 0.080633722 0.22170213
-0.079386592 0.080672413 0.22180851
-0.079009719 0.080749795 0.22202128
-0.078594334 0.080788486 0.22212766
-0.078141086 0.080788486 0.22212766
-0.077687845 0.080788486 0.22212766
-0.077271588 0.080827177 0.22223404
-0.076891676 0.080904566 0.22244681
-0.076547444 0.081020638 0.22276595
-0.076201916 0.081136711 0.22308511
-0.075818963 0.0812141 0.22329788
-0.075435139 0.081291482 0.22351064
-0.075014755 0.081330173 0.22361702
-0.074558474 0.081330173 0.22361702
-0.074137449 0.081368864 0.22372341
-0.073751017 0.081446245 0.22393617
-0.073398545 0.081562325 0.22425532
-0.073079363 0.081717089 0.22468086
-0.072689675 0.081794471 0.22489361
-0.07229913 0.08187186 0.22510639
-0.071839809 0.08187186 0.22510639
-0.071380481 0.08187186 0.22510639
-0.07095468 0.081910551 0.22521277
-0.07052844 0.081949241 0.22531915
-0.07010176 0.081987932 0.22542553
-0.06970752 0.082065314 0.2256383
-0.069312409 0.082142696 0.22585106
-0.068916433 0.082220085 0.22606383
-0.068487369 0.082258776 0.22617021
-0.06802588 0.082258776 0.22617021
-0.06759616 0.082297467 0.22627659
-0.067229144 0.082413539 0.22659574
-0.066923514 0.082607001 0.22712766
-0.066646837 0.082839154 0.22776596
-0.066305742 0.082993925 0.22819149
-0.065932199 0.08310999 0.22851063
-0.065496415 0.083148688 0.22861703
-0.065029927 0.083148688 0.22861703
-0.064533398 0.08310999 0.22851063
-0.064007476 0.083032615 0.22829787
-0.063482426 0.082955226 0.2280851
-0.062958241 0.082877845 0.22787234
-0.062522449 0.082916535 0.22797872
-0.062086225 0.082955226 0.2280851
-0.061678309 0.083032615 0.22829787
-0.061269518 0.08310999 0.22851063
-0.060888175 0.08322607 0.22882979
-0.060505524 0.08334215 0.22914894
-0.060121574 0.083458222 0.22946809
-0.059736315 0.083574295 0.22978723
-0.059294879 0.083612986 0.22989361
-0.058880236 0.083690375 0.23010638
-0.058464717 0.083767757 0.23031914
-0.058048334 0.083845139 0.23053192
-0.057577942 0.083845139 0.23053192
-0.057107549 0.083845139 0.23053192
-0.056611024 0.083806448 0.23042554
-0.056166764 0.083845139 0.23053192
-0.055696372 0.083845139 0.23053192
-0.055251464 0.083883829 0.2306383
-0.054755587 0.083845139 0.23053192
-0.054260146 0.083806448 0.23042554
-0.053814802 0.083845139 0.23053192
-0.053442877 0.083999909 0.23095745
-0.053093612 0.084193364 0.23148936
-0.052766364 0.084425516 0.23212767
-0.05236461 0.084541589 0.2324468
-0.05189031 0.084541589 0.2324468
-0.051345419 0.084425516 0.23212767
-0.050848451 0.084386826 0.23202127
-0.050398119 0.084425516 0.23212767
-0.05003887 0.084618978 0.23265958
-0.04967745 0.084812433 0.23319149
-0.049313862 0.085005894 0.2337234
-0.048859186 0.085044585 0.23382978
-0.048360053 0.085005894 0.2337234
-0.04783956 0.084928513 0.23351064
-0.047341507 0.084889814 0.23340425
-0.046929337 0.085005894 0.2337234
-0.046558149 0.085199349 0.23425531
-0.046205722 0.085431501 0.23489362
-0.045829974 0.085624963 0.23542553
-0.04539058 0.085702345 0.23563829
-0.044909768 0.085702345 0.23563829
-0.044449016 0.085741036 0.23574468
-0.044027507 0.085857108 0.23606382
-0.043565456 0.085895807 0.23617022
-0.043064147 0.085857108 0.23606382
-0.04246733 0.085624963 0.23542553
-0.041911062 0.085470192 0.235
-0.041375283 0.08535412 0.23468085
-0.040933501 0.085431501 0.23489362
-0.040545817 0.085624963 0.23542553
-0.040174067 0.085857108 0.23606382
-0.039853375 0.086205341 0.23702128
-0.039546445 0.086592257 0.23808511
-0.039217722 0.086940482 0.23904255
-0.038867854 0.087250017 0.23989362
-0.038446434 0.087404788 0.24031915
-0.038006477 0.08752086 0.2406383
-0.03753205 0.087559551 0.24074468
-0.037089922 0.087675631 0.24106383
-0.036598038 0.087675631 0.24106383
-0.036074288 0.087598242 0.24085106
-0.035519972 0.087443478 0.24042553
-0.034951892 0.087250017 0.23989362
-0.034416549 0.087133944 0.23957446
-0.03391264 0.087095253 0.23946808
-0.033424016 0.087095253 0.23946808
-0.032950018 0.087133944 0.23957446
-0.032475591 0.087172635 0.23968086
-0.032014925 0.087250017 0.23989362
-0.031553391 0.087327406 0.24010639
-0.031118514 0.087482169 0.24053192
-0.030681901 0.08763694 0.24095745
-0.03025688 0.087830395 0.24148937
-0.029790353 0.087907776 0.24170212
-0.029310063 0.087946467 0.2418085
-0.028816659 0.087946467 0.2418085
-0.02833572 0.087985165 0.2419149
-0.027866587 0.088062547 0.24212766
-0.027396588 0.088139929 0.24234043
-0.026925718 0.088217311 0.24255319
-0.026442388 0.088256001 0.24265957
-0.025958627 0.0882947 0.24276596
-0.025474429 0.088333391 0.24287234
-0.024989797 0.088372082 0.24297872
-0.024494007 0.088372082 0.24297872
-0.024008723 0.088410772 0.2430851
0.091565013 0.10489348 0.28840426
0.09208551 0.1048161 0.2881915
0.092605129 0.1047387 0.28797871
0.093296021 0.10485478 0.28829786
0.094334655 0.10535778 0.28968084
0.095657811 0.1061703 0.29191488
0.097025171 0.10702153 0.29425532
0.098049127 0.10748584 0.29553193
-0.11681858 0.075755581 0.20712766
-0.11651549 0.075833395 0.20734042
-0.11644982 0.076066852 0.20797873
-0.11626284 0.076222487 0.20840426
-0.11595586 0.076300301 0.20861702
-0.1155891 0.076339215 0.20872341
-0.1152219 0.076378122 0.20882979
-0.11491275 0.076455936 0.20904255
-0.11466099 0.076572664 0.2093617
-0.11440793 0.076689392 0.20968086
-0.11415357 0.076806113 0.20999999
-0.1138403 0.076883934 0.21021277
-0.11352615 0.076961756 0.21042553
-0.11326832 0.077078484 0.21074468
-0.11300918 0.077195212 0.21106383
-0.11274875 0.077311933 0.21138299
-0.11237396 0.077350847 0.21148936
-0.11188611 0.077311933 0.21138299
-0.11139869 0.077273026 0.21127659
-0.11096759 0.077273026 0.21127659
-0.11064781 0.077350847 0.21148936
-0.11032715 0.077428661 0.21170212
-0.11000562 0.077506483 0.2119149
-0.10962822 0.07754539 0.21202128
-0.10925039 0.077584296 0.21212766
-0.10881756 0.077584296 0.21212766
-0.10838471 0.077584296 0.21212766
-0.10795187 0.077584296 0.21212766
-0.10751903 0.077584296 0.21212766
-0.1071936 0.077662118 0.21234043
-0.10686731 0.077739932 0.21255319
-0.10659341 0.07785666 0.21287234
-0.1062121 0.077895567 0.21297872
-0.10583036 0.077934474 0.2130851
-0.10539556 0.077934474 0.2130851
-0.10496077 0.077934474 0.2130851
-0.10452598 0.077934474 0.2130851
-0.10414316 0.077973388 0.21319149
-0.10381164 0.078051202 0.21340425
-0.10353081 0.07816793 0.21372341
-0.10324866 0.078284658 0.21404256
-0.10286301 0.078323565 0.21414894
-0.10242605 0.078323565 0.21414894
-0.10193842 0.078284658 0.21404256
-0.10150167 0.078284658 0.21404256
-0.10116538 0.078362472 0.21425532
-0.10087825 0.078479201 0.21457447
-0.10058981 0.078595929 0.21489362
-0.10020091 0.078634836 0.215
-0.099762209 0.078634836 0.215
-0.099323504 0.078634836 0.215
-0.098884806 0.078634836 0.215
-0.098543525 0.07871265 0.21521276
-0.098201379 0.078790471 0.21542554
-0.097858369 0.078868285 0.21563829
-0.097466424 0.078907199 0.21574467
-0.097074047 0.078946106 0.21585107
-0.096681237 0.078985013 0.21595745
-0.096287988 0.079023927 0.21606383
-0.095941506 0.079101741 0.2162766
-0.095547177 0.079140656 0.21638298
-0.095152408 0.079179563 0.21648936
-0.094757214 0.07921847 0.21659574
-0.094315253 0.07921847 0.21659574
-0.093919411 0.079257376 0.21670213
-0.093523122 0.079296291 0.21680851
-0.093172073 0.079374105 0.21702127
-0.092774712 0.079413019 0.21712767
-0.09237691 0.079451926 0.21723405
-0.091888629 0.079413019 0.21712767
-0.091445588 0.079413019 0.21712767
-0.091047131 0.079451926 0.21723405
-0.090781353 0.079607561 0.21765958
-0.090469688 0.079724289 0.21797873
-0.090156712 0.07984101 0.21829787
-0.089798726 0.079918832 0.21851064
-0.089439861 0.079996645 0.2187234
-0.089036845 0.080035552 0.21882978
-0.088633403 0.080074467 0.21893618
-0.088186674 0.080074467 0.21893618
-0.087697305 0.080035552 0.21882978
-0.087208368 0.079996645 0.2187234
-0.086762071 0.079996645 0.2187234
-0.086357757 0.080035552 0.21882978
-0.085994773 0.080113374 0.21904255
-0.085672475 0.080230102 0.21936171
-0.085307531 0.080307916 0.21957447
-0.08490061 0.080346823 0.21968085
-0.084452361 0.080346823 0.21968085
-0.084044792 0.080385737 0.21978724
-0.083596326 0.080385737 0.21978724
-0.083188102 0.080424644 0.21989362
-0.082779445 0.080463551 0.22
-0.082370348 0.080502458 0.22010638
-0.081960827 0.080541372 0.22021277
-0.08151149 0.080541372 0.22021277
-0.081140473 0.080619186 0.22042553
-0.080807537 0.080735914 0.22074468
-0.080434561 0.080813728 0.22095744
-0.080060728 0.08089155 0.22117022
-0.079724312 0.081008278 0.22148935
-0.079348519 0.081086099 0.22170213
-0.078971855 0.081163913 0.22191489
-0.078594334 0.081241734 0.22212766
-0.078141086 0.081241734 0.22212766
-0.077687845 0.081241734 0.22212766
-0.077234603 0.081241734 0.22212766
-0.0768549 0.081319548 0.22234042
-0.076510891 0.081436276 0.22265957
-0.076129243 0.081514098 0.22287235
-0.075746715 0.081591912 0.22308511
-0.075327419 0.081630819 0.22319148
-0.074907698 0.081669733 0.22329788
-0.074452065 0.081669733 0.22329788
-0.073996432 0.081669733 0.22329788
-0.073610872 0.081747547 0.22351064
-0.073259264 0.081864275 0.22382979
-0.072940953 0.08201991 0.22425532
-0.072620913 0.082175545 0.22468086
-0.072196625 0.082214452 0.22478724
-0.071737953 0.082214452 0.22478724
-0.07127928 0.082214452 0.22478724
-0.070854127 0.082253359 0.22489361
-0.070461839 0.082331181 0.22510639
-0.070035599 0.082370088 0.22521277
-0.069641791 0.082447901 0.22542553
-0.069247112 0.082525723 0.2256383
-0.068819135 0.08256463 0.22574468
-0.068358511 0.08256463 0.22574468
-0.067897886 0.08256463 0.22574468
-0.06750083 0.082642451 0.22595745
-0.067197584 0.082836993 0.22648937
-0.066954859 0.083109356 0.22723404
-0.066677965 0.083342813 0.22787234
-0.066305742 0.083459541 0.22819149
-0.065932199 0.083576262 0.22851063
-0.065526895 0.083654083 0.22872341
-0.065060191 0.083654083 0.22872341
-0.064563446 0.083615176 0.22861703
-0.064007476 0.083498448 0.22829787
-0.063482426 0.083420627 0.2280851
-0.063017026 0.083420627 0.2280851
-0.062580802 0.083459541 0.22819149
-0.062202055 0.083576262 0.22851063
-0.061822012 0.08369299 0.22882979
-0.061412144 0.083770812 0.22904256
-0.060973097 0.083809718 0.22914894
-0.060533613 0.083848625 0.22925532
-0.060121574 0.083926447 0.22946809
-0.059708659 0.084004261 0.22968085
-0.059267443 0.084043168 0.22978723
-0.058853015 0.084120989 0.23
-0.058437712 0.084198803 0.23021276
-0.057967972 0.084198803 0.23021276
-0.05744509 0.084120989 0.23
-0.056870371 0.083965354 0.22957447
-0.056323525 0.083848625 0.22925532
-0.055855736 0.083848625 0.22925532
-0.055465054 0.083965354 0.22957447
-0.055098556 0.084120989 0.23
-0.05470505 0.08423771 0.23031914
-0.054210041 0.084198803 0.23021276
-0.053765133 0.08423771 0.23031914
-0.053369027 0.084354438 0.2306383
-0.053044815 0.084587894 0.2312766
-0.052717995 0.084821343 0.23191489
-0.052316681 0.084938072 0.23223405
-0.051819067 0.084899165 0.23212767
-0.051298354 0.084821343 0.23191489
-0.050801825 0.084782436 0.23180851
-0.050467409 0.085015893 0.2324468
-0.050199032 0.08536607 0.23340425
-0.049972072 0.085794069 0.23457447
-0.049493428 0.085794069 0.23457447
-0.048970331 0.085716255 0.23436171
-0.048316032 0.085404985 0.23351064
-0.04779597 0.085327163 0.23329787
-0.04731993 0.085327163 0.23329787
-0.046907976 0.085443892 0.23361702
-0.046558149 0.085677341 0.23425531
-0.046247572 0.085988611 0.23510638
-0.045892105 0.086222067 0.23574468
-0.045472551 0.086338788 0.23606382
-0.044990871 0.086338788 0.23606382
-0.044529248 0.086377703 0.23617022
-0.044087034 0.086455517 0.23638298
-0.040155962 0.086299881 0.23595744
-0.039853375 0.086688973 0.23702128
-0.039564114 0.087116972 0.23819149
-0.039270081 0.08754497 0.2393617
-0.038936798 0.087895148 0.24031915
-0.033453714 0.087661698 0.23968086
-0.033008546 0.087778419 0.23999999
-0.032562077 0.087895148 0.24031915
-0.032100108 0.087972969 0.24053192
-0.031651251 0.08808969 0.24085106
-0.031214856 0.088245325 0.24127659
-0.030790268 0.088439867 0.2418085
-0.030363513 0.088634416 0.24234043
-0.029882137 0.088673323 0.24244681
-0.029361641 0.088595502 0.24223404
-0.028829338 0.088478781 0.2419149
-0.028323257 0.088439867 0.2418085
-0.027854344 0.088517688 0.24202128
-0.027384561 0.088595502 0.24223404
-0.026925718 0.08871223 0.24255319
-0.026442388 0.088751145 0.24265957
-0.025958627 0.088790052 0.24276596
-0.02546327 0.088790052 0.24276596
-0.024967914 0.088790052 0.24276596
-0.024472559 0.088790052 0.24276596
-0.02398771 0.088828959 0.24287234
0.09163256 0.10555977 0.28861701
0.092153497 0.10548196 0.28840426
0.092639342 0.10536523 0.2880851
0.0932616 0.10540415 0.2881915
0.094196081 0.10579323 0.28925532
0.095344067 0.10641577 0.29095745
0.096639313 0.10719395 0.2930851
-0.11639857 0.075904332 0.20638297
-0.11627637 0.076099962 0.20691489
-0.11627112 0.076373845 0.20765957
-0.11614414 0.076569475 0.20819148
-0.11589672 0.076686852 0.20851064
-0.11553018 0.076725975 0.20861702
-0.11516321 0.076765105 0.20872341
-0.11485427 0.076843359 0.20893617
-0.11454447 0.076921612 0.20914894
-0.11429184 0.077038988 0.20946808
-0.11398009 0.077117242 0.20968086
-0.11372507 0.077234611 0.20999999
-0.11341137 0.077312872 0.21021277
-0.11321115 0.077469371 0.2106383
-0.11295222 0.077586755 0.21095745
-0.112692 0.077704124 0.21127659
-0.1122609 0.077704124 0.21127659
-0.11182979 0.077704124 0.21127659
-0.11128651 0.077625878 0.21106383
-0.11091171 0.077665001 0.21117021
-0.11059215 0.077743255 0.21138299
-0.11027171 0.077821508 0.21159574
-0.10995041 0.077899761 0.21180852
-0.10951822 0.077899761 0.21180852
-0.10908603 0.077899761 0.21180852
-0.10865384 0.077899761 0.21180852
-0.10822165 0.077899761 0.21180852
-0.10778946 0.077899761 0.21180852
-0.1074112 0.077938884 0.2119149
-0.10703249 0.077978007 0.21202128
-0.10665336 0.078017138 0.21212766
-0.10632706 0.078095391 0.21234043
-0.10594684 0.078134514 0.21244681
-0.10556618 0.078173637 0.21255319
-0.10518509 0.07821276 0.21265957
-0.10485597 0.078291021 0.21287234
-0.1044738 0.078330144 0.21297872
-0.10409119 0.078369267 0.2130851
-0.1037599 0.078447521 0.21329787
-0.10342774 0.078525774 0.21351063
-0.10304339 0.078564905 0.21361703
-0.10265861 0.078604028 0.21372341
-0.10217164 0.078564905 0.21361703
-0.10168509 0.078525774 0.21351063
-0.10124943 0.078525774 0.21351063
-0.10091423 0.078604028 0.21372341
-0.10062818 0.078721404 0.21404256
-0.10034082 0.078838781 0.2143617
-0.10000259 0.078917034 0.21457447
-0.099614114 0.078956157 0.21468085
-0.099176064 0.078956157 0.21468085
-0.098786943 0.07899528 0.21478723
-0.098397397 0.07903441 0.21489362
-0.098055899 0.079112664 0.21510638
-0.09771353 0.07919091 0.21531914
-0.097370304 0.079269163 0.21553192
-0.096978359 0.079308294 0.21563829
-0.096538357 0.079308294 0.21563829
-0.096193179 0.079386547 0.21585107
-0.09579993 0.07942567 0.21595745
-0.095406249 0.079464793 0.21606383
-0.095058896 0.079543047 0.2162766
-0.09471067 0.0796213 0.21648936
-0.094315253 0.079660423 0.21659574
-0.0938733 0.079660423 0.21659574
-0.093477234 0.079699554 0.21670213
-0.093080737 0.079738677 0.21680851
-0.092729248 0.07981693 0.21702127
-0.09233167 0.07985606 0.21712767
-0.091888629 0.07985606 0.21712767
-0.091445588 0.07985606 0.21712767
-0.091047131 0.079895183 0.21723405
-0.09069261 0.079973429 0.2174468
-0.090337224 0.080051683 0.21765958
-0.090024911 0.080169067 0.21797873
-0.089667566 0.080247313 0.21819149
-0.089352861 0.080364697 0.21851064
-0.088993564 0.080442943 0.2187234
-0.088590331 0.080482066 0.21882978
-0.088186674 0.080521196 0.21893618
-0.087739937 0.080521196 0.21893618
-0.087250784 0.080482066 0.21882978
-0.086762071 0.080442943 0.2187234
-0.086357757 0.080482066 0.21882978
-0.085994773 0.080560319 0.21904255
-0.085630924 0.080638573 0.21925531
-0.085266203 0.080716826 0.21946809
-0.084859498 0.080755949 0.21957447
-0.084411465 0.080755949 0.21957447
-0.083922751 0.080716826 0.21946809
-0.083474934 0.080716826 0.21946809
-0.083067358 0.080755949 0.21957447
-0.082739413 0.080873333 0.21989362
-0.082370348 0.080951579 0.22010638
-0.081960827 0.080990709 0.22021277
-0.081550866 0.081029832 0.22031915
-0.081140473 0.081068963 0.22042553
-0.080729641 0.081108086 0.22053191
-0.080318384 0.081147216 0.2206383
-0.079906687 0.081186339 0.22074468
-0.079571143 0.081303716 0.22106382
-0.079272367 0.081460215 0.22148935
-0.078933999 0.081577599 0.22180851
-0.078519046 0.081616722 0.22191489
-0.078066237 0.081616722 0.22191489
-0.077613428 0.081616722 0.22191489
-0.077234603 0.081694975 0.22212766
-0.0768549 0.081773221 0.22234042
-0.076474331 0.081851482 0.22255319
-0.076092899 0.081929728 0.22276595
-0.075674474 0.081968859 0.22287235
-0.075219713 0.081968859 0.22287235
-0.074764952 0.081968859 0.22287235
-0.074310184 0.081968859 0.22287235
-0.073855422 0.081968859 0.22287235
-0.073470727 0.082047105 0.22308511
-0.073119991 0.082164489 0.22340426
-0.072837152 0.082360119 0.22393617
-0.072483368 0.082477495 0.22425532
-0.07209412 0.082555741 0.22446808
-0.071636096 0.082555741 0.22446808
-0.071178079 0.082555741 0.22446808
-0.070720062 0.082555741 0.22446808
-0.070295341 0.082594872 0.22457446
-0.069903269 0.082673125 0.22478724
-0.069510326 0.082751371 0.22499999
-0.069116518 0.082829624 0.22521277
-0.068689413 0.082868755 0.22531915
-0.068229653 0.082868755 0.22531915
-0.0677699 0.082868755 0.22531915
-0.067405485 0.082986131 0.2256383
-0.067166023 0.083260015 0.22638299
-0.066954859 0.083573021 0.22723404
-0.066677965 0.083807774 0.22787234
-0.066305742 0.083925158 0.22819149
-0.06590151 0.084003404 0.22840425
-0.065496415 0.084081657 0.22861703
-0.065060191 0.084120788 0.22872341
-0.064563446 0.084081657 0.22861703
-0.064037301 0.084003404 0.22840425
-0.063541643 0.083964281 0.22829787
-0.063075811 0.083964281 0.22829787
-0.062726676 0.084120788 0.22872341
-0.062375806 0.084277287 0.22914894
-0.0620232 0.084433794 0.22957447
-0.061583284 0.084472917 0.22968085
-0.061086323 0.084433794 0.22957447
-0.057914399 0.084590293 0.23
-0.057232529 0.084277287 0.22914894
-0.056554131 0.083964281 0.22829787
-0.055931479 0.08372952 0.22765957
-0.055492867 0.083768651 0.22776596
-0.05515663 0.083964281 0.22829787
-0.051274821 0.085255437 0.23180851
-0.050778512 0.085216314 0.23170213
-0.05049051 0.08552932 0.2325532
-0.050290551 0.085998826 0.23382978
-0.050108053 0.086507469 0.23521277
-0.046579298 0.086194463 0.23436171
-0.0462685 0.086507469 0.23521277
-0.045933522 0.086781345 0.23595744
-0.045513537 0.086898729 0.2362766
-0.045051698 0.086937852 0.23638298
-0.033110965 0.088542014 0.24074468
-0.032677393 0.088698521 0.24117021
-0.032227885 0.088815898 0.24148937
-0.031777073 0.088933274 0.2418085
-0.031352486 0.089128904 0.24234043
-0.030952822 0.089402787 0.2430851
-0.030510131 0.089559287 0.24351063
-0.030013256 0.089559287 0.24351063
-0.029439012 0.089324534 0.24287234
-0.028854694 0.089050651 0.24212766
-0.028310798 0.088894151 0.24170212
-0.027829856 0.088933274 0.2418085
-0.027360508 0.089011528 0.24202128
-0.0269021 0.089128904 0.24234043
-0.026419204 0.089168034 0.24244681
-0.025935875 0.089207157 0.24255319
-0.025429795 0.089168034 0.24244681
-0.024935091 0.089168034 0.24244681
-0.024451111 0.089207157 0.24255319
-0.023966694 0.08924628 0.24265957
0.09163256 0.10614869 0.28861701
0.092153497 0.10607044 0.28840426
0.092673555 0.10599219 0.2881915
0.0932616 0.10599219 0.2881915
0.0940575 0.10622694 0.28882977
0.095030315 0.10665733 0.28999999
0.096078068 0.10716596 0.29138297
-0.11960369 0.077033632 0.20829788
-0.1164584 0.076089397 0.20574468
-0.11615858 0.076168075 0.20595744
-0.11609703 0.076404139 0.20659575
-0.11609243 0.076679535 0.20734042
-0.1159661 0.07687626 0.20787235
-0.11571933 0.076994285 0.20819148
-0.11535344 0.077033632 0.20829788
-0.11498711 0.077072971 0.20840426
-0.11462035 0.07711231 0.20851064
-0.11431142 0.077191003 0.20872341
-0.11405966 0.077309027 0.20904255
-0.11374877 0.077387713 0.20925532
-0.11349463 0.077505738 0.20957446
-0.11323918 0.07762377 0.20989361
-0.11309679 0.077820487 0.21042553
-0.11289526 0.077977858 0.21085106
-0.11257852 0.078056544 0.21106383
-0.11214785 0.078056544 0.21106383
-0.11166088 0.078017205 0.21095745
-0.11123042 0.078017205 0.21095745
-0.11091171 0.078095891 0.21117021
-0.11059215 0.078174576 0.21138299
-0.11027171 0.078253262 0.21159574
-0.10989518 0.078292601 0.21170212
-0.10946321 0.078292601 0.21170212
-0.10903123 0.078292601 0.21170212
-0.10854469 0.078253262 0.21159574
-0.10811294 0.078253262 0.21159574
-0.10768119 0.078253262 0.21159574
-0.10724943 0.078253262 0.21159574
-0.10687137 0.078292601 0.21170212
-0.1064929 0.078331947 0.21180852
-0.10611398 0.078371294 0.2119149
-0.10573462 0.078410633 0.21202128
-0.10535484 0.078449972 0.21212766
-0.10502724 0.078528665 0.21234043
-0.10469876 0.078607343 0.21255319
-0.10436943 0.078686036 0.21276596
-0.10403922 0.078764722 0.21297872
-0.10370815 0.078843407 0.21319149
-0.10332467 0.078882746 0.21329787
-0.10288944 0.078882746 0.21329787
-0.10250531 0.078922093 0.21340425
-0.10201899 0.078882746 0.21329787
-0.10158376 0.078882746 0.21329787
-0.10114854 0.078882746 0.21329787
-0.10076354 0.078922093 0.21340425
-0.10047814 0.079040118 0.21372341
-0.10019144 0.07915815 0.21404256
-0.09990342 0.079276174 0.2143617
-0.099515393 0.079315521 0.21446809
-0.09912692 0.079354867 0.21457447
-0.098689087 0.079354867 0.21457447
-0.098299965 0.079394206 0.21468085
-0.097958915 0.079472899 0.21489362
-0.097616978 0.079551578 0.21510638
-0.097226121 0.079590924 0.21521276
-0.096834831 0.079630263 0.21531914
-0.096443109 0.07966961 0.21542554
-0.096050948 0.079708949 0.21553192
-0.095705539 0.079787634 0.21574467
-0.095359273 0.079866327 0.21595745
-0.095058896 0.079984352 0.2162766
-0.09471067 0.080063038 0.21648936
-0.094361581 0.080141731 0.21670213
-0.093965515 0.08018107 0.21680851
-0.093523122 0.08018107 0.21680851
-0.093080737 0.08018107 0.21680851
-0.0926838 0.080220409 0.21691489
-0.09233167 0.080299102 0.21712767
-0.091933645 0.080338441 0.21723405
-0.091535188 0.08037778 0.21734042
-0.091091715 0.08037778 0.21734042
-0.09069261 0.080417126 0.2174468
-0.090293072 0.080456473 0.2175532
-0.089937031 0.080535159 0.21776596
-0.089580126 0.080613844 0.21797873
-0.089222349 0.08069253 0.21819149
-0.088906996 0.080810554 0.21851064
-0.088547267 0.08088924 0.2187234
-0.088143818 0.080928586 0.21882978
-0.087739937 0.080967933 0.21893618
-0.087293208 0.080967933 0.21893618
-0.086846478 0.080967933 0.21893618
-0.086399741 0.080967933 0.21893618
-0.086036541 0.081046611 0.21914893
-0.085672475 0.081125304 0.21936171
-0.085348859 0.081243329 0.21968085
-0.08490061 0.081243329 0.21968085
-0.084370568 0.081164643 0.21946809
-0.083882071 0.081125304 0.21936171
-0.083394006 0.081085958 0.21925531
-0.083027117 0.081164643 0.21946809
-0.082699388 0.081282675 0.21978724
-0.082370348 0.0814007 0.22010638
-0.082000419 0.081479385 0.22031915
-0.081590243 0.081518732 0.22042553
-0.081140473 0.081518732 0.22042553
-0.080690704 0.081518732 0.22042553
-0.080202207 0.081479385 0.22031915
-0.079752654 0.081479385 0.22031915
-0.079417974 0.081597418 0.2206383
-0.07912007 0.081754789 0.22106382
-0.078782566 0.081872813 0.22138298
-0.078330845 0.081872813 0.22138298
-0.077879123 0.081872813 0.22138298
-0.077464603 0.08191216 0.22148935
-0.077123627 0.082030192 0.22180851
-0.076818131 0.082187563 0.22223404
-0.076437779 0.082266249 0.22244681
-0.075983882 0.082266249 0.22244681
-0.075529993 0.082266249 0.22244681
-0.075112 0.082305595 0.22255319
-0.074622199 0.082266249 0.22244681
-0.07413283 0.082226902 0.22234042
-0.073679149 0.082226902 0.22234042
-0.073260516 0.082266249 0.22244681
-0.072945893 0.08242362 0.22287235
-0.072664142 0.082620338 0.22340426
-0.072311446 0.08273837 0.22372341
-0.071923278 0.082817048 0.22393617
-0.071466349 0.082817048 0.22393617
-0.070975676 0.082777709 0.22382979
-0.070518963 0.082777709 0.22382979
-0.070095547 0.082817048 0.22393617
-0.069704771 0.082895733 0.22414893
-0.069313139 0.082974419 0.2243617
-0.068953283 0.083092451 0.22468086
-0.068527259 0.083131798 0.22478724
-0.06803637 0.083092451 0.22468086
-0.067609914 0.083131798 0.22478724
-0.067278363 0.083289169 0.22521277
-0.067071326 0.083603911 0.22606383
-0.066954859 0.084036678 0.22723404
-0.066677965 0.084272742 0.22787234
-0.066274822 0.084351428 0.2280851
-0.065870814 0.084430113 0.22829787
-0.065465935 0.084508799 0.22851063
-0.065029927 0.084548146 0.22861703
-0.064563446 0.084548146 0.22861703
-0.064096957 0.084548146 0.22861703
-0.063600861 0.084508799 0.22851063
-0.063193381 0.084587485 0.22872341
-0.062843375 0.084744856 0.22914894
-0.06249164 0.084902234 0.22957447
-0.062138166 0.085059606 0.23
-0.032778293 0.08946602 0.2419149
-0.032341462 0.089623392 0.24234043
-0.031902898 0.089780763 0.24276596
-0.031503882 0.090056166 0.24351063
-0.031088283 0.090292223 0.24414894
-0.030643422 0.090449594 0.24457447
-0.030118151 0.090370908 0.2443617
-0.029503485 0.09001682 0.24340425
-0.028892728 0.089662738 0.24244681
-0.028310798 0.089387335 0.24170212
-0.027805369 0.089347988 0.24159575
-0.027324427 0.089387335 0.24170212
-0.026866671 0.089505367 0.24202128
-0.026384426 0.089544706 0.24212766
-0.025901748 0.089584045 0.24223404
-0.025407478 0.089584045 0.24223404
-0.024913207 0.089584045 0.24223404
-0.024429662 0.089623392 0.24234043
-0.023945682 0.089662738 0.24244681
0.091565013 0.10665892 0.28840426
0.092153497 0.10665892 0.28840426
0.092707761 0.10661957 0.28829786
0.093296021 0.10661957 0.28829786
0.09395358 0.10669827 0.28851065
0.094716579 0.10689498 0.28904256
0.095446669 0.10705235 0.28946808
-0.12008463 0.077221289 0.20765957
-0.11990611 0.077379532 0.2080851
-0.11966477 0.077498212 0.20840426
-0.11923953 0.077498212 0.20840426
-0.11857169 0.07733997 0.20797873
-0.11742211 0.076865248 0.20670213
-0.11663905 0.076627895 0.20606384
-0.11615858 0.076588325 0.20595744
-0.11597746 0.076746568 0.20638297
-0.11585417 0.076944366 0.20691489
-0.11572871 0.077142172 0.20744681
-0.11548281 0.077260852 0.20776595
-0.11511779 0.077300414 0.20787235
-0.11475233 0.07733997 0.20797873
-0.11438643 0.077379532 0.2080851
-0.11407837 0.077458657 0.20829788
-0.11376943 0.077537768 0.20851064
-0.1134018 0.07757733 0.20861702
-0.11314896 0.07769601 0.20893617
-0.1130096 0.077893808 0.20946808
-0.11286808 0.078091614 0.20999999
-0.11261046 0.078210294 0.21031915
-0.1122948 0.078289412 0.21053192
-0.11186522 0.078289412 0.21053192
-0.11149194 0.078328975 0.2106383
-0.11117432 0.078408092 0.21085106
-0.11091171 0.078526773 0.21117021
-0.11064781 0.078645453 0.21148936
-0.11032715 0.078724571 0.21170212
-0.10989518 0.078724571 0.21170212
-0.10946321 0.078724571 0.21170212
-0.10897645 0.078685015 0.21159574
-0.10849012 0.078645453 0.21148936
-0.10800423 0.078605898 0.21138299
-0.10757291 0.078605898 0.21138299
-0.10714159 0.078605898 0.21138299
-0.10676397 0.078645453 0.21148936
-0.10638592 0.078685015 0.21159574
-0.10600743 0.078724571 0.21170212
-0.10557546 0.078724571 0.21170212
-0.10519633 0.078764141 0.21180852
-0.10481676 0.078803696 0.2119149
-0.10459396 0.078961939 0.21234043
-0.10431724 0.079080611 0.21265957
-0.10398725 0.079159737 0.21287234
-0.10360464 0.079199292 0.21297872
-0.1032216 0.079238854 0.2130851
-0.10283813 0.079278417 0.21319149
-0.10240312 0.079278417 0.21319149
-0.10196811 0.079278417 0.21319149
-0.1015331 0.079278417 0.21319149
-0.10109809 0.079278417 0.21319149
-0.10071331 0.07931798 0.21329787
-0.10042813 0.07943666 0.21361703
-0.10014163 0.079555333 0.21393616
-0.099804267 0.079634458 0.21414894
-0.099466026 0.079713576 0.2143617
-0.099028625 0.079713576 0.2143617
-0.098591231 0.079713576 0.2143617
-0.098202549 0.079753138 0.21446809
-0.097861916 0.079832256 0.21468085
-0.097520426 0.079911381 0.21489362
-0.097130001 0.079950936 0.215
-0.096739143 0.079990499 0.21510638
-0.096347854 0.080030054 0.21521276
-0.09600354 0.080109179 0.21542554
-0.095658354 0.080188297 0.21563829
-0.095312305 0.080267422 0.21585107
-0.095058896 0.080425657 0.2162766
-0.094803758 0.0805839 0.21670213
-0.094500549 0.080702573 0.21702127
-0.094057724 0.080702573 0.21702127
-0.09356901 0.080663018 0.21691489
-0.093126401 0.080663018 0.21691489
-0.092729248 0.080702573 0.21702127
-0.09237691 0.080781698 0.21723405
-0.092023686 0.080860816 0.2174468
-0.091669604 0.080939941 0.21765958
-0.091270067 0.080979496 0.21776596
-0.090825722 0.080979496 0.21776596
-0.090337224 0.080939941 0.21765958
-0.089849167 0.080900379 0.2175532
-0.089448974 0.080939941 0.21765958
-0.089091845 0.081019059 0.21787234
-0.08877714 0.081137739 0.21819149
-0.088418059 0.081216857 0.21840425
-0.088058122 0.081295982 0.21861702
-0.087697305 0.0813751 0.21882978
-0.087293208 0.081414662 0.21893618
-0.086888671 0.081454217 0.21904255
-0.086441725 0.081454217 0.21904255
-0.086078301 0.081533335 0.21925531
-0.085797116 0.081691578 0.21968085
-0.085472859 0.081810258 0.22
-0.085023955 0.081810258 0.22
-0.084493257 0.081731141 0.21978724
-0.083922751 0.08161246 0.21946809
-0.083394006 0.081533335 0.21925531
-0.082946621 0.081533335 0.21925531
-0.082659356 0.081691578 0.21968085
-0.082370348 0.081849821 0.22010638
-0.082000419 0.081928946 0.22031915
-0.081590243 0.081968501 0.22042553
-0.081101313 0.081928946 0.22031915
-0.080573872 0.081849821 0.22010638
-0.080047302 0.081770703 0.21989362
-0.079560108 0.081731141 0.21978724
-0.07918822 0.081810258 0.22
-0.078853548 0.081928946 0.22031915
-0.078479707 0.082008056 0.22053191
-0.077992074 0.081968501 0.22042553
-0.077542305 0.081968501 0.22042553
-0.077166952 0.082047626 0.2206383
-0.076901697 0.082245424 0.22117022
-0.076560721 0.082364097 0.22148935
-0.076181889 0.082443222 0.22170213
-0.075729512 0.082443222 0.22170213
-0.075313255 0.082482785 0.22180851
-0.074932478 0.082561903 0.22202128
-0.074479453 0.082561903 0.22202128
-0.073990948 0.08252234 0.22191489
-0.073502891 0.082482785 0.22180851
-0.07308533 0.08252234 0.22191489
-0.072702162 0.082601465 0.22212766
-0.072387323 0.082759701 0.22255319
-0.072036371 0.082878388 0.22287235
-0.071649939 0.082957506 0.22308511
-0.07122869 0.082997061 0.22319148
-0.070773274 0.082997061 0.22319148
-0.070317857 0.082997061 0.22319148
-0.069829144 0.082957506 0.22308511
-0.069440119 0.083036624 0.22329788
-0.069148809 0.083234422 0.22382979
-0.068855338 0.083432227 0.2243617
-0.068397529 0.083432227 0.2243617
-0.067907512 0.083392665 0.22425532
-0.067481928 0.083432227 0.2243617
-0.067151241 0.083590463 0.22478724
-0.065029927 0.085014634 0.22861703
-0.064563446 0.085014634 0.22861703
-0.064096957 0.085014634 0.22861703
-0.063630477 0.085014634 0.22861703
-0.063252158 0.085133307 0.22893617
-0.062901728 0.08529155 0.2293617
-0.032000758 0.090553038 0.24351063
-0.031613987 0.090869516 0.2443617
-0.031183105 0.091067322 0.24489361
-0.030710068 0.091146439 0.24510638
-0.030157488 0.090988204 0.24468085
-0.029555066 0.090671718 0.24382979
-0.028918082 0.09023656 0.24265957
-0.028323257 0.089920074 0.2418085
-0.027793126 0.089801401 0.24148937
-0.027300375 0.089801401 0.24148937
-0.026831241 0.089880519 0.24170212
-0.026361242 0.089959644 0.2419149
-0.025878998 0.089999199 0.24202128
-0.025396319 0.090038761 0.24212766
-0.024913207 0.090078317 0.24223404
-0.024429662 0.090117879 0.24234043
-0.023945682 0.090157442 0.24244681
0.091497466 0.10716828 0.2881915
0.09208551 0.10716828 0.2881915
0.092639342 0.10712872 0.2880851
0.09322717 0.10712872 0.2880851
0.093849644 0.10716828 0.2881915
0.09447255 0.10720783 0.28829786
0.09506081 0.10720783 0.28829786
-0.12013794 0.077406354 0.20702128
-0.11996159 0.077565461 0.20744681
-0.11984481 0.077764347 0.20797873
-0.11966477 0.077923454 0.20840426
-0.11917867 0.077883676 0.20829788
-0.11845038 0.07768479 0.20776595
-0.11760341 0.077406354 0.20702128
-0.11681969 0.077167682 0.20638297
-0.11627858 0.077088133 0.20617022
-0.11591768 0.077127911 0.2062766
-0.11567548 0.07724724 0.20659575
-0.11549132 0.077406354 0.20702128
-0.11524628 0.077525683 0.20734042
-0.11494105 0.07760524 0.20755319
-0.11457624 0.077645011 0.20765957
-0.11421099 0.07768479 0.20776595
-0.11384532 0.077724569 0.20787235
-0.1134792 0.077764347 0.20797873
-0.11317048 0.077843897 0.20819148
-0.1128609 0.077923454 0.20840426
-0.11266524 0.078082561 0.20882979
-0.11252502 0.078281447 0.2093617
-0.1122687 0.078400783 0.20968086
-0.1118976 0.078440554 0.20978723
-0.11152606 0.078480333 0.20989361
-0.1112104 0.07855989 0.21010639
-0.11100605 0.078718998 0.21053192
-0.11085584 0.078917883 0.21106383
-0.11064781 0.07907699 0.21148936
-0.11032715 0.07915654 0.21170212
-0.10989518 0.07915654 0.21170212
-0.1094082 0.079116769 0.21159574
-0.10886687 0.079037219 0.21138299
-0.10838097 0.078997433 0.21127659
-0.10794987 0.078997433 0.21127659
-0.10751876 0.078997433 0.21127659
-0.10708766 0.078997433 0.21127659
-0.10676397 0.07907699 0.21148936
-0.10638592 0.079116769 0.21159574
-0.10600743 0.07915654 0.21170212
-0.10557546 0.07915654 0.21170212
-0.10514349 0.07915654 0.21170212
-0.10481676 0.079236098 0.2119149
-0.10454156 0.079355426 0.21223404
-0.10426506 0.079474762 0.21255319
-0.10398725 0.079594098 0.21287234
-0.10360464 0.079633869 0.21297872
-0.1032216 0.079673648 0.2130851
-0.10278681 0.079673648 0.2130851
-0.10245422 0.079753205 0.21329787
-0.10206987 0.079792976 0.21340425
-0.10163443 0.079792976 0.21340425
-0.10124943 0.079832755 0.21351063
-0.10081377 0.079832755 0.21351063
-0.10047814 0.079912312 0.21372341
-0.10019144 0.080031648 0.21404256
-0.099853843 0.080111198 0.21425532
-0.099466026 0.080150969 0.2143617
-0.098930337 0.080071419 0.21414894
-0.098493375 0.080071419 0.21414894
-0.098056413 0.080071419 0.21414894
-0.097764932 0.080190755 0.21446809
-0.097423866 0.080270305 0.21468085
-0.097033881 0.080310084 0.21478723
-0.096643463 0.080349863 0.21489362
-0.096300229 0.080429412 0.21510638
-0.09600354 0.080548748 0.21542554
-0.095658354 0.080628298 0.21563829
-0.095312305 0.080707856 0.21585107
-0.095058896 0.080866963 0.2162766
-0.094850294 0.081065848 0.21680851
-0.094593197 0.081224956 0.21723405
-0.09414994 0.081224956 0.21723405
-0.093660794 0.081185184 0.21712767
-0.093217753 0.081185184 0.21712767
-0.092820168 0.081224956 0.21723405
-0.092512622 0.081344292 0.2175532
-0.092203774 0.08146362 0.21787234
-0.09180402 0.081503399 0.21797873
-0.091359243 0.081503399 0.21797873
-0.09087009 0.08146362 0.21787234
-0.090337224 0.08138407 0.21765958
-0.089805223 0.081304513 0.2174468
-0.089317814 0.081264734 0.21734042
-0.08896134 0.081344292 0.2175532
-0.088604003 0.081423841 0.21776596
-0.088288859 0.081543177 0.21808511
-0.08797241 0.081662506 0.21840425
-0.08761204 0.081742063 0.21861702
-0.087250784 0.081821613 0.21882978
-0.086846478 0.081861392 0.21893618
-0.086441725 0.08190117 0.21904255
-0.086078301 0.08198072 0.21925531
-0.085838668 0.082179613 0.21978724
-0.085596852 0.082378499 0.22031915
-0.085229523 0.082458049 0.22053191
-0.084697746 0.082378499 0.22031915
-0.084004112 0.082139827 0.21968085
-0.083394006 0.08198072 0.21925531
-0.082825892 0.081861392 0.21893618
-0.082459211 0.081940949 0.21914893
-0.082131483 0.082060277 0.21946809
-0.08180245 0.082179613 0.21978724
-0.081393354 0.082219385 0.21989362
-0.080905512 0.082179613 0.21978724
-0.080379151 0.082100056 0.21957447
-0.079853669 0.082020506 0.21936171
-0.079367556 0.08198072 0.21925531
-0.078920171 0.08198072 0.21925531
-0.078510873 0.082020506 0.21936171
-0.078025408 0.08198072 0.21925531
-0.077502742 0.08190117 0.21904255
-0.077093221 0.081940949 0.21914893
-0.076794878 0.082100056 0.21957447
-0.076494806 0.082259163 0.22
-0.076156221 0.082378499 0.22031915
-0.075670116 0.082338721 0.22021277
-0.075257115 0.082378499 0.22031915
-0.074915923 0.082497828 0.2206383
-0.074681148 0.082736492 0.2212766
-0.074301012 0.082816042 0.22148935
-0.073884539 0.082855821 0.22159575
-0.073326625 0.082736492 0.2212766
-0.07284008 0.082696714 0.22117022
-0.072423607 0.082736492 0.2212766
-0.072075903 0.082855821 0.22159575
-0.071726896 0.082975149 0.22191489
-0.071376592 0.083094485 0.22223404
-0.071024984 0.083213814 0.22255319
-0.07067208 0.08333315 0.22287235
-0.070183791 0.083293371 0.22276595
-0.06969595 0.083253592 0.22265957
-0.031223744 0.091686353 0.24521276
-0.030750055 0.091765903 0.24542554
-0.030144377 0.091447689 0.24457447
-0.02954217 0.091129474 0.24372341
-0.028918082 0.090731695 0.24265957
-0.028323257 0.090413481 0.2418085
-0.027793126 0.090294152 0.24148937
-0.027288347 0.090254366 0.24138297
-0.026819432 0.090333924 0.24159575
-0.026338058 0.090373702 0.24170212
-0.025867624 0.09045326 0.2419149
-0.025385162 0.090493038 0.24202128
-0.024913207 0.090572588 0.24223404
-0.024440385 0.090652145 0.24244681
-0.023956189 0.090691924 0.24255319
0.090775184 0.10759721 0.28776595
0.091362357 0.10759721 0.28776595
0.091949537 0.10759721 0.28776595
0.09253671 0.10759721 0.28776595
0.09312389 0.10759721 0.28776595
0.093676433 0.10755744 0.28765959
0.09426339 0.10755744 0.28765959
0.094850346 0.10755744 0.28765959
-0.12031254 0.077668793 0.20659575
-0.11995272 0.077708788 0.20670213
-0.11971552 0.077828772 0.20702128
-0.1195996 0.078028738 0.20755319
-0.11929826 0.078108728 0.20776595
-0.11881346 0.078068733 0.20765957
-0.11814713 0.077908754 0.20723404
-0.11754297 0.07778877 0.20691489
-0.11694013 0.077668793 0.20659575
-0.11633858 0.077548809 0.2062766
-0.11591768 0.077548809 0.2062766
-0.11549678 0.077548809 0.2062766
-0.11525393 0.077668793 0.20659575
-0.11500976 0.07778877 0.20691489
-0.1147643 0.077908754 0.20723404
-0.11440014 0.077948749 0.20734042
-0.11403555 0.077988751 0.20744681
-0.11367053 0.078028738 0.20755319
-0.11330507 0.078068733 0.20765957
-0.112997 0.078148723 0.20787235
-0.11268806 0.078228712 0.2080851
-0.11249305 0.078388691 0.20851064
-0.11229631 0.07854867 0.20893617
-0.11204086 0.078668654 0.20925532
-0.11167063 0.078708641 0.2093617
-0.11129995 0.078748636 0.20946808
-0.11104147 0.07886862 0.20978723
-0.11083777 0.079028599 0.21021277
-0.11068822 0.079228565 0.21074468
-0.11053649 0.079428539 0.21127659
-0.11021627 0.079508528 0.21148936
-0.10978473 0.079508528 0.21148936
-0.10929819 0.079468533 0.21138299
-0.10875729 0.079388544 0.21117021
-0.1083264 0.079388544 0.21117021
-0.10789552 0.079388544 0.21117021
-0.10751876 0.079428539 0.21127659
-0.10714159 0.079468533 0.21138299
-0.10681768 0.079548523 0.21159574
-0.1064929 0.079628512 0.21180852
-0.10606071 0.079628512 0.21180852
-0.10562852 0.079628512 0.21180852
-0.10514349 0.079588518 0.21170212
-0.10476415 0.079628512 0.21180852
-0.10448916 0.079748489 0.21212766
-0.10421287 0.079868473 0.21244681
-0.10388332 0.079948463 0.21265957
-0.10355289 0.080028452 0.21287234
-0.10317007 0.080068447 0.21297872
-0.10283813 0.080148436 0.21319149
-0.10250531 0.080228426 0.21340425
-0.10217164 0.080308415 0.21361703
-0.10178643 0.08034841 0.21372341
-0.10135033 0.08034841 0.21372341
-0.10096446 0.080388397 0.21382979
-0.10062818 0.080468394 0.21404256
-0.10039062 0.080628365 0.21446809
-0.10000259 0.08066836 0.21457447
-0.099515393 0.080628365 0.21446809
-0.098881193 0.080468394 0.21404256
-0.098297663 0.08034841 0.21372341
-0.097861566 0.08034841 0.21372341
-0.097570956 0.080468394 0.21404256
-0.097279035 0.080588371 0.2143617
-0.096937761 0.08066836 0.21457447
-0.096595615 0.080748349 0.21478723
-0.096300229 0.080868334 0.21510638
-0.09600354 0.080988318 0.21542554
-0.095705539 0.081108294 0.21574467
-0.095312305 0.081148297 0.21585107
-0.095058896 0.081308268 0.2162766
-0.094803758 0.081468247 0.21670213
-0.094593197 0.08166822 0.21723405
-0.094242156 0.081748202 0.2174468
-0.093798459 0.081748202 0.2174468
-0.093309097 0.081708208 0.21734042
-0.092956536 0.081788205 0.2175532
-0.092693575 0.081948176 0.21797873
-0.092338838 0.082028165 0.21819149
-0.091893628 0.082028165 0.21819149
-0.091359243 0.081948176 0.21797873
-0.090825722 0.081868187 0.21776596
-0.090248913 0.081748202 0.2174468
-0.089629479 0.081588224 0.21702127
-0.089142933 0.081548236 0.21691489
-0.08878734 0.081628226 0.21712767
-0.088474147 0.081748202 0.2174468
-0.088159658 0.081868187 0.21776596
-0.087843865 0.081988171 0.21808511
-0.087484136 0.08206816 0.21829787
-0.087123543 0.08214815 0.21851064
-0.086719878 0.082188144 0.21861702
-0.086273797 0.082188144 0.21861702
-0.085953012 0.082308128 0.21893618
-0.085755564 0.082548089 0.21957447
-0.085596852 0.082828052 0.22031915
-0.085352868 0.083028018 0.22085106
-0.084820434 0.082948036 0.2206383
-0.084126152 0.082708068 0.22
-0.083353542 0.08238811 0.21914893
-0.082584411 0.08206816 0.21829787
-0.082058929 0.081988171 0.21808511
-0.081653744 0.082028165 0.21819149
-0.081366904 0.082188144 0.21861702
-0.080999576 0.082268126 0.21882978
-0.080553062 0.082268126 0.21882978
-0.080067605 0.082228132 0.2187234
-0.079582587 0.082188144 0.21861702
-0.079097994 0.08214815 0.21851064
-0.078652129 0.08214815 0.21851064
-0.078130119 0.08206816 0.21829787
-0.077571116 0.081948176 0.21797873
-0.077013411 0.081828192 0.21765958
-0.07664413 0.081908181 0.21787234
-0.076422811 0.08214815 0.21851064
-0.076272868 0.0824681 0.21936171
-0.075751722 0.08238811 0.21914893
-0.075121775 0.082188144 0.21861702
-0.074675694 0.082188144 0.21861702
-0.074410222 0.08238811 0.21914893
-0.074358009 0.082828052 0.22031915
-0.074229635 0.083187997 0.2212766
-0.073813602 0.083227992 0.22138298
-0.073220864 0.083068013 0.22095744
-0.072734967 0.083028018 0.22085106
-0.072249509 0.082988024 0.22074468
-0.071902893 0.083108008 0.22106382
-0.071520589 0.083187997 0.2212766
-0.029477697 0.091426812 0.2431915
-0.02888005 0.091106854 0.24234043
-0.028298337 0.090826899 0.24159575
-0.027768638 0.090706907 0.24127659
-0.02727632 0.090706907 0.24127659
-0.026807623 0.090786904 0.24148937
-0.026326464 0.090826899 0.24159575
-0.025844872 0.090866886 0.24170212
-0.025385162 0.09098687 0.24202128
-0.024913207 0.09106686 0.24223404
-0.024451111 0.091186844 0.24255319
-0.023956189 0.091186844 0.24255319
0.09060739 0.10798442 0.28723404
0.091193482 0.10798442 0.28723404
0.091779575 0.10798442 0.28723404
0.09239988 0.10802442 0.28734043
0.09295176 0.10798442 0.28723404
0.093537852 0.10798442 0.28723404
0.094089083 0.10794443 0.28712767
0.09467496 0.10794443 0.28712767
-0.1207341 0.078090347 0.20659575
-0.12025058 0.078050129 0.20648935
-0.11976752 0.078009918 0.20638297
-0.11940791 0.078050129 0.20648935
-0.11904789 0.078090347 0.20659575
-0.11862634 0.078090347 0.20659575
-0.11814391 0.078050129 0.20648935
-0.11760128 0.077969708 0.2062766
-0.11718038 0.077969708 0.2062766
-0.11675948 0.077969708 0.2062766
-0.11633858 0.077969708 0.2062766
-0.1158579 0.077929504 0.20617022
-0.11543722 0.077929504 0.20617022
-0.11513522 0.078009918 0.20638297
-0.1148915 0.078130558 0.20670213
-0.11464648 0.07825119 0.20702128
-0.11434145 0.078331612 0.20723404
-0.11397707 0.078371823 0.20734042
-0.11361226 0.078412041 0.20744681
-0.11324702 0.078452244 0.20755319
-0.11293917 0.078532666 0.20776595
-0.11268806 0.078653306 0.2080851
-0.11249305 0.078814149 0.20851064
-0.11229631 0.078974992 0.20893617
-0.11204086 0.079095632 0.20925532
-0.11167063 0.079135843 0.2093617
-0.11129995 0.079176046 0.20946808
-0.11098516 0.079256475 0.20968086
-0.11078168 0.079417318 0.21010639
-0.11057647 0.079578169 0.21053192
-0.11031386 0.079698794 0.21085106
-0.11004994 0.079819433 0.21117021
-0.10961906 0.079819433 0.21117021
-0.10918817 0.079819433 0.21117021
-0.1087025 0.079779223 0.21106383
-0.10827183 0.079779223 0.21106383
-0.10789552 0.079819433 0.21117021
-0.10751876 0.079859644 0.21127659
-0.10714159 0.079899855 0.21138299
-0.10681768 0.079980277 0.21159574
-0.1064394 0.080020487 0.21170212
-0.10606071 0.080060698 0.21180852
-0.10557546 0.080020487 0.21170212
-0.10509066 0.079980277 0.21159574
-0.10471153 0.080020487 0.21170212
-0.10438436 0.080100909 0.2119149
-0.10405632 0.08018133 0.21212766
-0.10372742 0.080261759 0.21234043
-0.10334589 0.08030197 0.21244681
-0.103067 0.080422603 0.21276596
-0.10278681 0.080543235 0.2130851
-0.10255641 0.080704078 0.21351063
-0.1022734 0.08082471 0.21382979
-0.10193842 0.080905139 0.21404256
-0.10155212 0.08094535 0.21414894
-0.10116538 0.080985561 0.21425532
-0.10082824 0.081065983 0.21446809
-0.10054001 0.081186615 0.21478723
-0.10015133 0.081226826 0.21489362
-0.099564753 0.081106193 0.21457447
-0.098782897 0.08082471 0.21382979
-0.098150872 0.080663867 0.21340425
-0.097666718 0.080623657 0.21329787
-0.09737698 0.080744296 0.21361703
-0.09713421 0.080905139 0.21404256
-0.096841641 0.081025772 0.2143617
-0.096595615 0.081186615 0.21478723
-0.096347854 0.081347458 0.21521276
-0.096050948 0.081468098 0.21553192
-0.095705539 0.081548512 0.21574467
-0.095312305 0.08158873 0.21585107
-0.095012136 0.081709363 0.21617021
-0.094803758 0.081910424 0.21670213
-0.094639525 0.082151689 0.21734042
-0.094334371 0.082272321 0.21765958
-0.093890242 0.082272321 0.21765958
-0.093400441 0.08223211 0.2175532
-0.09304744 0.082312532 0.21776596
-0.092784055 0.082473375 0.21819149
-0.092383862 0.082513586 0.21829787
-0.09180402 0.082392961 0.21797873
-0.091225483 0.082272321 0.21765958
-0.090648241 0.082151689 0.21734042
-0.090072304 0.082031049 0.21702127
-0.089453734 0.081870206 0.21659574
-0.088968061 0.081829995 0.21648936
-0.088613331 0.081910424 0.21670213
-0.088344291 0.082071267 0.21712767
-0.088073522 0.08223211 0.2175532
-0.087758161 0.082352743 0.21787234
-0.087441504 0.082473375 0.21819149
-0.087038703 0.082513586 0.21829787
-0.086593278 0.082513586 0.21829787
-0.086147845 0.082513586 0.21829787
-0.085869476 0.082674429 0.2187234
-0.084166825 0.083197176 0.22010638
-0.083313085 0.082795069 0.21904255
-0.082463674 0.082392961 0.21797873
-0.081698671 0.082071267 0.21712767
-0.081175998 0.081990838 0.21691489
-0.080812588 0.082071267 0.21712767
-0.080527052 0.08223211 0.2175532
-0.08016146 0.082312532 0.21776596
-0.079756059 0.082352743 0.21787234
-0.079388954 0.082433164 0.21808511
-0.078982465 0.082473375 0.21819149
-0.07849896 0.082433164 0.21808511
-0.077939741 0.082312532 0.21776596
-0.077343963 0.082151689 0.21734042
-0.076787561 0.082031049 0.21702127
-0.074312314 0.08223211 0.2175532
-0.028803982 0.09136007 0.24170212
-0.028260954 0.091199227 0.24127659
-0.027744152 0.091118805 0.24106383
-0.027264295 0.091159016 0.24117021
-0.026795814 0.091239437 0.24138297
-0.026314873 0.091279656 0.24148937
-0.025833497 0.091319866 0.24159575
-0.025362846 0.091400281 0.2418085
-0.024902267 0.09152092 0.24212766
-0.024429662 0.091601342 0.24234043
-0.023945682 0.091641553 0.24244681
0.091058388 0.10840967 0.28680852
0.091677599 0.10844988 0.28691489
0.092297249 0.10849009 0.28702128
0.092882909 0.10849009 0.28702128
0.093433917 0.10844988 0.28691489
0.0939845 0.10840967 0.28680852
-0.12012669 0.078390613 0.2062766
-0.11958232 0.078309759 0.20606384
-0.11903881 0.078228898 0.20585106
