# .PCD v0.7 - Point Cloud Data file format
VERSION 0.7
FIELDS x y z
SIZE 4 4 4
TYPE F F F
COUNT 1 1 1
WIDTH 1341
HEIGHT 1
VIEWPOINT 0 0 0 1 0 0 0
POINTS 1341
DATA ascii
-0.12809558 -0.071286976 0.23510106
-0.12838031 -0.071699925 0.23742336
-0.12861478 -0.072047703 0.23958939
-0.12880436 -0.072231501 0.24144231
-0.128943 -0.072574042 0.24292521
-0.12900217 -0.072968647 0.24413267
-0.12901559 -0.073514469 0.24534293
-0.12902887 -0.073930264 0.24633245
-0.12901968 -0.074224859 0.24698929
-0.12900451 -0.074439399 0.24745765
-0.12899423 -0.074597344 0.24780309
-0.12898612 -0.074658081 0.24813049
-0.12895536 -0.074921705 0.24869066
-0.1289033 -0.075217098 0.24947128
-0.12882 -0.075576022 0.25042871
-0.12874785 -0.075897448 0.2511732
-0.12867071 -0.076228298 0.25186428
-0.1285692 -0.076686218 0.25272354
-0.12845144 -0.077140793 0.25363764
-0.12831841 -0.077390827 0.25459197
-0.12816879 -0.077635214 0.25558034
-0.12805648 -0.077875912 0.25633314
-0.12796521 -0.078098968 0.25695297
-0.12788278 -0.078200467 0.25755358
-0.12780662 -0.078356363 0.25807419
-0.12772831 -0.078525566 0.25863317
-0.12763093 -0.078672916 0.25930065
-0.12748873 -0.079014882 0.26029855
-0.12734814 -0.079305328 0.26129949
-0.12721393 -0.079636514 0.26227993
-0.12708841 -0.079943225 0.2631816
-0.12699541 -0.080241889 0.26387531
-0.12687671 -0.080475159 0.26469788
-0.12676977 -0.080695339 0.26544949
-0.12664032 -0.081040561 0.2663618
-0.12653254 -0.081264213 0.26718774
-0.12644279 -0.081478663 0.26787937
-0.12632295 -0.08170408 0.26881188
-0.12620074 -0.081966154 0.26972848
-0.12605903 -0.082237825 0.27080199
-0.12592207 -0.082584955 0.2718322
-0.12576617 -0.082964085 0.27302891
-0.12564275 -0.083228402 0.27394718
-0.12552091 -0.08342886 0.27481395
-0.12542611 -0.083582982 0.27541471
-0.1253559 -0.083764255 0.27593088
-0.12522249 -0.084007554 0.27687302
-0.12507041 -0.084329121 0.27803689
-0.12491909 -0.084619358 0.27924329
-0.12479512 -0.084937818 0.28028294
-0.12469777 -0.085196659 0.2810877
-0.12459195 -0.085405946 0.281923
-0.12446975 -0.085567631 0.28280848
-0.12432198 -0.085875541 0.28393084
-0.12417913 -0.086197011 0.28497109
-0.12400866 -0.086822174 0.28627056
-0.12384499 -0.087315582 0.2876299
-0.12370098 -0.087788552 0.28890207
-0.12357776 -0.088125676 0.29005092
-0.12348908 -0.088457815 0.2909897
-0.12344024 -0.088667251 0.29157773
-0.12337104 -0.089077145 0.29249442
-0.12327898 -0.089387946 0.29359218
-0.12309635 -0.089863122 0.29540393
-0.12286469 -0.090398319 0.29737833
-0.12264886 -0.090964615 0.29914191
-0.12245759 -0.091583788 0.30075732
-0.12225714 -0.091937348 0.30223173
-0.12211808 -0.092121258 0.30312794
-0.12199379 -0.092252828 0.30387661
-0.1217643 -0.092321716 0.30490938
-0.12159595 -0.092557661 0.30588177
-0.12142228 -0.0928872 0.306871
-0.12124038 -0.093355164 0.30783388
-0.12110735 -0.093788616 0.30856007
-0.12095819 -0.094290078 0.30935335
-0.12084083 -0.094746731 0.31000286
-0.1206968 -0.095385209 0.31077203
-0.12059922 -0.095816426 0.3113721
-0.12047361 -0.096353561 0.31211498
-0.12037845 -0.096794203 0.31274045
-0.12030289 -0.097155817 0.31332541
-0.12026076 -0.097208597 0.313517
-0.12989166 -0.062454235 0.21205419
-0.12987152 -0.062506184 0.21213765
-0.12983304 -0.062570654 0.21228826
-0.1298147 -0.062689021 0.21240243
-0.1297621 -0.062856264 0.21263759
-0.12971324 -0.063101709 0.21291007
-0.12964882 -0.063383393 0.2132532
-0.12959449 -0.063618645 0.21355385
-0.12953809 -0.063839205 0.21386349
-0.12949267 -0.063975595 0.21408983
-0.12946914 -0.064059809 0.2142213
-0.1294204 -0.064200155 0.21446672
-0.12938014 -0.064353041 0.21468991
-0.12932692 -0.064576522 0.21500577
-0.12925376 -0.064944789 0.21547125
-0.12916875 -0.06529709 0.21596135
-0.12908632 -0.065552756 0.21639316
-0.12901534 -0.065793671 0.21675484
-0.12894088 -0.06594532 0.21711738
-0.12887995 -0.066091269 0.21740043
-0.12879394 -0.066193923 0.21775907
-0.1286753 -0.066360131 0.21825607
-0.12858917 -0.066522568 0.21863629
-0.12851499 -0.066623971 0.21895391
-0.12843065 -0.066741295 0.21935563
-0.12833576 -0.06696862 0.21985079
-0.12823133 -0.067204289 0.22043759
-0.12811157 -0.06754335 0.22114308
-0.1280002 -0.067861788 0.22188018
-0.1279103 -0.068121187 0.22255127
-0.12785572 -0.068238012 0.22294353
-0.12780792 -0.068418153 0.22336794
-0.12775953 -0.068586044 0.22373445
-0.12771372 -0.068850234 0.22421329
-0.12767579 -0.069072425 0.22478229
-0.1276308 -0.069393463 0.2254701
-0.12761076 -0.069665194 0.22615591
-0.12760374 -0.069858842 0.22684984
-0.12763961 -0.070085526 0.22789888
-0.12771481 -0.070299722 0.22932243
-0.12782556 -0.070363112 0.2313191
-0.12796423 -0.07056798 0.23341393
-0.12824304 -0.070866436 0.23594965
-0.12848002 -0.071322151 0.23797667
-0.12867615 -0.071529523 0.23981766
-0.12883379 -0.071737804 0.24140583
-0.12896408 -0.072036192 0.24278706
-0.12900706 -0.072457872 0.24392426
-0.12902838 -0.073048592 0.24531077
-0.1290396 -0.073520571 0.24634075
-0.12902072 -0.073863186 0.24705482
-0.12901261 -0.074038617 0.24755728
-0.12899929 -0.074150935 0.24788769
-0.12898879 -0.074250594 0.24815145
-0.12896076 -0.074420869 0.24865527
-0.12890877 -0.074700892 0.24936844
-0.12884426 -0.074961655 0.2501612
-0.128764 -0.075367793 0.2509926
-0.12867656 -0.075769484 0.25179103
-0.12856121 -0.076207183 0.2527748
-0.12842503 -0.076616287 0.25383592
-0.12828518 -0.07691934 0.25481942
-0.12816218 -0.077121712 0.25563726
-0.12804067 -0.07734628 0.25643504
-0.12792572 -0.077603817 0.2572374
-0.12785737 -0.077768438 0.25772944
-0.1277789 -0.077918172 0.25826576
-0.1277101 -0.078059807 0.25876853
-0.12761654 -0.07820724 0.25939706
-0.12751515 -0.078404427 0.26010612
-0.1273627 -0.078735992 0.2611329
-0.1272441 -0.079065248 0.2619808
-0.12714151 -0.079291172 0.26272422
-0.12701708 -0.079577513 0.26362285
-0.12688695 -0.07987684 0.26453182
-0.12675886 -0.080182992 0.26544359
-0.12661451 -0.08053004 0.26645687
-0.12650646 -0.080780081 0.26727664
-0.12641476 -0.08098159 0.26802176
-0.12627171 -0.081233338 0.26910418
-0.12617365 -0.081475444 0.2698479
-0.12605476 -0.081752233 0.27077413
-0.12592761 -0.082015015 0.27173448
-0.12579216 -0.082268856 0.27271128
-0.1256714 -0.08250507 0.2735672
-0.12557438 -0.082680568 0.27426475
-0.12550098 -0.082871199 0.2748329
-0.12538908 -0.083026975 0.27560669
-0.12525722 -0.083339885 0.27655572
-0.1250837 -0.083650269 0.2778829
-0.12490974 -0.084116787 0.27930838
-0.12477132 -0.084430926 0.28046566
-0.12466597 -0.084691942 0.28126672
-0.12457596 -0.084821917 0.28195703
-0.12446395 -0.085017391 0.28279635
-0.12432972 -0.085232981 0.28376079
-0.12418287 -0.085544728 0.28478685
-0.12400418 -0.086027227 0.28608686
-0.12382507 -0.086659975 0.28753522
-0.12368958 -0.087152772 0.28871071
-0.12356344 -0.087488145 0.28987688
-0.12348139 -0.087795004 0.29066101
-0.12342317 -0.088048115 0.29137281
-0.12336506 -0.088303611 0.29206604
-0.12327301 -0.088646144 0.29321933
-0.12308589 -0.089149922 0.29512173
-0.12284105 -0.08987882 0.29736736
-0.12261293 -0.09041477 0.29923701
-0.1224046 -0.091082133 0.30099821
-0.12221844 -0.091357879 0.30232984
-0.1220842 -0.09159708 0.30322927
-0.12195985 -0.091698885 0.30392489
-0.12174816 -0.091723964 0.30490929
-0.12156743 -0.09186478 0.30588183
-0.12140717 -0.09231095 0.30688849
-0.12123141 -0.092799395 0.3078202
-0.12108017 -0.093256034 0.30861753
-0.12092707 -0.09381564 0.30937693
-0.12080847 -0.094267175 0.30999866
-0.12071182 -0.09459845 0.31046078
-0.12062244 -0.094978124 0.31096309
-0.12048622 -0.09546566 0.31171352
-0.12038147 -0.095989078 0.31240609
-0.12029471 -0.096513934 0.31308368
-0.12023701 -0.096760273 0.3134478
-0.12986292 -0.062002074 0.21196271
-0.12984018 -0.061961461 0.2120235
-0.12980452 -0.062049184 0.21217363
-0.12978259 -0.062216941 0.21232414
-0.12973408 -0.062406953 0.21256201
-0.12968534 -0.062660612 0.21283717
-0.12962757 -0.062876694 0.21312743
-0.12956418 -0.063163534 0.21347393
-0.12950288 -0.063361555 0.2137935
-0.12945816 -0.063508436 0.2140184
-0.12942545 -0.063658513 0.21420322
-0.12938395 -0.063767008 0.21441787
-0.12933436 -0.063972376 0.21469679
-0.12927575 -0.064228728 0.21504828
-0.12920991 -0.064496569 0.21544293
-0.12913729 -0.064820528 0.2158781
-0.12907465 -0.065075129 0.21623334
-0.12900662 -0.065266632 0.21657433
-0.12892742 -0.065476872 0.21697201
-0.12886624 -0.065548562 0.21724617
-0.12876967 -0.065757722 0.21769315
-0.12864439 -0.065916143 0.21821098
-0.12855969 -0.066086441 0.21861261
-0.12848905 -0.066200092 0.21891233
-0.12842172 -0.066275842 0.21921617
-0.12832421 -0.066489987 0.21975029
-0.12821881 -0.066770494 0.22031642
-0.1280936 -0.067093991 0.22111243
-0.12798652 -0.067394979 0.22186328
-0.12791239 -0.067650698 0.22244683
-0.12784415 -0.067868121 0.22296076
-0.12780018 -0.068047166 0.2234053
-0.12775612 -0.068199046 0.22387543
-0.12772277 -0.068415791 0.22431171
-0.12767337 -0.068686575 0.22483286
-0.1276485 -0.068929285 0.22545569
-0.1276298 -0.069083184 0.22592048
-0.12762213 -0.069362462 0.22669372
-0.12767318 -0.069567986 0.22802931
-0.12777777 -0.069831915 0.22983585
-0.12789944 -0.069905676 0.23194815
-0.12814318 -0.07009346 0.23469445
-0.12838508 -0.070391871 0.23671713
-0.12860127 -0.070852794 0.23868556
-0.12873682 -0.07104788 0.24001856
-0.12887119 -0.0711741 0.24130632
-0.12896718 -0.071479209 0.24256156
-0.12902844 -0.071904115 0.24376699
-0.12903982 -0.072516881 0.24507941
-0.12904347 -0.072933108 0.24609601
-0.12902847 -0.073284976 0.2468836
-0.12902452 -0.073456459 0.24725313
-0.12900238 -0.073622502 0.24775383
-0.12899294 -0.073766813 0.24800242
-0.12896648 -0.073923379 0.24859823
-0.1289167 -0.074133299 0.24920143
-0.12884615 -0.074489288 0.25012481
-0.12875392 -0.07491482 0.25103694
-0.1286532 -0.075312436 0.25196528
-0.12853661 -0.075790763 0.25293496
-0.1284198 -0.076085068 0.25384298
-0.12828033 -0.076401331 0.25483987
-0.12815608 -0.076642498 0.25567845
-0.12804985 -0.076868996 0.25638843
-0.12793297 -0.077086523 0.25719073
-0.12785754 -0.07723707 0.25772762
-0.12777783 -0.077385418 0.25827283
-0.12772346 -0.077489637 0.25865951
-0.12763557 -0.077630036 0.25925234
-0.12753932 -0.077812277 0.2599023
-0.12741691 -0.078121923 0.26073617
-0.12728772 -0.078373924 0.2616289
-0.12716302 -0.07867121 0.26250869
-0.12704775 -0.078892037 0.26331064
-0.12690836 -0.079226993 0.26429752
-0.12675893 -0.079603866 0.26534376
-0.12660293 -0.079962917 0.26646966
-0.12644722 -0.080320135 0.26765698
-0.12634166 -0.080609933 0.26848209
-0.12623186 -0.080822319 0.26933685
-0.12612951 -0.081004299 0.2701056
-0.12602852 -0.081243671 0.27089366
-0.12592888 -0.081502236 0.27161345
-0.12580641 -0.081688337 0.27251074
-0.12569897 -0.081858702 0.27329192
-0.12558714 -0.08211796 0.27412784
-0.1254985 -0.082211055 0.27471751
-0.12537402 -0.082475744 0.27564642
-0.12524329 -0.082764849 0.27662763
-0.12506895 -0.083140641 0.27800739
-0.12490692 -0.083521344 0.27933198
-0.12476853 -0.083838403 0.28043696
-0.12464502 -0.08414147 0.28138345
-0.12455712 -0.084314197 0.28202552
-0.12444714 -0.084470548 0.2828328
-0.12431437 -0.084672682 0.28376794
-0.12416337 -0.084931046 0.28480715
-0.12399217 -0.085462637 0.28603962
-0.12382028 -0.08601898 0.28736222
-0.12367859 -0.08649265 0.28854892
-0.12354716 -0.086879708 0.28974462
-0.12347858 -0.087133951 0.29037014
-0.12338796 -0.087374769 0.29131684
-0.12333529 -0.087667115 0.2919383
-0.12322514 -0.088150397 0.29341039
-0.12303127 -0.088645957 0.29532927
-0.1227823 -0.089305468 0.29757833
-0.122564 -0.089906499 0.29943642
-0.12233886 -0.090554722 0.30126095
-0.12217141 -0.090857446 0.30253267
-0.12205043 -0.090930246 0.30331936
-0.12191974 -0.091125064 0.30404574
-0.1216757 -0.091045663 0.30510643
-0.12153966 -0.091277555 0.3059507
-0.12141465 -0.091623127 0.30677032
-0.12123065 -0.092289858 0.3077901
-0.12107188 -0.092727989 0.30859134
-0.12093823 -0.093199797 0.30924132
-0.12083967 -0.093608715 0.30972728
-0.12077069 -0.09388452 0.31006676
-0.12066742 -0.094014734 0.31050834
-0.12056383 -0.094399996 0.31106266
-0.12042621 -0.094877303 0.31186634
-0.12031263 -0.095435821 0.31258211
-0.12024765 -0.095912702 0.31303626
-0.12983297 -0.061511904 0.21186703
-0.12980185 -0.061568897 0.21199302
-0.12976217 -0.061638787 0.21215761
-0.12973653 -0.06181756 0.21232527
-0.12969239 -0.062032737 0.21255681
-0.12964979 -0.062289529 0.21282391
-0.1295886 -0.06245305 0.21310864
-0.12953198 -0.062696405 0.2134072
-0.12947534 -0.062910713 0.21371771
-0.12942673 -0.063085213 0.21397015
-0.12938471 -0.063224241 0.21417801
-0.12933487 -0.063369632 0.21443251
-0.12928829 -0.063560888 0.21470143
-0.12923811 -0.063785866 0.21500209
-0.12917195 -0.064067408 0.21539888
-0.12911135 -0.064336173 0.21575931
-0.12905234 -0.064518072 0.21608824
-0.12900439 -0.064648323 0.2163302
-0.12893319 -0.064908043 0.21672904
-0.12886049 -0.065042481 0.21706091
-0.12878221 -0.065261595 0.21745861
-0.12864408 -0.065439932 0.2180378
-0.12853688 -0.065605626 0.21850866
-0.12847142 -0.06572327 0.21881887
-0.12839971 -0.065871671 0.21916884
-0.12831356 -0.066034839 0.21965748
-0.12821178 -0.066311941 0.22021849
-0.12809712 -0.066615611 0.22093451
-0.12799717 -0.066885509 0.22164936
-0.12792128 -0.067137994 0.22226767
-0.12785143 -0.067370176 0.22286078
-0.12779602 -0.067621008 0.22346118
-0.12776275 -0.067840025 0.22393924
-0.12771767 -0.068082973 0.22446613
-0.12768477 -0.06823872 0.22482486
-0.12767412 -0.068414345 0.22534396
-0.12764515 -0.068614997 0.22584681
-0.12765037 -0.068819843 0.22661686
-0.12773243 -0.069108903 0.22831668
-0.12784876 -0.06932082 0.23039357
-0.12800483 -0.069442704 0.23276469
-0.12828933 -0.069606073 0.23555057
-0.12854174 -0.070002362 0.23764227
-0.12870134 -0.070276521 0.23916876
-0.12880221 -0.070518911 0.24019843
-0.12891449 -0.070693776 0.2413822
-0.12899451 -0.071035735 0.24257143
-0.12904511 -0.071431577 0.24376155
-0.12906076 -0.071935385 0.24488775
-0.12904707 -0.072402127 0.24583578
-0.12904809 -0.072673701 0.24652876
-0.12903309 -0.07288605 0.24699521
-0.12901595 -0.073017754 0.24743834
-0.12899593 -0.073236853 0.24791844
-0.12896974 -0.073410153 0.2484546
-0.12892012 -0.073636241 0.24915457
-0.12883775 -0.074056871 0.25016078
-0.1287296 -0.074554935 0.25121707
-0.12863132 -0.07494089 0.25213438
-0.12852828 -0.075336806 0.25296825
-0.12841277 -0.075617395 0.25386479
-0.12829648 -0.075862087 0.25471327
-0.12817751 -0.076136835 0.25552994
-0.12806176 -0.076341189 0.25631154
-0.1279563 -0.076556824 0.25704697
-0.12787537 -0.076689221 0.25760883
-0.12779696 -0.076830678 0.25814551
-0.12772729 -0.076917037 0.25862333
-0.12764855 -0.077136658 0.25916952
-0.12757385 -0.077256456 0.25965381
-0.12744364 -0.077550866 0.26055118
-0.12730907 -0.077818528 0.261462
-0.12717499 -0.078095898 0.26238036
-0.12706096 -0.078363851 0.26318794
-0.12693234 -0.078630194 0.26407593
-0.12678574 -0.078948364 0.26509783
-0.12661089 -0.079324856 0.2663331
-0.12645547 -0.079687066 0.26748395
-0.1263206 -0.080051474 0.26855239
-0.12621176 -0.080297887 0.26940784
-0.12612545 -0.080469355 0.27006087
-0.12603457 -0.080686115 0.27075166
-0.12593172 -0.08094544 0.27151039
-0.12581117 -0.081094384 0.27239221
-0.12568672 -0.08134798 0.27329388
-0.12555602 -0.081540905 0.27423564
-0.12544636 -0.081810556 0.27505288
-0.12532999 -0.082068868 0.27594984
-0.12519898 -0.082326233 0.27696738
-0.12506145 -0.082621954 0.27808666
-0.12491733 -0.082924716 0.27924106
-0.12476681 -0.083334163 0.28043413
-0.12461347 -0.083615892 0.28156587
-0.12450758 -0.083833635 0.28234836
-0.12440178 -0.083985284 0.28311574
-0.12427582 -0.084156983 0.28396565
-0.12413566 -0.084373072 0.28489724
-0.12398205 -0.084788643 0.28596646
-0.12379994 -0.085407928 0.2873114
-0.12365714 -0.085782222 0.28847438
-0.123534 -0.086207129 0.28955331
-0.12344506 -0.086411223 0.29028866
-0.12335401 -0.086744979 0.29130191
-0.12328345 -0.087014146 0.29205105
-0.12315204 -0.087679066 0.29372618
-0.12296105 -0.088173717 0.29566199
-0.12273885 -0.088749811 0.29769796
-0.12250852 -0.089425981 0.29970515
-0.12229503 -0.089959681 0.3014265
-0.12211118 -0.090346754 0.30283251
-0.12199062 -0.090315938 0.30356035
-0.12177525 -0.09033794 0.30464447
-0.12162611 -0.09051019 0.30528644
-0.12151428 -0.090749286 0.30604842
-0.12140133 -0.091138028 0.30679813
-0.12123011 -0.09172646 0.30778852
-0.12105965 -0.092242874 0.30861804
-0.12095384 -0.092616715 0.30909917
-0.12087725 -0.092849143 0.30946356
-0.12083595 -0.092952661 0.30964047
-0.12076858 -0.093173631 0.30990961
-0.12065785 -0.093471043 0.31042284
-0.12050767 -0.094011873 0.31119785
-0.12039342 -0.094382621 0.31183347
-0.12031198 -0.094666824 0.31231597
-0.12978554 -0.06109586 0.21186443
-0.1297607 -0.061188843 0.21200034
-0.12973073 -0.061302438 0.21214424
-0.12968297 -0.061472267 0.21237731
-0.12964937 -0.061713789 0.21260671
-0.12961291 -0.061917059 0.2128202
-0.1295459 -0.062083218 0.2131283
-0.12948786 -0.062296879 0.21343692
-0.12943885 -0.062538251 0.21370964
-0.12938461 -0.062707089 0.21397661
-0.1293314 -0.062856898 0.21424159
-0.12928879 -0.063010104 0.21446165
-0.12925346 -0.063160367 0.21466692
-0.12920462 -0.063353471 0.21494995
-0.12913878 -0.063566782 0.21531415
-0.1290969 -0.063784383 0.21557656
-0.12903802 -0.063929044 0.21589524
-0.12898965 -0.064140804 0.21618162
-0.12893467 -0.064302735 0.21647067
-0.12884982 -0.064496361 0.21688786
-0.12875865 -0.064768106 0.21736433
-0.12862624 -0.064946987 0.21795376
-0.12852003 -0.065135062 0.21842048
-0.12845297 -0.065235719 0.21874437
-0.12839018 -0.065359384 0.21905442
-0.12830572 -0.065532468 0.21953773
-0.12820619 -0.065824486 0.22009346
-0.12809701 -0.066140689 0.22080714
-0.12799817 -0.066404067 0.22152635
-0.12791906 -0.066662699 0.22217713
-0.12785724 -0.066872418 0.22273232
-0.12781097 -0.067153074 0.22327994
-0.12776634 -0.067368194 0.22387673
-0.12772559 -0.067654826 0.22440678
-0.12770358 -0.067794554 0.2249327
-0.12769108 -0.067970932 0.2253333
-0.12768008 -0.068101257 0.22586833
-0.12768108 -0.068343922 0.22674486
-0.12778755 -0.06863872 0.22870116
-0.12792334 -0.068819791 0.23097727
-0.12811784 -0.068928622 0.23356771
-0.12840402 -0.069208063 0.23615971
-0.12862404 -0.069454633 0.23794039
-0.12875843 -0.069748983 0.23929173
-0.1288548 -0.069956124 0.24034514
-0.12896262 -0.070228778 0.24151805
-0.12902106 -0.070608288 0.24264491
-0.12906314 -0.071007609 0.24381159
-0.12907517 -0.071491793 0.24490917
-0.12905787 -0.07193359 0.24575871
-0.12906003 -0.072183043 0.2463388
-0.1290362 -0.072356857 0.24685819
-0.12901978 -0.072510399 0.24733381
-0.12900107 -0.07271561 0.24774231
-0.12896781 -0.072911285 0.24835739
-0.12890449 -0.073227823 0.2492779
-0.12880559 -0.073781453 0.25038609
-0.12870219 -0.07413578 0.25139618
-0.12861711 -0.074522443 0.25218654
-0.1285264 -0.074779928 0.25293574
-0.12842883 -0.075075969 0.25369582
-0.12832265 -0.075318769 0.25448832
-0.12820412 -0.07557641 0.25532466
-0.12808014 -0.075801872 0.25617874
-0.12798037 -0.075953908 0.25686485
-0.12788177 -0.076131225 0.25755113
-0.1278079 -0.076289184 0.25805926
-0.12774454 -0.07641916 0.25851411
-0.12767217 -0.076533534 0.25900429
-0.12756953 -0.076740801 0.25969157
-0.1274302 -0.076990671 0.260631
-0.12727635 -0.077340893 0.26168925
-0.12713964 -0.07762479 0.26260531
-0.12702064 -0.077875905 0.2634283
-0.12692951 -0.078096241 0.26407632
-0.12681146 -0.078321926 0.26488358
-0.12665112 -0.07868024 0.26602295
-0.12647985 -0.07903073 0.26725158
-0.12632775 -0.079436213 0.26842532
-0.12621343 -0.079744287 0.26929048
-0.12613054 -0.079898119 0.26992324
-0.12604123 -0.080094181 0.27059788
-0.12594505 -0.080298647 0.2713432
-0.1258184 -0.080547057 0.27228633
-0.12565474 -0.080847338 0.27346155
-0.1255057 -0.081139848 0.27455187
-0.12536897 -0.081423074 0.27560884
-0.12525374 -0.081634976 0.27652609
-0.12514752 -0.081841417 0.27739188
-0.12505598 -0.082025543 0.27812502
-0.1249335 -0.082370102 0.27911735
-0.12478638 -0.082695767 0.28028065
-0.12462614 -0.083023898 0.28145364
-0.12447718 -0.08324492 0.28252357
-0.12435471 -0.08347737 0.28337452
-0.12425752 -0.0836289 0.28403866
-0.12410758 -0.083912849 0.28502086
-0.12394635 -0.084203474 0.28610384
-0.12378711 -0.084667541 0.28717637
-0.12362549 -0.085214265 0.28849784
-0.12351014 -0.08549954 0.28941682
-0.12342669 -0.085831955 0.29021031
-0.12332975 -0.086062759 0.29109523
-0.12322346 -0.086495385 0.29232901
-0.1230875 -0.087053761 0.29395491
-0.12288212 -0.087683439 0.29607067
-0.12269139 -0.088277951 0.29791051
-0.1224677 -0.088901252 0.29982388
-0.12226906 -0.089404911 0.30148298
-0.1220534 -0.089715607 0.30311784
-0.12184613 -0.089690037 0.30416352
-0.12168149 -0.089836642 0.30494222
-0.12160191 -0.089991473 0.3053863
-0.12149647 -0.09022481 0.30612502
-0.12140939 -0.090586722 0.30673587
-0.12126116 -0.091109045 0.30765119
-0.12107981 -0.091623209 0.30853251
-0.12100868 -0.091864102 0.30886665
-0.12092482 -0.092100896 0.30920374
-0.12089562 -0.092136838 0.3093248
-0.12084948 -0.092314854 0.30951887
-0.12071554 -0.092656165 0.31008101
-0.12057633 -0.092952162 0.3106558
-0.12047301 -0.093354017 0.31122693
-0.12042473 -0.093465611 0.3114557
-0.12973884 -0.060816813 0.2119395
-0.12972301 -0.06085147 0.21199554
-0.1296908 -0.060929257 0.21215062
-0.12964383 -0.061058674 0.21236128
-0.12961942 -0.061302636 0.21256058
-0.12956536 -0.061511997 0.21285209
-0.12950705 -0.061672304 0.21313034
-0.12945408 -0.061910238 0.21342866
-0.1293948 -0.062141687 0.21373107
-0.12933005 -0.062341738 0.21404786
-0.12929003 -0.062478129 0.21425571
-0.12925147 -0.062627278 0.21445587
-0.12921053 -0.062803298 0.21469516
-0.12916729 -0.062921628 0.21492063
-0.12911858 -0.063090034 0.21519367
-0.12907101 -0.063309826 0.21548156
-0.12901495 -0.063465089 0.2157919
-0.12897778 -0.063599057 0.21600242
-0.12891288 -0.063794397 0.21636327
-0.12881975 -0.0640328 0.21683826
-0.12871867 -0.064332262 0.21735173
-0.12859519 -0.064511642 0.21790746
-0.12850399 -0.064668007 0.21834955
-0.12842284 -0.064835906 0.21876994
-0.12836525 -0.064921282 0.21904798
-0.12828808 -0.065110736 0.21948297
-0.12820344 -0.065362744 0.22000968
-0.12809668 -0.065665364 0.22068155
-0.12800138 -0.065943971 0.22137156
-0.12793536 -0.066155382 0.22193766
-0.12787656 -0.06637501 0.22251599
-0.12782881 -0.066581793 0.22300413
-0.12778504 -0.06687469 0.22375864
-0.1277457 -0.067144871 0.22439633
-0.1277248 -0.067344852 0.22491246
-0.1277066 -0.067552589 0.22542416
-0.1277021 -0.067702211 0.2259825
-0.12772951 -0.067900307 0.22714187
-0.12784643 -0.06818296 0.2291825
-0.12800324 -0.068367474 0.23160125
-0.1282146 -0.068420209 0.23404752
-0.12850739 -0.068644926 0.23652042
-0.12870848 -0.068914473 0.23826712
-0.12883671 -0.069253176 0.2396149
-0.12893149 -0.069503762 0.24069552
-0.12901337 -0.069783367 0.24176887
-0.12906681 -0.070189983 0.24293217
-0.1290804 -0.07056208 0.24385907
-0.1290812 -0.071042955 0.24493784
-0.12905999 -0.071484618 0.24582286
-0.12905028 -0.071775593 0.24648529
-0.12903236 -0.071960576 0.24703664
-0.12900932 -0.072170444 0.24745338
-0.12897621 -0.072331235 0.24814478
-0.12893103 -0.072604686 0.24874777
-0.12886356 -0.072890431 0.24958405
-0.12877414 -0.07327877 0.25053078
-0.12867858 -0.073763996 0.25153494
-0.12860779 -0.074034393 0.25218734
-0.12853569 -0.074269809 0.25280765
-0.12845938 -0.07448341 0.25341263
-0.12837611 -0.074698403 0.25405264
-0.12824541 -0.074998721 0.25500417
-0.12812048 -0.075233296 0.25586674
-0.12799728 -0.075484961 0.25674531
-0.12790124 -0.075629197 0.25741869
-0.1278113 -0.07576827 0.25805566
-0.12774611 -0.075958319 0.2585201
-0.12764788 -0.076088101 0.25918004
-0.12755278 -0.076318406 0.25981906
-0.12737155 -0.076605931 0.26105186
-0.12721176 -0.076985195 0.2621721
-0.12706964 -0.077252038 0.26313475
-0.12697512 -0.077493563 0.2637684
-0.12690124 -0.07759539 0.26427621
-0.12680946 -0.077781968 0.26491064
-0.12668779 -0.078010201 0.26574996
-0.12653372 -0.078361645 0.26683649
-0.12637459 -0.078721128 0.26801747
-0.12623186 -0.079064094 0.26907912
-0.12613231 -0.079289652 0.26983994
-0.12605092 -0.079446301 0.27045968
-0.12593593 -0.079715915 0.27132472
-0.12578236 -0.080010019 0.27246809
-0.12561476 -0.080395609 0.27370751
-0.12543751 -0.080743507 0.27506194
-0.12528975 -0.0809936 0.27621019
-0.12518781 -0.081184752 0.27706257
-0.12509575 -0.081431016 0.27779433
-0.12505029 -0.081495114 0.27816853
-0.12495498 -0.08172673 0.27894408
-0.12483066 -0.081970006 0.27993715
-0.12464941 -0.082324527 0.28130594
-0.1244773 -0.082683995 0.28253019
-0.12433853 -0.082939327 0.28345808
-0.12423818 -0.08314506 0.28413004
-0.12410275 -0.083391316 0.28501269
-0.12395336 -0.083643936 0.28597176
-0.1237855 -0.084051274 0.28707784
-0.12361544 -0.084541954 0.28835353
-0.12350111 -0.084855564 0.2892597
-0.12340281 -0.085239552 0.29017228
-0.12330447 -0.085469633 0.29106086
-0.12319051 -0.08588995 0.29231662
-0.12303798 -0.086398497 0.29404864
-0.12284546 -0.087027296 0.29607096
-0.12267149 -0.087584607 0.29777363
-0.12245953 -0.088302404 0.29969248
-0.1222381 -0.088765219 0.30151966
-0.12200502 -0.089083113 0.30329591
-0.12177517 -0.089096427 0.30441609
-0.12165758 -0.089324161 0.30501783
-0.12158071 -0.089415878 0.30546069
-0.1214985 -0.089712963 0.30604482
-0.12141331 -0.090024814 0.30665973
-0.12128618 -0.09042193 0.30748743
-0.12116923 -0.090898715 0.30811429
-0.12106393 -0.091198653 0.30861789
-0.12100627 -0.091365278 0.30886656
-0.12093929 -0.091542743 0.30912846
-0.12087362 -0.09170799 0.30940422
-0.12075382 -0.091925554 0.30985472
-0.12063597 -0.092238985 0.31031445
-0.12054978 -0.092428073 0.31069675
-0.12051141 -0.092420116 0.31079942
-0.12970516 -0.060357857 0.2118831
-0.12968031 -0.060450338 0.21200149
-0.12965982 -0.060538206 0.21210228
-0.12962304 -0.060681421 0.2123073
-0.129581 -0.060864873 0.21254076
-0.12952831 -0.061075915 0.21282354
-0.12947112 -0.061302595 0.21313396
-0.12942071 -0.061544981 0.21341957
-0.12935326 -0.061744902 0.21374214
-0.12930128 -0.06192968 0.21400511
-0.12924874 -0.062093057 0.2142693
-0.12922174 -0.062187336 0.21441218
-0.12917683 -0.062360797 0.21465905
-0.12913527 -0.06250146 0.2148851
-0.12908681 -0.062631138 0.21514387
-0.12904875 -0.062802896 0.21536933
-0.12899697 -0.062986702 0.21567328
-0.12894407 -0.06320177 0.21598096
-0.12887171 -0.06345816 0.21640019
-0.12878872 -0.063681506 0.21683133
-0.12868936 -0.063881703 0.21730876
-0.12857175 -0.064104706 0.2178825
-0.12849741 -0.064174607 0.21821889
-0.12840837 -0.064366058 0.21869308
-0.12834728 -0.064532459 0.21904692
-0.12827915 -0.064693049 0.2194335
-0.1281849 -0.064926952 0.21998753
-0.12809578 -0.065184526 0.22055919
-0.12800573 -0.06548094 0.22123371
-0.12793764 -0.065693468 0.22180694
-0.1278802 -0.065902114 0.22235247
-0.12783609 -0.066137016 0.22292329
-0.12779938 -0.066403247 0.22363193
-0.12776613 -0.066652946 0.22428261
-0.1277515 -0.066901214 0.22500579
-0.12772442 -0.067068361 0.22563852
-0.12774657 -0.067249186 0.22652397
-0.1278075 -0.067489885 0.22775605
-0.12793674 -0.067747422 0.22997014
-0.12810096 -0.067839824 0.23220602
-0.12834762 -0.067954078 0.23480599
-0.12860225 -0.06813179 0.23690422
-0.1287837 -0.068453766 0.23852819
-0.12889555 -0.068752609 0.23974773
-0.12899107 -0.069002099 0.24086094
-0.12904648 -0.069346391 0.24186416
-0.12907527 -0.0696292 0.24268131
-0.12909161 -0.069991454 0.24358007
-0.129087 -0.070447952 0.24468167
-0.12906481 -0.070895024 0.24562496
-0.12904271 -0.071313828 0.24654147
-0.12901363 -0.071667396 0.24731866
-0.12897249 -0.071892016 0.24805887
-0.12892456 -0.072106391 0.24869797
-0.12889153 -0.072324023 0.24915898
-0.1288252 -0.07259389 0.24996498
-0.12875216 -0.0729222 0.25067934
-0.12867866 -0.073228717 0.25141877
-0.12861064 -0.07353051 0.25207925
-0.12855273 -0.073724978 0.25260162
-0.12849566 -0.073860534 0.25306231
-0.12840205 -0.074090175 0.25381699
-0.12829529 -0.074378394 0.25462064
-0.12814814 -0.074717566 0.25566107
-0.12800814 -0.074981071 0.25665265
-0.12790452 -0.075182833 0.25743231
-0.12781441 -0.075305171 0.25804859
-0.12773313 -0.075492106 0.25862113
-0.12764333 -0.075613141 0.25927168
-0.12749761 -0.075861469 0.26024514
-0.12732808 -0.076206945 0.26142406
-0.12714967 -0.076576479 0.26264533
-0.12701212 -0.076876685 0.26356933
-0.12691416 -0.077066012 0.26424533
-0.12686473 -0.077140495 0.26457265
-0.12681799 -0.077280328 0.26487362
-0.12670784 -0.077468969 0.26562452
-0.12655704 -0.07773032 0.266675
-0.12638724 -0.078145809 0.2678856
-0.12624106 -0.078429803 0.26900956
-0.12614447 -0.078654058 0.2697157
-0.12604335 -0.078864835 0.27047271
-0.12591015 -0.079164281 0.27146205
-0.12574041 -0.079572573 0.27273679
-0.12554444 -0.080007225 0.27421066
-0.12537615 -0.080323733 0.27552482
-0.12522876 -0.080585159 0.27669024
-0.12512241 -0.080742717 0.27757418
-0.12507398 -0.080904193 0.27794552
-0.12502678 -0.081018984 0.27834439
-0.1249693 -0.08110752 0.27880141
-0.1248473 -0.081352904 0.27977768
-0.12466383 -0.081778623 0.28121212
-0.12447663 -0.082084842 0.28251958
-0.1243364 -0.082365893 0.283438
-0.12421013 -0.082621142 0.28427267
-0.12410574 -0.082788438 0.28495255
-0.12395616 -0.083091155 0.28588337
-0.12380011 -0.083384216 0.28688091
-0.12361503 -0.083886281 0.28816798
-0.12347134 -0.084269933 0.28928843
-0.12335398 -0.084569238 0.29029939
-0.12326804 -0.084854528 0.29107442
-0.12315155 -0.085274316 0.2923792
-0.12301178 -0.085662432 0.29398158
-0.12282749 -0.086289346 0.2959168
-0.12267055 -0.086887904 0.29749131
-0.12247752 -0.087556563 0.29929742
-0.12225685 -0.088150464 0.30119884
-0.12198913 -0.088355936 0.3031427
-0.12176002 -0.088568673 0.30442077
-0.1216799 -0.088740341 0.30491495
-0.12157629 -0.088894576 0.30540699
-0.12151107 -0.089136437 0.3059155
-0.1214313 -0.089344911 0.30646339
-0.12132936 -0.089634188 0.30712658
-0.12126909 -0.089938454 0.30753395
-0.12119536 -0.090236343 0.3079845
-0.12106978 -0.090642571 0.30856556
-0.12098644 -0.090913489 0.30892566
-0.12087718 -0.091208339 0.309383
-0.12074293 -0.09152893 0.30990002
-0.12062909 -0.091745853 0.31030938
-0.12058523 -0.091742665 0.31048506
-0.12055226 -0.09174227 0.31059539
-0.12966545 -0.059980143 0.21187675
-0.12964952 -0.060019638 0.2119554
-0.12961964 -0.060106486 0.21208656
-0.12959552 -0.060202982 0.21222483
-0.129548 -0.060403686 0.21248068
-0.12949622 -0.060597226 0.21276306
-0.12943782 -0.060885217 0.21310821
-0.12937233 -0.061141353 0.213452
-0.12931851 -0.061314803 0.21372233
-0.12926695 -0.06151671 0.21398926
-0.12922648 -0.061609145 0.21418133
-0.12918682 -0.061773028 0.21439914
-0.12915874 -0.061876625 0.214544
-0.12911038 -0.062008552 0.21480015
-0.12906741 -0.062148307 0.21503212
-0.12903114 -0.062305994 0.21524632
-0.12897588 -0.062516905 0.21557716
-0.1289138 -0.062752143 0.2159377
-0.12883656 -0.063040674 0.21639822
-0.12875538 -0.063317813 0.21683465
-0.12865455 -0.063458353 0.21729968
-0.1285616 -0.063562363 0.21774113
-0.12847768 -0.063720889 0.21814759
-0.12840699 -0.063866518 0.21854995
-0.12832528 -0.064079762 0.21903498
-0.12825225 -0.064273521 0.21948439
-0.12816577 -0.064545333 0.22000146
-0.12807971 -0.064749911 0.22054613
-0.12800293 -0.065030135 0.22118446
-0.1279328 -0.065293409 0.2218383
-0.12787636 -0.065524176 0.22237097
-0.12783559 -0.065741107 0.22298549
-0.12780474 -0.065932557 0.22358148
-0.12777875 -0.066219538 0.22433229
-0.12777138 -0.06649182 0.22513843
-0.12776397 -0.066682689 0.22606173
-0.12782179 -0.066890411 0.22728832
-0.12791614 -0.067072913 0.22895782
-0.12805377 -0.067329049 0.23108627
-0.12823513 -0.067377716 0.23330681
-0.12847826 -0.06757652 0.23560023
-0.12871258 -0.067764968 0.23752262
-0.12886624 -0.068045877 0.23899783
-0.12895921 -0.06829834 0.23999542
-0.12902792 -0.068640187 0.24097443
-0.12907118 -0.06885688 0.24179572
-0.12907627 -0.069111988 0.24242036
-0.12909286 -0.069443993 0.24325889
-0.12909196 -0.069753781 0.24415784
-0.12907176 -0.070235379 0.24522154
-0.12903632 -0.070837475 0.24644923
-0.12899026 -0.071309865 0.2476062
-0.12893896 -0.071636692 0.24848045
-0.12888668 -0.071850635 0.24910374
-0.12884 -0.072025016 0.24965365
-0.12880428 -0.072204649 0.25003967
-0.12874797 -0.072437912 0.25060868
-0.12868613 -0.072667234 0.25122806
-0.12862262 -0.072971314 0.25189042
-0.128574 -0.073128648 0.25232404
-0.12850837 -0.073326029 0.25290096
-0.12843552 -0.073563427 0.25351802
-0.12832065 -0.073825411 0.25442404
-0.12817544 -0.074200295 0.25547159
-0.12801719 -0.074495472 0.25658867
-0.12790008 -0.074687473 0.25745204
-0.12781833 -0.074859343 0.25807294
-0.12773338 -0.074964382 0.25868893
-0.12764063 -0.075149484 0.25935027
-0.12747499 -0.075462304 0.2604973
-0.12728964 -0.075784914 0.26180664
-0.12711594 -0.076119877 0.26299363
-0.12699577 -0.076373391 0.2637786
-0.12691954 -0.076558277 0.2642937
-0.12687574 -0.076611347 0.26454669
-0.12680729 -0.076722831 0.26501518
-0.12671834 -0.076877952 0.26557493
-0.12657149 -0.077198878 0.26658288
-0.12640558 -0.077506401 0.26777896
-0.12624447 -0.077831894 0.26899484
-0.12613952 -0.078110963 0.26975352
-0.1260293 -0.078303479 0.27056786
-0.12587921 -0.078645311 0.27167273
-0.1257073 -0.079022281 0.27296272
-0.12551497 -0.079489172 0.27442771
-0.12532885 -0.079843923 0.27588195
-0.12520313 -0.080105722 0.27688822
-0.12509556 -0.080281422 0.27774689
-0.12504014 -0.080393396 0.27820405
-0.12500098 -0.08043576 0.27850506
-0.12494161 -0.080616951 0.27898282
-0.12483954 -0.080796272 0.27979639
-0.12466837 -0.081095755 0.28110573
-0.12449315 -0.081504755 0.28235954
-0.12433323 -0.081812978 0.28342023
-0.12421402 -0.081990942 0.28416395
-0.12409157 -0.082245164 0.28494903
-0.12394837 -0.082565621 0.2858538
-0.12380198 -0.082848184 0.28678158
-0.12360413 -0.083303377 0.28810927
-0.12342706 -0.083755992 0.28940755
-0.1233037 -0.084085457 0.29051781
-0.12322088 -0.084278293 0.29121938
-0.12311448 -0.084618039 0.29238397
-0.12299538 -0.084906355 0.29373151
-0.12282909 -0.08544714 0.29557621
-0.12268201 -0.086116545 0.29712909
-0.12250446 -0.08669135 0.29875034
-0.12230621 -0.087297149 0.30054301
-0.12201503 -0.087681316 0.3027927
-0.12179261 -0.087892205 0.30413824
-0.12170361 -0.088095605 0.30472401
-0.12158129 -0.088296957 0.30532962
-0.12152062 -0.088407457 0.30573517
-0.12143143 -0.088636607 0.30630744
-0.12138399 -0.088900141 0.30665502
-0.12130786 -0.089144848 0.30715612
-0.12125328 -0.089365259 0.30750209
-0.12116338 -0.089723907 0.30804551
-0.12100714 -0.090342037 0.30881801
-0.12085822 -0.090719581 0.30942017
-0.12070714 -0.091160335 0.31001046
-0.12058382 -0.091412529 0.31049106
-0.12055434 -0.091322936 0.3105953
-0.12053865 -0.091297828 0.31062028
-0.12963356 -0.059579961 0.21184328
-0.12961814 -0.059550427 0.21188058
-0.12958203 -0.059677515 0.21206787
-0.12956423 -0.059773173 0.21216801
-0.12952502 -0.059950791 0.21238914
-0.12946609 -0.060156699 0.21270387
-0.12940326 -0.060404919 0.21305527
-0.12934412 -0.060673777 0.21338578
-0.12929195 -0.060847323 0.21365856
-0.12924905 -0.060977966 0.21386719
-0.12921064 -0.061136361 0.21407552
-0.12916802 -0.061256416 0.2142891
-0.1291229 -0.061423052 0.21452723
-0.12908603 -0.061526146 0.2147207
-0.12904364 -0.06168275 0.2149505
-0.12900677 -0.061820816 0.21516389
-0.12894918 -0.062074371 0.2155142
-0.12888734 -0.062324874 0.21588603
-0.12880921 -0.062614791 0.21634239
-0.12874188 -0.062814772 0.21669835
-0.1286404 -0.06298355 0.21717282
-0.12854952 -0.063105248 0.21761853
-0.12846524 -0.063241363 0.21805523
-0.12839024 -0.063442692 0.2184848
-0.12831366 -0.063661486 0.21900579
-0.12823008 -0.063887738 0.21949318
-0.12814912 -0.064092524 0.2200114
-0.12806977 -0.064334899 0.22053114
-0.12799394 -0.06456282 0.2211532
-0.12792315 -0.064880662 0.2218686
-0.12786579 -0.065163322 0.22254591
-0.12783533 -0.06536603 0.22315879
-0.1278179 -0.065579765 0.22374171
-0.12780842 -0.065800466 0.22448127
-0.12778445 -0.06603495 0.22538008
-0.12782596 -0.066249788 0.22663496
-0.12790833 -0.066433974 0.228083
-0.12803498 -0.066674605 0.23021492
-0.1282014 -0.066827551 0.23233208
-0.12844281 -0.066983506 0.23481205
-0.12867005 -0.06711556 0.23676421
-0.12884948 -0.067320153 0.23829041
-0.12895982 -0.067586966 0.23946691
-0.12902559 -0.067834482 0.2403176
-0.1290544 -0.068146288 0.24097022
-0.12909037 -0.068394676 0.24179381
-0.12908669 -0.068602808 0.2422417
-0.12910718 -0.06877666 0.24287236
-0.12908903 -0.06914109 0.24370989
-0.12907185 -0.069609977 0.24483518
-0.12904128 -0.070203416 0.24616881
-0.12898049 -0.070841581 0.24754514
-0.12891555 -0.071178988 0.24853155
-0.12886401 -0.071447916 0.24923867
-0.12881784 -0.071661621 0.24978055
-0.12878814 -0.071755774 0.25007975
-0.12874869 -0.071882993 0.25046384
-0.1286958 -0.072138302 0.25105676
-0.12863754 -0.072349586 0.25160077
-0.12858741 -0.072568431 0.2521084
-0.12851878 -0.072775118 0.25274733
-0.1284536 -0.072970733 0.25330737
-0.12834345 -0.073282108 0.25419196
-0.12819937 -0.073664546 0.25528932
-0.12801872 -0.073975533 0.25658551
-0.12790865 -0.074178092 0.2574296
-0.12782392 -0.074378207 0.25809881
-0.12774323 -0.074474834 0.25867283
-0.12763806 -0.074668646 0.25945082
-0.12747686 -0.074985035 0.26060057
-0.12729517 -0.075293034 0.26189017
-0.12714569 -0.075566128 0.26293364
-0.12703323 -0.07583686 0.26365671
-0.12697318 -0.075960897 0.26402557
-0.12691623 -0.076028928 0.26439288
-0.12683345 -0.076194324 0.26494405
-0.12672786 -0.076426715 0.2655966
-0.12657142 -0.07667841 0.2666592
-0.12640543 -0.076950282 0.26779896
-0.12626757 -0.077266604 0.26881498
-0.1261414 -0.077476569 0.26974288
-0.12600808 -0.077767409 0.27073145
-0.12588482 -0.078055739 0.2716397
-0.12570357 -0.07845524 0.27297491
-0.1255184 -0.07892336 0.27440083
-0.12535067 -0.079277419 0.27572918
-0.12521388 -0.079547696 0.27681327
-0.12509203 -0.079750001 0.27775976
-0.12502475 -0.079832219 0.2782675
-0.12497734 -0.079977855 0.2786434
-0.12490419 -0.080053829 0.2791796
-0.12479953 -0.080241241 0.28001446
-0.12465303 -0.080596969 0.28113061
-0.1245012 -0.080926806 0.28221315
-0.12433828 -0.081184372 0.28327355
-0.12419134 -0.081418455 0.28420812
-0.12408262 -0.081658952 0.28490058
-0.1239501 -0.081936829 0.28571981
-0.12378693 -0.082249142 0.28673199
-0.12357356 -0.082686424 0.28810692
-0.12339006 -0.083172821 0.28950784
-0.12325826 -0.083530851 0.29063973
-0.12316254 -0.083793372 0.29152673
-0.12307814 -0.084003188 0.29242408
-0.1229749 -0.084214762 0.29357716
-0.12285086 -0.084631965 0.29508138
-0.12269434 -0.085214667 0.29668918
-0.12251286 -0.085870974 0.29835269
-0.12231755 -0.086581573 0.30017722
-0.12204602 -0.086973481 0.30235806
-0.12179279 -0.087243482 0.30403513
-0.12170362 -0.087448925 0.30461127
-0.12161089 -0.087553643 0.30514601
-0.12151859 -0.087768175 0.30554929
-0.12145296 -0.087949865 0.30602565
-0.12139578 -0.088143416 0.30641091
-0.12134475 -0.088382177 0.30676675
-0.12127598 -0.088670239 0.30722204
-0.12120088 -0.08906424 0.30775353
-0.12104951 -0.089644872 0.30858609
-0.12085051 -0.090320781 0.30944455
-0.1206845 -0.090703756 0.31007096
-0.12055349 -0.091052294 0.31058306
-0.12051707 -0.090961672 0.31071308
-0.12960054 -0.059152186 0.21178755
-0.12958072 -0.05912593 0.21183996
-0.12955393 -0.059176777 0.21196149
-0.12953079 -0.0593445 0.21212739
-0.12949176 -0.05947119 0.21233559
-0.12942958 -0.059720784 0.21267836
-0.12938368 -0.060025979 0.2129887
-0.12932041 -0.06019298 0.21329886
-0.12927331 -0.060362998 0.21354985
-0.12923256 -0.060498204 0.21375524
-0.12919071 -0.060629074 0.21396782
-0.12914622 -0.060770515 0.21420287
-0.12910448 -0.060921121 0.21442799
-0.12905803 -0.061120089 0.21468917
-0.12901418 -0.061238196 0.21491227
-0.12897791 -0.061369218 0.21512136
-0.12891774 -0.061637055 0.21548812
-0.12885848 -0.061880719 0.21584918
-0.12879398 -0.062115815 0.21622066
-0.12872244 -0.0623294 0.21661018
-0.12864862 -0.062453203 0.21694663
-0.12856959 -0.062547259 0.21732926
-0.1284745 -0.062739015 0.21785276
-0.12838359 -0.062942594 0.21835884
-0.12829976 -0.063228607 0.2189392
-0.1282057 -0.063481681 0.21955688
-0.12812924 -0.06367211 0.2200361
-0.12805721 -0.06390772 0.22056709
-0.12798937 -0.064146765 0.22115809
-0.12791698 -0.064515501 0.2219656
-0.12787333 -0.064709947 0.22260591
-0.1278393 -0.0649575 0.22328381
-0.12783076 -0.065155573 0.22389686
-0.12782261 -0.065421477 0.22469471
-0.1278286 -0.065576524 0.22574207
-0.1279027 -0.065803267 0.22724994
-0.1280214 -0.066028945 0.22929722
-0.12817921 -0.066212237 0.23150067
-0.12837788 -0.066389993 0.23376936
-0.12862749 -0.066501059 0.23598379
-0.12883079 -0.066694155 0.23774397
-0.12894914 -0.066932365 0.2389195
-0.12900668 -0.067225158 0.23969626
-0.12905313 -0.067363277 0.24028933
-0.12908483 -0.067630239 0.24101041
-0.1291028 -0.067910492 0.24167657
-0.12910067 -0.068119965 0.24225312
-0.12911139 -0.068285488 0.24284823
-0.12909591 -0.068644136 0.24363279
-0.12907314 -0.069022372 0.24455503
-0.12904602 -0.069585763 0.24580395
-0.12897933 -0.070176601 0.24718209
-0.12891637 -0.070664659 0.24832273
-0.12885797 -0.070956774 0.24912246
-0.12881413 -0.071151644 0.24965784
-0.12878826 -0.071217708 0.24993509
-0.12875232 -0.071409941 0.25031742
-0.12869962 -0.071582951 0.25089329
-0.12865657 -0.07175798 0.25133538
-0.1285885 -0.072045229 0.2520265
-0.12852658 -0.072285324 0.25259495
-0.12845573 -0.072461717 0.25323465
-0.12835047 -0.072780453 0.25409862
-0.12821722 -0.07315699 0.25517014
-0.12804753 -0.073494293 0.25638136
-0.12792194 -0.073705532 0.25738484
-0.1278419 -0.073900856 0.25802484
-0.12775965 -0.074013643 0.25865948
-0.12764341 -0.074271649 0.25951436
-0.12749796 -0.074477524 0.26060823
-0.12731935 -0.074816294 0.26184106
-0.12717862 -0.075086959 0.26282111
-0.12710026 -0.07527449 0.26332229
-0.12702239 -0.075356625 0.26386949
-0.1269653 -0.075450227 0.26420224
-0.12685236 -0.07563176 0.26492617
-0.12670533 -0.075906962 0.2658698
-0.12656267 -0.076129623 0.26683137
-0.12640136 -0.076406084 0.26790631
-0.12627122 -0.07666868 0.26886609
-0.12612994 -0.076974869 0.26986745
-0.12601727 -0.077156432 0.27071008
-0.12587821 -0.077455804 0.27171174
-0.12571068 -0.077875331 0.27291113
-0.12554988 -0.078241959 0.27416557
-0.12538601 -0.078644671 0.27545577
-0.12524545 -0.078952 0.27658015
-0.12512414 -0.079168379 0.27750346
-0.12501468 -0.079357915 0.27831227
-0.12493894 -0.079425119 0.27887028
-0.12483972 -0.079651624 0.27962977
-0.1247537 -0.079828523 0.28026319
-0.1246121 -0.080100574 0.28129628
-0.12447447 -0.080317713 0.28224161
-0.12432177 -0.080608658 0.28324753
-0.12417389 -0.080877073 0.28417569
-0.12404291 -0.081124388 0.28499067
-0.12393183 -0.081363857 0.28571203
-0.12375736 -0.081694178 0.28678176
-0.12355125 -0.082150124 0.28813264
-0.12335157 -0.082567386 0.28957623
-0.12321045 -0.082909778 0.29075781
-0.12311493 -0.083181717 0.2916196
-0.12303201 -0.083385155 0.29248816
-0.12295326 -0.08358863 0.29338112
-0.12284078 -0.083914295 0.29475853
-0.12270185 -0.084485956 0.29635346
-0.12252214 -0.085054033 0.29801747
-0.12232883 -0.085787743 0.29978251
-0.12208296 -0.086290836 0.3018606
-0.12180556 -0.086557277 0.30371895
-0.12170259 -0.086742051 0.30444592
-0.12163852 -0.086883686 0.30485702
-0.12152067 -0.087113336 0.30539122
-0.12145168 -0.087349243 0.30584067
-0.12140339 -0.087584101 0.30622214
-0.12133825 -0.087842971 0.30666485
-0.12128132 -0.088110574 0.3071166
-0.12119015 -0.088481925 0.30767506
-0.12107885 -0.088969797 0.3083877
-0.12087212 -0.089787602 0.30932352
-0.12071284 -0.090192989 0.30993915
-0.1205873 -0.090443932 0.31042653
-0.12051807 -0.090560645 0.31068379
-0.12956336 -0.05867957 0.21171844
-0.12954481 -0.058633994 0.21176742
-0.1295311 -0.058709398 0.21185416
-0.12949739 -0.058843188 0.21203986
-0.12945697 -0.059048258 0.21230732
-0.12941779 -0.059237342 0.21253917
-0.12936068 -0.059492834 0.21287735
-0.12930699 -0.059694242 0.21316916
-0.12925564 -0.059839945 0.21342684
-0.12923265 -0.05996022 0.21356148
-0.12918498 -0.060079996 0.21379454
-0.12913041 -0.060232848 0.21406795
-0.1290888 -0.060427871 0.21431038
-0.12903368 -0.060650975 0.21462575
-0.12898633 -0.060790181 0.21487786
-0.12894322 -0.060954101 0.21513055
-0.12889379 -0.061181743 0.21543489
-0.12883443 -0.061431557 0.21579321
-0.12877651 -0.06162877 0.2161116
-0.12871209 -0.06178537 0.21645758
-0.12865621 -0.061914988 0.21673413
-0.1285754 -0.062033646 0.21711375
-0.12846771 -0.062247343 0.21772021
-0.12836766 -0.062514782 0.21831432
-0.12827101 -0.06285467 0.21899121
-0.12819153 -0.06304954 0.21952997
-0.12812202 -0.063275397 0.22002558
-0.12805094 -0.063467614 0.22054091
-0.12799285 -0.063659877 0.22105469
-0.12792675 -0.063988179 0.22180617
-0.127887 -0.064255245 0.22250916
-0.1278578 -0.064528048 0.22329275
-0.12784989 -0.064737618 0.22400591
-0.12785164 -0.064975217 0.22506621
-0.12789057 -0.065152489 0.22629966
-0.12800892 -0.065395713 0.22831297
-0.12813392 -0.065583676 0.23033503
-0.12831002 -0.065809734 0.23245493
-0.12854119 -0.065881319 0.23477019
-0.12875059 -0.066039562 0.23668806
-0.12892734 -0.066260636 0.2382317
-0.1289973 -0.066398062 0.23900151
-0.12901986 -0.066648863 0.23948386
-0.12906788 -0.06680996 0.24015133
-0.12910128 -0.067117833 0.24085039
-0.12911405 -0.067427859 0.24169326
-0.12911987 -0.067664988 0.24240606
-0.12910575 -0.06789045 0.24292913
-0.12909052 -0.068159387 0.2437125
-0.1290791 -0.068523258 0.24436107
-0.12903625 -0.069040537 0.24556173
-0.1289866 -0.069507606 0.24667965
-0.12892173 -0.06997738 0.2478921
-0.12886706 -0.070334792 0.24870114
-0.12882178 -0.070548847 0.24935117
-0.12878402 -0.07070668 0.24980195
-0.12874509 -0.070916146 0.25029477
-0.12869714 -0.071078949 0.25082424
-0.12864687 -0.071308054 0.25133649
-0.12857732 -0.071582176 0.25203401
-0.12850961 -0.071814135 0.25266501
-0.12844148 -0.072009586 0.25331119
-0.12834577 -0.072315559 0.25414187
-0.1282146 -0.072686009 0.25517562
-0.12807597 -0.072980389 0.25622621
-0.12795998 -0.073204592 0.25714079
-0.12786524 -0.073391281 0.25793248
-0.12778515 -0.073477365 0.25855416
-0.12765697 -0.073767491 0.25954831
-0.127505 -0.073999994 0.26071098
-0.12734318 -0.074320853 0.26188606
-0.12722325 -0.074517451 0.26270139
-0.12715352 -0.074628592 0.26320112
-0.12707645 -0.074761197 0.26366007
-0.12698215 -0.07491193 0.26425904
-0.12684812 -0.075152569 0.26512027
-0.12668322 -0.075407602 0.2661413
-0.1265339 -0.075629793 0.26713756
-0.12638775 -0.07584852 0.26811901
-0.12627205 -0.076050714 0.26894724
-0.12613894 -0.076333247 0.269878
-0.12598979 -0.076593563 0.27092654
-0.12585366 -0.076961443 0.27188239
-0.12569864 -0.077335566 0.27300462
-0.12555252 -0.077707715 0.27414465
-0.1254334 -0.078006402 0.27511191
-0.12528817 -0.078348987 0.2762605
-0.12515092 -0.078580186 0.27727389
-0.12500605 -0.078838587 0.27833444
-0.12490621 -0.078997031 0.27905858
-0.12478548 -0.079197153 0.27994314
-0.12468739 -0.079360537 0.28067279
-0.12453572 -0.079570018 0.28170711
-0.1244208 -0.079761259 0.28244108
-0.12427927 -0.080068551 0.28335887
-0.12414694 -0.080277316 0.28417113
-0.12399964 -0.080613166 0.28511211
-0.12386511 -0.080856748 0.28595865
-0.12370129 -0.081184924 0.2869837
-0.12348989 -0.081560872 0.28839305
-0.12332217 -0.081934899 0.28964481
-0.1231889 -0.082225792 0.29068714
-0.12311322 -0.082520455 0.29136562
-0.12302229 -0.082668066 0.29220983
-0.12293786 -0.082875997 0.29310602
-0.12284825 -0.083228834 0.29431447
-0.12269781 -0.083748534 0.29608425
-0.12251668 -0.084422253 0.29784134
-0.12233856 -0.084978983 0.29948387
-0.12207475 -0.085553877 0.30168274
-0.12180547 -0.085813105 0.30350873
-0.12168629 -0.086103946 0.30435327
-0.12161259 -0.086319014 0.30480689
-0.12157252 -0.086404525 0.3050898
-0.12146261 -0.086754642 0.30566341
-0.12139698 -0.087013282 0.30610728
-0.1213312 -0.087388165 0.30662864
-0.12124366 -0.087681651 0.30719599
-0.12116697 -0.088142879 0.30774131
-0.12106814 -0.088464744 0.30829871
-0.12093654 -0.088978752 0.30898345
-0.12078127 -0.089492783 0.30962086
-0.12070309 -0.0896018 0.30991215
-0.12065171 -0.089609228 0.31008467
-0.12953681 -0.058198873 0.2116109
-0.1295165 -0.058196276 0.21169421
-0.1294907 -0.058291268 0.21182896
-0.12945801 -0.058431827 0.21202368
-0.12943572 -0.058551162 0.21218596
-0.12938724 -0.058757674 0.21247305
-0.12933548 -0.058952965 0.21276256
-0.12928277 -0.059166033 0.21307477
-0.12924087 -0.059345704 0.21330559
-0.12920964 -0.059452146 0.21346281
-0.12916155 -0.059587386 0.21370786
