# .PCD v0.7 - Point Cloud Data file format
VERSION 0.7
FIELDS x y z
SIZE 4 4 4
TYPE F F F
COUNT 1 1 1
WIDTH 1363
HEIGHT 1
VIEWPOINT 0 0 0 1 0 0 0
POINTS 1363
DATA ascii
-0.1257735 -0.10692289 0.25223404
-0.1262098 -0.10773462 0.25414893
-0.12679611 -0.10868163 0.25638297
-0.12737332 -0.10962866 0.25861701
-0.12783705 -0.11048548 0.2606383
-0.12803273 -0.11111683 0.26212767
-0.12817058 -0.11170308 0.26351064
-0.12819974 -0.11219914 0.26468086
-0.1282241 -0.11269519 0.26585105
-0.12809043 -0.11305596 0.26670212
-0.12790242 -0.11337164 0.26744682
-0.12766069 -0.11364221 0.26808509
-0.12746681 -0.11395789 0.26882979
-0.12732011 -0.11431865 0.26968086
-0.12716995 -0.11467943 0.27053192
-0.12691671 -0.11494999 0.2711702
-0.12661132 -0.11517549 0.27170214
-0.1263531 -0.11544605 0.27234042
-0.12633798 -0.11594211 0.27351063
-0.12646484 -0.11657346 0.27500001
-0.12663434 -0.1172499 0.27659574
-0.12674884 -0.11788125 0.27808511
-0.12666418 -0.11833221 0.27914894
-0.12643099 -0.11864787 0.27989361
-0.12629047 -0.11905374 0.28085107
-0.12624127 -0.1195498 0.28202128
-0.1262821 -0.12013605 0.28340426
-0.12631728 -0.1207223 0.28478724
-0.12620592 -0.12117326 0.28585106
-0.12594995 -0.12148893 0.28659573
-0.12564442 -0.12175951 0.28723404
-0.12552154 -0.12221047 0.28829786
-0.12553264 -0.12279671 0.28968084
-0.12567574 -0.12351826 0.29138297
-0.12567489 -0.12410451 0.29276595
-0.12553208 -0.12455548 0.2938298
-0.12520395 -0.12482604 0.29446808
-0.12482822 -0.12505153 0.29499999
-0.12453993 -0.12536721 0.29574469
-0.12433774 -0.12577306 0.29670212
-0.12426475 -0.12631422 0.29797873
-0.12418655 -0.12685537 0.29925531
-0.12414706 -0.12744161 0.30063829
-0.12414566 -0.12807296 0.30212766
-0.12418167 -0.1287494 0.30372339
-0.12421117 -0.12942585 0.30531916
-0.12414803 -0.13001211 0.30670214
-0.1240364 -0.13055325 0.30797872
-0.12387694 -0.13104931 0.30914894
-0.12379751 -0.13163556 0.31053191
-0.12371245 -0.1322218 0.31191489
-0.12362175 -0.13280806 0.31329787
-0.12348364 -0.13334922 0.31457448
-0.12321569 -0.13375507 0.31553191
-0.12298516 -0.13420604 0.31659573
-0.12270919 -0.1346119 0.31755319
-0.1224702 -0.13506286 0.31861702
-0.13514864 -0.090027392 0.21340425
-0.13471323 -0.090027392 0.21340425
-0.13441169 -0.090117157 0.21361703
-0.13424274 -0.090296671 0.21404256
-0.13413854 -0.090521067 0.21457447
-0.13403217 -0.090745464 0.21510638
-0.13385756 -0.090924978 0.21553192
-0.13368122 -0.091104493 0.21595745
-0.13356878 -0.091328889 0.21648936
-0.13332334 -0.091463529 0.21680851
-0.13314179 -0.091643043 0.21723405
-0.13289352 -0.091777682 0.2175532
-0.13264394 -0.091912314 0.21787234
-0.13245761 -0.092091829 0.21829787
-0.13233389 -0.092316225 0.21882978
-0.13227211 -0.092585504 0.21946809
-0.13207991 -0.092765018 0.21989362
-0.13182232 -0.092899658 0.22021277
-0.13149995 -0.092989415 0.22042553
-0.13123995 -0.093124054 0.22074468
-0.13104169 -0.093303569 0.22117022
-0.1309045 -0.093527965 0.22170213
-0.13076514 -0.093752354 0.22223404
-0.13056123 -0.093931876 0.22265957
-0.1303556 -0.09411139 0.22308511
-0.13014822 -0.094290905 0.22351064
-0.13000081 -0.094515301 0.22404255
-0.12985127 -0.094739698 0.22457446
-0.12963824 -0.094919212 0.22499999
-0.12948456 -0.095143609 0.22553192
-0.12926786 -0.09532313 0.22595745
-0.12911004 -0.09554752 0.22648937
-0.12895006 -0.095771916 0.22702128
-0.12884812 -0.096041188 0.22765957
-0.12874359 -0.096310467 0.22829787
-0.12863643 -0.096579738 0.22893617
-0.12846713 -0.096804135 0.22946809
-0.12835498 -0.097073406 0.23010638
-0.12824024 -0.097342677 0.23074467
-0.1281229 -0.097611956 0.23138298
-0.12788557 -0.097791478 0.23180851
-0.12770496 -0.098015867 0.23234043
-0.1275222 -0.098240264 0.23287234
-0.1273953 -0.098509543 0.23351064
-0.12738144 -0.098868571 0.23436171
-0.12730649 -0.099182725 0.23510638
-0.12717113 -0.099452004 0.23574468
-0.12703316 -0.099721275 0.23638298
-0.12683563 -0.099945664 0.23691489
-0.12669268 -0.10021494 0.23755319
-0.12649059 -0.10043934 0.23808511
-0.12634264 -0.10070861 0.2387234
-0.12613599 -0.10093301 0.23925532
-0.12592718 -0.1011574 0.23978724
-0.12577185 -0.10142668 0.24042553
-0.12572478 -0.10178571 0.24127659
-0.12578467 -0.10223451 0.24234043
-0.12584022 -0.10268329 0.24340425
-0.12578186 -0.10304233 0.24425532
-0.12572004 -0.10340136 0.24510638
-0.12560038 -0.10371551 0.24585107
-0.12547769 -0.10402966 0.24659574
-0.12540588 -0.10438869 0.24744681
-0.12538429 -0.1047926 0.24840425
-0.12541227 -0.1052414 0.24946809
-0.12554245 -0.10577995 0.25074467
-0.12587959 -0.10649801 0.2524468
-0.12642112 -0.1073956 0.25457448
-0.12700658 -0.10833806 0.25680852
-0.1275305 -0.10923563 0.25893617
-0.1279414 -0.11004345 0.26085106
-0.12813665 -0.11067177 0.26234043
-0.12827407 -0.11125519 0.2637234
-0.12830278 -0.11174887 0.26489362
-0.12827542 -0.11219765 0.26595744
-0.12819263 -0.11260157 0.2669149
-0.12795329 -0.11287083 0.26755318
-0.12776202 -0.113185 0.26829788
-0.12761813 -0.11354402 0.26914895
-0.12747079 -0.11390306 0.27000001
-0.12731998 -0.1142621 0.27085108
-0.12706609 -0.11453136 0.27148935
-0.12676004 -0.11475575 0.27202126
-0.12650116 -0.11502503 0.27265957
-0.12648539 -0.1155187 0.27382979
-0.12661162 -0.11614701 0.27531916
-0.12678045 -0.11682019 0.27691489
-0.12684581 -0.11740363 0.27829787
-0.12676071 -0.11785241 0.2793617
-0.12652712 -0.11816657 0.2801064
-0.1263383 -0.1185256 0.28095746
-0.12619364 -0.11892951 0.28191489
-0.12618729 -0.11946806 0.2831915
-0.12617572 -0.12000661 0.28446808
-0.126065 -0.1204554 0.28553191
-0.12585644 -0.12081443 0.28638297
-0.12559789 -0.12112859 0.28712767
-0.12547524 -0.12157738 0.2881915
-0.12553264 -0.12220567 0.28968084
-0.12567574 -0.12292375 0.29138297
-0.12576623 -0.12359694 0.29297873
-0.12562296 -0.12404573 0.29404256
-0.12533966 -0.12435988 0.29478723
-0.12500829 -0.12462915 0.29542553
-0.12467432 -0.12489843 0.29606384
-0.12442692 -0.12525746 0.29691491
-0.12430912 -0.12575112 0.29808509
-0.1242307 -0.12628968 0.29936171
-0.124191 -0.12687311 0.30074468
-0.12418938 -0.12750141 0.30223405
-0.12418167 -0.12812972 0.30372339
-0.12416789 -0.12875803 0.30521277
-0.12410496 -0.12934145 0.30659574
-0.12399356 -0.12988001 0.30787235
-0.1238343 -0.13037367 0.30904254
-0.1237127 -0.13091223 0.31031916
-0.12362806 -0.13149565 0.31170213
-0.12349582 -0.1320342 0.31297871
-0.12335836 -0.13257276 0.31425533
-0.12317416 -0.13306642 0.31542554
-0.12298516 -0.13356008 0.31659573
-0.12270919 -0.133964 0.31755319
-0.1224702 -0.13441278 0.31861702
-0.13501389 -0.089502662 0.21319149
-0.13457893 -0.089502662 0.21319149
-0.13427782 -0.089591987 0.21340425
-0.13410929 -0.08977063 0.21382979
-0.13400553 -0.089993939 0.2143617
-0.1338996 -0.090217255 0.21489362
-0.13372542 -0.090395898 0.21531914
-0.13354953 -0.090574548 0.21574467
-0.13330625 -0.090708531 0.21606383
-0.13312708 -0.090887181 0.21648936
-0.13294618 -0.091065831 0.21691489
-0.13276355 -0.091244482 0.21734042
-0.13257918 -0.091423124 0.21776596
-0.13239306 -0.091601774 0.21819149
-0.13233389 -0.091869742 0.21882978
-0.13220799 -0.092093058 0.21936171
-0.13207991 -0.092316367 0.21989362
-0.13182232 -0.092450358 0.22021277
-0.13149995 -0.092539676 0.22042553
-0.13117671 -0.092629001 0.2206383
-0.13097864 -0.092807643 0.22106382
-0.13077886 -0.092986293 0.22148935
-0.13063996 -0.093209609 0.22202128
-0.13049886 -0.093432918 0.22255319
-0.1303556 -0.093656227 0.22308511
-0.13021016 -0.093879536 0.22361702
-0.13000081 -0.094058186 0.22404255
-0.12978975 -0.094236836 0.22446808
-0.12957695 -0.094415478 0.22489361
-0.12942348 -0.094638787 0.22542553
-0.12920699 -0.094817437 0.22585106
-0.12904941 -0.095040753 0.22638299
-0.12888964 -0.095264062 0.2269149
-0.12878792 -0.09553203 0.22755319
-0.12862359 -0.095755339 0.2280851
-0.12857667 -0.096067972 0.22882979
-0.12852669 -0.096380614 0.22957447
-0.12847367 -0.09669324 0.23031914
-0.1283585 -0.096961215 0.23095745
-0.1281818 -0.097184524 0.23148936
-0.12794425 -0.097363174 0.23191489
-0.12776344 -0.097586483 0.2324468
-0.12758045 -0.097809792 0.23297872
-0.12751137 -0.098122425 0.2337234
-0.12743926 -0.098435067 0.23446809
-0.12742171 -0.098792359 0.23531915
-0.12728591 -0.099060327 0.23595744
-0.12709033 -0.099283636 0.23648936
-0.1268926 -0.099506952 0.23702128
-0.12680614 -0.099819586 0.23776595
-0.12666015 -0.10008756 0.23840426
-0.12651154 -0.10035553 0.23904255
-0.12624817 -0.10053418 0.23946808
-0.12603891 -0.10075749 0.23999999
-0.12588315 -0.10102546 0.2406383
-0.12578021 -0.10133809 0.24138297
-0.12583989 -0.10178471 0.24244681
-0.12584022 -0.10218667 0.24340425
-0.12583664 -0.10258862 0.2443617
-0.12577459 -0.10294592 0.24521276
-0.12570909 -0.10330322 0.24606383
-0.12558596 -0.10361586 0.24680851
-0.12556763 -0.10401782 0.24776596
-0.12554538 -0.10441977 0.2487234
-0.12557273 -0.10486639 0.24978724
-0.1257555 -0.105447 0.25117022
-0.12609178 -0.10616159 0.25287235
-0.12663244 -0.10705483 0.255
-0.12716441 -0.10794807 0.25712767
-0.12763529 -0.10879664 0.25914893
-0.1279414 -0.10951123 0.26085106
-0.12813665 -0.11013651 0.26234043
-0.12822232 -0.11067244 0.26361701
-0.12830278 -0.11120839 0.26489362
-0.1282241 -0.11161035 0.26585105
-0.12803935 -0.11192299 0.26659575
-0.12785153 -0.11223562 0.26734042
-0.12771136 -0.11259292 0.26819149
-0.12766857 -0.11303953 0.26925531
-0.12762147 -0.11348616 0.27031916
-0.12741998 -0.1137988 0.27106383
-0.12711588 -0.11402211 0.27159575
-0.12680961 -0.11424541 0.27212766
-0.12659988 -0.11455804 0.27287233
-0.12658367 -0.11504932 0.27404255
-0.12670946 -0.1156746 0.27553192
-0.12678045 -0.1162552 0.27691489
-0.12684581 -0.11683581 0.27829787
-0.12676071 -0.11728243 0.2793617
-0.12652712 -0.11759507 0.2801064
-0.12629047 -0.1179077 0.28085107
-0.12609841 -0.118265 0.28170213
-0.12599768 -0.11871161 0.28276595
-0.12598698 -0.11924756 0.28404257
-0.1259241 -0.11973883 0.28521276
-0.12576294 -0.1201408 0.28617021
-0.12555134 -0.12049809 0.28702128
-0.12547524 -0.12098938 0.2881915
-0.12557875 -0.1216593 0.28978723
-0.12572163 -0.1223739 0.29148936
-0.12576623 -0.12299917 0.29297873
-0.12566841 -0.12349045 0.29414892
-0.12543011 -0.12384774 0.29499999
-0.12509832 -0.12411571 0.29563829
-0.12476392 -0.12438369 0.2962766
-0.12447149 -0.12469632 0.29702127
-0.12430912 -0.12514293 0.29808509
-0.12418655 -0.12563422 0.29925531
-0.12414706 -0.12621483 0.30063829
-0.12414566 -0.1268401 0.30212766
-0.12413818 -0.12746537 0.30361703
-0.12408133 -0.12804598 0.30500001
-0.12397578 -0.12858191 0.30627659
-0.12386502 -0.12911786 0.3075532
-0.12374905 -0.1296538 0.30882978
-0.12362788 -0.13018976 0.3101064
-0.1234171 -0.13063638 0.31117022
-0.12328593 -0.13117231 0.3124468
-0.12319132 -0.13175291 0.31382978
-0.12309106 -0.13233352 0.31521276
-0.12294385 -0.13286947 0.31648937
-0.12266808 -0.13327143 0.3174468
-0.12238842 -0.13367338 0.31840426
-0.13501389 -0.089067683 0.21319149
-0.13457893 -0.089067683 0.21319149
-0.13427782 -0.089156576 0.21340425
-0.13410929 -0.089334354 0.21382979
-0.13393903 -0.089512132 0.21425532
-0.13383332 -0.089734353 0.21478723
-0.13359329 -0.089867696 0.21510638
-0.13335197 -0.090001032 0.21542554
-0.13310933 -0.09013436 0.21574467
-0.13293082 -0.090312138 0.21617021
-0.13275057 -0.090489917 0.21659574
-0.13263358 -0.090712152 0.21712767
-0.13244964 -0.090889931 0.2175532
-0.13232851 -0.091112152 0.21808511
-0.13226955 -0.091378823 0.2187234
-0.13214387 -0.091601044 0.21925531
-0.13201602 -0.091823272 0.21978724
-0.13182232 -0.092001051 0.22021277
-0.13149995 -0.092089944 0.22042553
-0.13117671 -0.092178836 0.2206383
-0.13091563 -0.092312165 0.22095744
-0.13071606 -0.092489943 0.22138298
-0.13057734 -0.092712164 0.22191489
-0.13049886 -0.092978843 0.22255319
-0.1303556 -0.093201064 0.22308511
-0.13021016 -0.093423285 0.22361702
-0.13000081 -0.09360107 0.22404255
-0.12978975 -0.093778849 0.22446808
-0.12957695 -0.093956627 0.22489361
-0.1293624 -0.094134405 0.22531915
-0.12920699 -0.094356634 0.22585106
-0.12911004 -0.094623305 0.22648937
-0.12888964 -0.094801083 0.2269149
-0.1287277 -0.095023304 0.22744681
-0.12862359 -0.095289975 0.2280851
-0.12857667 -0.095601089 0.22882979
-0.12858625 -0.095956653 0.22968085
-0.12859236 -0.09631221 0.23053192
-0.12841761 -0.096534431 0.23106383
-0.12829962 -0.09680111 0.23170213
-0.12806164 -0.096978888 0.23212767
-0.12793885 -0.097245552 0.23276596
-0.12775522 -0.09746778 0.23329787
-0.12762746 -0.097734451 0.23393618
-0.12755489 -0.098045565 0.23468085
-0.12742171 -0.098312236 0.23531915
-0.12728591 -0.0985789 0.23595744
-0.12714751 -0.098845579 0.23659575
-0.1270065 -0.099112242 0.23723404
-0.12686288 -0.099378914 0.23787235
-0.12677319 -0.099690028 0.23861702
-0.12662415 -0.099956699 0.23925532
-0.12641641 -0.10017892 0.23978724
-0.12615065 -0.10035671 0.24021277
-0.12599444 -0.10062337 0.24085106
-0.12594651 -0.10097893 0.24170212
-0.1258951 -0.10133449 0.24255319
-0.12589522 -0.10173449 0.24351063
-0.12589143 -0.1021345 0.24446808
-0.12582916 -0.10249006 0.24531914
-0.12576343 -0.10284562 0.24617021
-0.12569422 -0.10320117 0.24702127
-0.12572937 -0.10364563 0.24808511
-0.12576017 -0.10409008 0.24914894
-0.12589359 -0.10462341 0.25042552
-0.12612835 -0.10524564 0.25191489
-0.1264631 -0.10595676 0.25361702
-0.12684375 -0.10671233 0.25542554
-0.12732224 -0.10755678 0.2574468
-0.12768769 -0.10831235 0.25925532
-0.1279414 -0.10897902 0.26085106
-0.12808467 -0.1095568 0.26223403
-0.12817058 -0.11009015 0.26351064
-0.12814821 -0.11053459 0.26457447
-0.12801887 -0.11089016 0.26542553
-0.12783498 -0.11120126 0.2661702
-0.12769891 -0.11155683 0.26702127
-0.12766069 -0.11200127 0.26808509
-0.12766857 -0.11249017 0.26925531
-0.12762147 -0.11293463 0.27031916
-0.12746999 -0.11329018 0.2711702
-0.12716568 -0.11351241 0.27170214
-0.12685919 -0.11373463 0.27223405
-0.12664923 -0.11404575 0.27297872
-0.12663281 -0.11453465 0.27414894
-0.12666053 -0.11506797 0.27542552
-0.12673174 -0.11564576 0.2768085
-0.12674884 -0.11617911 0.27808511
-0.12666418 -0.11662355 0.27914894
-0.12647906 -0.11697911 0.28
-0.12619479 -0.11724579 0.28063831
-0.12595554 -0.1175569 0.28138298
-0.12580806 -0.11795691 0.28234044
-0.12579823 -0.11849024 0.28361702
-0.12583016 -0.11906803 0.285
-0.12571619 -0.11951247 0.28606382
-0.12559789 -0.11995693 0.28712767
-0.12556787 -0.12049027 0.28840426
-0.12567094 -0.12115694 0.28999999
-0.12576751 -0.12182362 0.29159576
-0.1258119 -0.12244584 0.2930851
-0.12566841 -0.12289029 0.29414892
-0.12543011 -0.12324584 0.29499999
-0.12514333 -0.12355697 0.29574469
-0.12485351 -0.12386808 0.29648936
-0.12456065 -0.12417919 0.29723403
-0.12430912 -0.12453475 0.29808509
-0.12418655 -0.12502365 0.29925531
-0.12410314 -0.12555699 0.30053192
-0.12405824 -0.12613478 0.3019149
-0.12396418 -0.12666811 0.30319148
-0.12386493 -0.12720145 0.3044681
-0.12376047 -0.1277348 0.30574468
-0.12373649 -0.12835702 0.30723405
-0.1236638 -0.1289348 0.30861703
-0.12350065 -0.12942371 0.30978724
-0.12329052 -0.12986815 0.31085107
-0.12307605 -0.13031259 0.31191489
-0.12298252 -0.13089038 0.31329787
-0.12288335 -0.13146816 0.31468084
-0.12277853 -0.13204595 0.31606382
-0.12250365 -0.13244596 0.31702128
-0.12218396 -0.13280152 0.31787235
-0.12198282 -0.13329041 0.31904256
-0.13501389 -0.08863271 0.21319149
-0.13464607 -0.088676937 0.21329787
-0.13434476 -0.08876539 0.21351063
-0.13417602 -0.088942297 0.21393616
-0.13400553 -0.089119211 0.2143617
-0.13376702 -0.089251898 0.21468085
-0.13352722 -0.089384586 0.215
-0.13322026 -0.089473031 0.21521276
-0.13291243 -0.089561492 0.21542554
-0.13273457 -0.089738406 0.21585107
-0.13262017 -0.089959547 0.21638298
-0.13250361 -0.09018068 0.21691489
-0.13238487 -0.090401821 0.2174468
-0.13226397 -0.090622962 0.21797873
-0.13220522 -0.090888329 0.21861702
-0.13207975 -0.09110947 0.21914893
-0.13195212 -0.091330603 0.21968085
-0.13175863 -0.091507517 0.22010638
-0.13149995 -0.091640204 0.22042553
-0.13117671 -0.091728665 0.2206383
-0.13085259 -0.091817118 0.22085106
-0.13065325 -0.091994025 0.2212766
-0.13051476 -0.092215165 0.22180851
-0.13043648 -0.092480533 0.22244681
-0.13029343 -0.092701674 0.22297873
-0.13014822 -0.092922814 0.22351064
-0.12993909 -0.093099721 0.22393617
-0.12966673 -0.093232408 0.22425532
-0.12945436 -0.093409322 0.22468086
-0.12930132 -0.093630463 0.22521277
-0.12920699 -0.093895823 0.22585106
-0.12911004 -0.094161198 0.22648937
-0.12888964 -0.094338104 0.2269149
-0.1286675 -0.094515018 0.22734043
-0.1285636 -0.094780385 0.22797872
-0.12857667 -0.095134206 0.22882979
-0.12864579 -0.095532253 0.22978723
-0.12865169 -0.095886081 0.2306383
-0.12847674 -0.096107222 0.23117021
-0.12835853 -0.096372589 0.23180851
-0.12817901 -0.09659373 0.23234043
-0.1280558 -0.09685909 0.23297872
-0.12787174 -0.097080238 0.23351064
-0.12774353 -0.097345598 0.23414893
-0.12755489 -0.097566739 0.23468085
-0.12736411 -0.097787887 0.23521277
-0.12722853 -0.098053247 0.23585106
-0.12709033 -0.098318614 0.23648936
-0.12694955 -0.098583981 0.23712766
-0.12691963 -0.098937809 0.23797873
-0.1268297 -0.099247396 0.2387234
-0.12673676 -0.099556997 0.23946808
-0.12652859 -0.099778131 0.23999999
-0.12631826 -0.099999279 0.24053192
-0.12616141 -0.10026465 0.24117021
-0.12605739 -0.10057424 0.2419149
-0.12600555 -0.10092806 0.24276596
-0.12595022 -0.10128189 0.24361703
-0.12594621 -0.10167994 0.24457447
-0.12582916 -0.10198953 0.24531914
-0.12581778 -0.10238758 0.2462766
-0.12574835 -0.10274141 0.24712765
-0.12583719 -0.10322791 0.24829787
-0.12597497 -0.10375865 0.24957447
-0.12621449 -0.10437784 0.25106382
-0.1265012 -0.10504127 0.25265959
-0.12683442 -0.1057489 0.25436169
-0.1271079 -0.10641232 0.25595745
-0.12742747 -0.10711997 0.25765958
-0.1277401 -0.10782762 0.25936171
-0.1279414 -0.1084468 0.26085106
-0.12803273 -0.10897754 0.26212767
-0.12801534 -0.10941982 0.26319149
-0.1279421 -0.10981788 0.26414895
-0.12781362 -0.11017168 0.26499999
-0.12768169 -0.11052551 0.26585105
-0.12759715 -0.11092357 0.26680851
-0.12755938 -0.11136584 0.26787233
-0.12756769 -0.11185236 0.26904255
-0.12752101 -0.11229463 0.27010638
-0.12736997 -0.11264845 0.27095744
-0.12716568 -0.11295806 0.27170214
-0.12690875 -0.11322341 0.27234042
-0.1266986 -0.11353302 0.27308512
-0.12658367 -0.11393106 0.27404255
-0.12661162 -0.1144618 0.27531916
-0.12663434 -0.11499253 0.27659574
-0.12660336 -0.11547904 0.27776596
-0.12651935 -0.11592132 0.27882978
-0.12633489 -0.11627514 0.27968085
-0.12605128 -0.11654051 0.28031915
-0.12581268 -0.1168501 0.28106382
-0.12571324 -0.11729238 0.28212765
-0.12570386 -0.11782312 0.28340426
-0.12578319 -0.1184423 0.2848936
-0.12576294 -0.11897305 0.28617021
-0.12569095 -0.11945955 0.28734043
-0.12570682 -0.12003452 0.28872341
-0.12571704 -0.12060948 0.29010639
-0.12576751 -0.12122867 0.29159576
-0.12572056 -0.1217594 0.29287234
-0.12557751 -0.12220168 0.29393616
-0.12538488 -0.12259974 0.29489362
-0.12514333 -0.12295356 0.29574469
-0.12489831 -0.12330738 0.29659575
-0.12460523 -0.12361697 0.29734042
-0.12435348 -0.1239708 0.29819149
-0.12418655 -0.12441307 0.29925531
-0.12410314 -0.12494382 0.30053192
-0.12397081 -0.12543032 0.30170214
-0.12383369 -0.12591682 0.30287233
-0.12369181 -0.12640333 0.30404255
-0.12358823 -0.12693407 0.30531916
-0.1235651 -0.12755325 0.3068085
-0.12357854 -0.12821668 0.30840427
-0.12341581 -0.12870318 0.30957446
-0.12320613 -0.12914546 0.31063831
-0.12295011 -0.12954351 0.31159574
-0.12281549 -0.13007425 0.31287235
-0.12271719 -0.13064921 0.31425533
-0.12253059 -0.13113572 0.31542554
-0.12225699 -0.13153377 0.31638297
-0.12193861 -0.13188758 0.31723404
-0.12173877 -0.13237409 0.31840426
-0.13508128 -0.088241741 0.21329787
-0.13471323 -0.088285752 0.21340425
-0.13441169 -0.088373773 0.21361703
-0.13417602 -0.088505805 0.21393616
-0.13400553 -0.088681847 0.2143617
-0.13376702 -0.088813879 0.21468085
-0.13346116 -0.088901907 0.21489362
-0.13315441 -0.088989921 0.21510638
-0.13291243 -0.08912196 0.21542554
-0.13273457 -0.089298002 0.21585107
-0.13262017 -0.089518055 0.21638298
-0.13250361 -0.089738108 0.21691489
-0.13238487 -0.089958161 0.2174468
-0.13226397 -0.090178221 0.21797873
-0.13214089 -0.090398274 0.21851064
-0.13195153 -0.090574317 0.21893618
-0.13188823 -0.09083838 0.21957447
-0.13169494 -0.091014422 0.22
-0.13143648 -0.091146454 0.22031915
-0.13111345 -0.091234475 0.22053191
-0.13085259 -0.091366507 0.22085106
-0.13059042 -0.091498546 0.22117022
-0.13045216 -0.091718599 0.22170213
-0.13037409 -0.091982663 0.22234042
-0.13023128 -0.092202716 0.22287235
-0.13008627 -0.092422768 0.22340426
-0.12981564 -0.092554808 0.22372341
-0.12954371 -0.092686832 0.22404255
-0.12933177 -0.092862874 0.22446808
-0.12924026 -0.093126945 0.22510639
-0.12914613 -0.093391009 0.22574468
-0.12904941 -0.09365508 0.22638299
-0.12882921 -0.093831114 0.2268085
-0.1286675 -0.094051175 0.22734043
-0.1285636 -0.094315238 0.22797872
-0.12863643 -0.094711334 0.22893617
-0.12864579 -0.095063418 0.22978723
-0.12859236 -0.0953715 0.23053192
-0.12841761 -0.095591553 0.23106383
-0.12829962 -0.095855616 0.23170213
-0.12817901 -0.09611968 0.23234043
-0.1280558 -0.096383743 0.23297872
-0.12787174 -0.096603803 0.23351064
-0.12768549 -0.096823856 0.23404256
-0.12743926 -0.096999899 0.23446809
-0.1272489 -0.097219951 0.235
-0.12705636 -0.097440004 0.23553191
-0.126976 -0.097748086 0.2362766
-0.1268926 -0.09805616 0.23702128
-0.12686288 -0.098408245 0.23787235
-0.12677319 -0.098716319 0.23861702
-0.12668045 -0.0990244 0.2393617
-0.12652859 -0.099288456 0.23999999
-0.12637413 -0.099552527 0.2406383
-0.12621705 -0.099816591 0.24127659
-0.12611282 -0.10012466 0.24202128
-0.12606075 -0.10047676 0.24287234
-0.12600522 -0.10082884 0.24372341
-0.12594621 -0.10118093 0.24457447
-0.12588373 -0.10153302 0.24542554
-0.12581778 -0.1018851 0.2462766
-0.12574835 -0.10223719 0.24712765
-0.1258911 -0.10276531 0.24840425
-0.12613606 -0.10338147 0.24989362
-0.12653537 -0.10412966 0.25170213
-0.1269273 -0.10487783 0.25351062
-0.12720576 -0.105538 0.25510639
-0.12737206 -0.10611014 0.25648937
-0.12758531 -0.1067263 0.25797874
-0.1277401 -0.10729844 0.25936171
-0.12788923 -0.10787058 0.26074469
-0.12792879 -0.10835469 0.26191488
-0.12791187 -0.10879481 0.26297873
-0.12778752 -0.10914689 0.2638298
-0.12771101 -0.10954299 0.26478723
-0.12757951 -0.10989507 0.26563829
-0.12754628 -0.11033518 0.26670212
-0.12745807 -0.11073128 0.26765957
-0.12741637 -0.11117139 0.2687234
-0.12732011 -0.11156749 0.26968086
-0.12726995 -0.1120076 0.27074468
-0.12711588 -0.11235968 0.27159575
-0.12695833 -0.11271177 0.27244681
-0.12674795 -0.11301984 0.27319148
-0.12658367 -0.11337193 0.27404255
-0.12656268 -0.11385605 0.27521276
-0.12653694 -0.11434017 0.27638298
-0.1265064 -0.1148243 0.2775532
-0.12637454 -0.11522038 0.27851063
-0.12619072 -0.11557247 0.2793617
-0.12595561 -0.11588056 0.2801064
-0.12576507 -0.11623264 0.28095746
-0.12571324 -0.11671675 0.28212765
-0.12575103 -0.11728889 0.28351063
-0.12583016 -0.11790504 0.285
-0.12585644 -0.11847719 0.28638297
-0.12578402 -0.1189613 0.28755319
-0.12575313 -0.11948943 0.28882977
-0.12576315 -0.12006158 0.29021278
-0.12567574 -0.12054569 0.29138297
-0.1255379 -0.12098581 0.29244682
-0.12539572 -0.12142592 0.29351065
-0.12520395 -0.12182201 0.29446808
-0.12505332 -0.12226213 0.29553193
-0.12489831 -0.12270223 0.29659575
-0.12469439 -0.12309832 0.29755318
-0.12448657 -0.12349442 0.29851064
-0.12427484 -0.12389052 0.29946807
-0.12410314 -0.12433063 0.30053192
-0.12392709 -0.12477074 0.30159575
-0.1237032 -0.12516683 0.30255318
-0.12356198 -0.12565096 0.30372339
-0.12345903 -0.12617908 0.30500001
-0.12343656 -0.12679523 0.30648935
-0.12349328 -0.1274994 0.30819148
-0.12337341 -0.12802754 0.30946809
-0.12320613 -0.12851167 0.31063831
-0.12295011 -0.12890776 0.31159574
-0.12277372 -0.12939188 0.31276596
-0.12259255 -0.129876 0.31393617
-0.12236528 -0.13031611 0.315
-0.12205146 -0.13066819 0.31585106
-0.12173415 -0.13102028 0.31670213
-0.12149473 -0.13146038 0.31776595
-0.12125095 -0.13190049 0.31882977
-0.13501389 -0.087762751 0.21319149
-0.13464607 -0.087806545 0.21329787
-0.13434476 -0.087894134 0.21351063
-0.13410929 -0.08802551 0.21382979
-0.13393903 -0.088200688 0.21425532
-0.13376702 -0.088375866 0.21468085
-0.13352722 -0.08850725 0.215
-0.1332861 -0.088638626 0.21531914
-0.13304371 -0.08877001 0.21563829
-0.13279998 -0.088901393 0.21595745
-0.13268538 -0.089120358 0.21648936
-0.13256858 -0.089339323 0.21702127
-0.13244964 -0.089558303 0.2175532
-0.13226397 -0.089733474 0.21797873
-0.13207655 -0.089908645 0.21840425
-0.13188741 -0.090083823 0.21882978
-0.13176042 -0.090302795 0.21936171
-0.13156758 -0.090477966 0.21978724
-0.13137302 -0.090653144 0.22021277
-0.1310502 -0.090740725 0.22042553
-0.13078956 -0.090872109 0.22074468
-0.13059042 -0.091047287 0.22117022
-0.13045216 -0.091266252 0.22170213
-0.13037409 -0.091529012 0.22234042
-0.13023128 -0.091747992 0.22287235
-0.13008627 -0.091966957 0.22340426
-0.12981564 -0.09209834 0.22372341
-0.12954371 -0.092229716 0.22404255
-0.12933177 -0.092404895 0.22446808
-0.12917916 -0.09262386 0.22499999
-0.1290244 -0.092842832 0.22553192
-0.12892811 -0.093105592 0.22617021
-0.12876879 -0.093324564 0.22670212
-0.1286675 -0.093587324 0.22734043
-0.12862359 -0.093893878 0.2280851
-0.12863643 -0.094244227 0.22893617
-0.12858625 -0.094550788 0.22968085
-0.12847367 -0.094813548 0.23031914
-0.12829937 -0.095032521 0.23085107
-0.1281818 -0.09529528 0.23148936
-0.12806164 -0.095558047 0.23212767
-0.12793885 -0.095820807 0.23276596
-0.12775522 -0.096039779 0.23329787
-0.12756941 -0.096258745 0.23382978
-0.12732361 -0.096433923 0.23425531
-0.12713368 -0.096652895 0.23478724
-0.12694159 -0.09687186 0.23531915
-0.12680449 -0.09713462 0.23595744
-0.12672172 -0.097441182 0.23670213
-0.12669268 -0.09779153 0.23755319
-0.12666015 -0.098141879 0.23840426
-0.12656784 -0.098448433 0.23914893
-0.12652859 -0.098798782 0.23999999
-0.12637413 -0.099061549 0.2406383
-0.12621705 -0.099324308 0.24127659
-0.12611282 -0.09963087 0.24202128
-0.12606075 -0.099981219 0.24287234
-0.12600522 -0.10033157 0.24372341
-0.12594621 -0.10068192 0.24457447
-0.12588373 -0.10103227 0.24542554
-0.12581778 -0.10138262 0.2462766
-0.12580249 -0.10177676 0.24723405
-0.12594503 -0.10230229 0.24851064
-0.12629715 -0.10300299 0.25021276
-0.12674929 -0.10379127 0.25212765
-0.12719363 -0.10457958 0.25404257
-0.127471 -0.10523648 0.2556383
-0.12758335 -0.105762 0.25691488
-0.12763791 -0.10624373 0.2580851
-0.1277401 -0.10676926 0.25936171
-0.12783705 -0.10729478 0.2606383
-0.12782487 -0.10773271 0.26170212
-0.12775663 -0.10812686 0.26265958
-0.12763293 -0.10847721 0.26351064
-0.12760839 -0.10891515 0.26457447
-0.12752841 -0.1093093 0.26553193
-0.12749541 -0.10974724 0.26659575
-0.12735674 -0.11009759 0.26744682
-0.12721461 -0.11044794 0.26829788
-0.12711921 -0.11084207 0.26925531
-0.12711993 -0.11132381 0.27042553
-0.12711588 -0.11180554 0.27159575
-0.12700792 -0.11219969 0.27255321
-0.12684666 -0.11255003 0.27340424
-0.12663281 -0.1128566 0.27414894
-0.12651376 -0.11325073 0.27510637
-0.12643953 -0.11368868 0.27617022
-0.12636092 -0.11412662 0.27723405
-0.12622972 -0.11452075 0.27819148
-0.12609462 -0.1149149 0.27914894
-0.12590776 -0.11526525 0.28
-0.12581268 -0.11570319 0.28106382
-0.12576066 -0.11618492 0.28223404
-0.12584542 -0.11679804 0.28372341
-0.12587714 -0.11736736 0.28510639
-0.12585644 -0.11789288 0.28638297
-0.12583056 -0.11841841 0.28765959
-0.12579946 -0.11894393 0.28893617
-0.12576315 -0.11946946 0.29021278
-0.12562987 -0.11990739 0.2912766
-0.1254009 -0.12025775 0.29212767
-0.12521391 -0.12065189 0.2930851
-0.12502302 -0.12104603 0.29404256
-0.12487324 -0.12148397 0.29510638
-0.12480872 -0.1220095 0.29638299
-0.12469439 -0.12249122 0.29755318
-0.1245753 -0.12297296 0.2987234
-0.12431899 -0.12332331 0.29957446
-0.12405921 -0.12367366 0.30042553
-0.12383968 -0.12406781 0.30138299
-0.12361622 -0.12446194 0.30234042
-0.12351871 -0.12498748 0.30361703
-0.12341597 -0.125513 0.30489361
-0.12339373 -0.12612611 0.30638298
-0.12340803 -0.12678301 0.30797872
-0.123331 -0.12735233 0.3093617
-0.12320613 -0.12787786 0.31063831
-0.12295011 -0.128272 0.31159574
-0.12273196 -0.12870994 0.31265956
-0.12250947 -0.12914789 0.31372342
-0.12228263 -0.12958582 0.31478724
-0.12201034 -0.12997995 0.31574467
-0.12169325 -0.13033031 0.31659573
-0.1213727 -0.13068067 0.3174468
-0.12108913 -0.13107482 0.31840426
-0.13494653 -0.087284192 0.2130851
-0.13457893 -0.087327778 0.21319149
-0.13434476 -0.087458499 0.21351063
-0.13410929 -0.087589234 0.21382979
-0.13393903 -0.08776354 0.21425532
-0.13376702 -0.087937847 0.21468085
-0.13365936 -0.088155732 0.21521276
-0.13341781 -0.088286459 0.21553192
-0.13317497 -0.088417195 0.21585107
-0.13293082 -0.088547923 0.21617021
-0.13275057 -0.088722229 0.21659574
-0.13256858 -0.088896535 0.21702127
-0.13244964 -0.08911442 0.2175532
-0.13226397 -0.089288734 0.21797873
-0.13201222 -0.089419454 0.21829787
-0.13182329 -0.089593761 0.2187234
-0.13163263 -0.089768067 0.21914893
-0.13144022 -0.089942381 0.21957447
-0.13124608 -0.090116687 0.22
-0.13092372 -0.090203844 0.22021277
-0.13072653 -0.09037815 0.2206383
-0.13059042 -0.090596028 0.22117022
-0.13045216 -0.090813912 0.22170213
-0.13037409 -0.091075368 0.22234042
-0.13029343 -0.091336831 0.22297873
-0.13014822 -0.091554716 0.22351064
-0.12993909 -0.091729023 0.22393617
-0.12966673 -0.091859758 0.22425532
-0.12939306 -0.091990486 0.22457446
-0.12917916 -0.092164792 0.22499999
-0.1290244 -0.092382677 0.22553192
-0.12886746 -0.092600562 0.22606383
-0.12870836 -0.092818446 0.22659574
-0.1286675 -0.093123481 0.22734043
-0.12862359 -0.093428515 0.2280851
-0.12857667 -0.093733557 0.22882979
-0.12852669 -0.094038591 0.22957447
-0.12841433 -0.094300054 0.23021276
-0.12818111 -0.09447436 0.2306383
-0.12806399 -0.094735824 0.2312766
-0.12788557 -0.094953701 0.23180851
-0.12782191 -0.095258743 0.2325532
-0.12763871 -0.095476627 0.23308511
-0.12745334 -0.095694505 0.23361702
-0.1272658 -0.095912389 0.23414893
-0.12707607 -0.096130274 0.23468085
-0.12688419 -0.096348159 0.23521277
-0.12674731 -0.096609622 0.23585106
-0.12666477 -0.096914656 0.23659575
-0.1265792 -0.097219691 0.23734042
-0.12654711 -0.097568303 0.23819149
-0.12651154 -0.097916916 0.23904255
-0.12641641 -0.098221958 0.23978724
-0.12626238 -0.098483413 0.24042553
-0.12610576 -0.098744877 0.24106383
-0.12600194 -0.099049911 0.2418085
-0.12595032 -0.099398531 0.24265957
-0.12595022 -0.099790722 0.24361703
-0.12594621 -0.10018291 0.24457447
-0.1259383 -0.1005751 0.24553192
-0.12587214 -0.10092372 0.24638298
-0.12585662 -0.10131591 0.24734043
-0.12605286 -0.10188241 0.2487234
-0.12645824 -0.10262321 0.25053191
-0.12701671 -0.10349475 0.25265959
-0.12745994 -0.10427913 0.25457448
-0.12763013 -0.10484563 0.25595745
-0.12763619 -0.10528139 0.25702128
-0.12763791 -0.10571715 0.2580851
-0.12768769 -0.1061965 0.25925532
-0.12768051 -0.10663226 0.26031914
-0.12766899 -0.10706803 0.26138297
-0.12760139 -0.10746022 0.26234043
-0.12752989 -0.10785242 0.26329789
-0.12750578 -0.10828818 0.26436171
-0.12747732 -0.10872395 0.26542553
-0.12739366 -0.10911614 0.26638299
-0.12725542 -0.10946476 0.26723406
-0.12716416 -0.10985695 0.26819149
-0.12711921 -0.11029271 0.26925531
-0.12711993 -0.11077206 0.27042553
-0.12716568 -0.11129498 0.27170214
-0.12710705 -0.11173075 0.27276596
-0.12694538 -0.11207936 0.27361703
-0.12673108 -0.11238439 0.2743617
-0.12656268 -0.11273301 0.27521276
-0.12639081 -0.11308163 0.27606383
-0.12631243 -0.11351739 0.27712765
-0.12618145 -0.11390959 0.27808511
-0.12604655 -0.11430177 0.27904254
-0.12595561 -0.11473755 0.2801064
-0.12590791 -0.11521688 0.28127658
-0.12585546 -0.11569623 0.2824468
-0.12589259 -0.11626272 0.28382978
-0.12587714 -0.11678565 0.28510639
-0.12585644 -0.11730856 0.28638297
-0.12583056 -0.11783149 0.28765959
-0.12584578 -0.11839799 0.28904256
-0.12576315 -0.11887734 0.29021278
-0.12562987 -0.1193131 0.2912766
-0.12535523 -0.11961813 0.29202127
-0.12507756 -0.11992317 0.29276595
-0.12484209 -0.12027178 0.29361701
-0.12469319 -0.12070756 0.29468086
-0.12467432 -0.12127405 0.29606384
-0.12464982 -0.12184055 0.29744682
-0.1245753 -0.12236346 0.2987234
-0.12431899 -0.12271208 0.29957446
-0.12401527 -0.12301712 0.30031914
-0.12375224 -0.12336573 0.3011702
-0.12361622 -0.12384508 0.30234042
-0.12351871 -0.124368 0.30361703
-0.12341597 -0.12489092 0.30489361
-0.12339373 -0.12550099 0.30638298
-0.12332277 -0.12606749 0.30776596
-0.12324618 -0.12663399 0.30914894
-0.12312174 -0.1271569 0.31042552
-0.12290815 -0.12759268 0.31148937
-0.12264844 -0.12798487 0.3124468
-0.12246793 -0.12846421 0.31361702
-0.12232395 -0.12898713 0.3148936
-0.12209257 -0.1294229 0.31595746
-0.12181593 -0.12981509 0.31691489
-0.12145405 -0.13012013 0.31765959
-0.12108913 -0.13042517 0.31840426
-0.13494653 -0.086849436 0.2130851
-0.13457893 -0.086892799 0.21319149
-0.13427782 -0.086979516 0.21340425
-0.13410929 -0.087152958 0.21382979
-0.13393903 -0.087326393 0.21425532
-0.13383332 -0.08754319 0.21478723
-0.13365936 -0.087716632 0.21521276
-0.13348366 -0.087890066 0.21563829
-0.13324061 -0.088020146 0.21595745
-0.13293082 -0.088106863 0.21617021
-0.13275057 -0.088280305 0.21659574
-0.13250361 -0.088410385 0.21691489
-0.13232011 -0.088583827 0.21734042
-0.13213487 -0.088757262 0.21776596
-0.13194789 -0.088930704 0.21819149
-0.13175917 -0.089104138 0.21861702
-0.13156873 -0.08927758 0.21904255
-0.13131286 -0.08940766 0.21936171
-0.13105568 -0.089537732 0.21968085
-0.13079721 -0.089667819 0.22
-0.13060047 -0.089841254 0.22042553
-0.13052762 -0.090101413 0.22106382
-0.13051476 -0.090404928 0.22180851
-0.13043648 -0.090665095 0.22244681
-0.13041775 -0.090968609 0.22319148
-0.13027211 -0.091185406 0.22372341
-0.13006255 -0.09135884 0.22414893
-0.12978975 -0.09148892 0.22446808
-0.12951565 -0.091619 0.22478724
-0.12924026 -0.091749087 0.22510639
-0.1290244 -0.091922522 0.22553192
-0.12886746 -0.092139319 0.22606383
-0.12870836 -0.092356116 0.22659574
-0.1286675 -0.092659637 0.22734043
-0.1285636 -0.092919789 0.22797872
-0.12857667 -0.093266673 0.22882979
-0.12846713 -0.093526833 0.22946809
-0.12829565 -0.09374363 0.23
-0.12806287 -0.093917064 0.23042554
-0.12788726 -0.094133861 0.23095745
-0.12782687 -0.094437383 0.23170213
-0.12770496 -0.094697542 0.23234043
-0.12758045 -0.094957694 0.23297872
-0.12745334 -0.095217854 0.23361702
-0.12720796 -0.095391296 0.23404256
-0.12707607 -0.095651448 0.23468085
-0.12688419 -0.095868252 0.23521277
-0.12674731 -0.096128412 0.23585106
-0.12666477 -0.096431926 0.23659575
-0.1265792 -0.09673544 0.23734042
-0.12654711 -0.097082317 0.23819149
-0.12645525 -0.097385839 0.23893617
-0.12636034 -0.09768936 0.23968086
-0.12620652 -0.097949512 0.24031915
-0.1260501 -0.098209679 0.24095745
-0.12594651 -0.098513193 0.24170212
-0.1258951 -0.09886007 0.24255319
-0.12589522 -0.099250302 0.24351063
-0.12589143 -0.099640541 0.24446808
-0.12588373 -0.10003078 0.24542554
-0.12587214 -0.10042102 0.24638298
-0.12591074 -0.10085461 0.24744681
-0.1261607 -0.10146165 0.24893618
-0.12667304 -0.10228549 0.25095746
-0.12728411 -0.10319604 0.2531915
-0.12761974 -0.1038898 0.25489363
-0.12773623 -0.1044101 0.25617021
-0.12763619 -0.10475699 0.25702128
-0.12758531 -0.10514723 0.25797874
-0.1275305 -0.10553746 0.25893617
-0.12752397 -0.10597105 0.25999999
-0.12751311 -0.10640466 0.26106384
-0.12744616 -0.10679489 0.26202127
-0.12742682 -0.10722848 0.2630851
-0.12740315 -0.10766209 0.26414895
-0.12737514 -0.10809568 0.26521277
-0.12734278 -0.10852928 0.2662766
-0.12730607 -0.10896287 0.26734042
-0.12721461 -0.10935312 0.26829788
-0.12716945 -0.10978671 0.2693617
-0.12716995 -0.11026367 0.27053192
-0.12716568 -0.11074062 0.27170214
-0.12715662 -0.11121757 0.27287233
-0.12699473 -0.11156445 0.27372339
-0.12678024 -0.11186798 0.27446809
-0.12651376 -0.11212812 0.27510637
-0.1263421 -0.112475 0.27595744
-0.12621546 -0.11286525 0.27691489
-0.12613319 -0.11329884 0.27797872
-0.12609462 -0.1137758 0.27914894
-0.12605128 -0.11425275 0.28031915
-0.12600316 -0.11472972 0.28148937
-0.12590288 -0.11516331 0.2825532
-0.12584542 -0.11564027 0.28372341
-0.12578319 -0.11611722 0.2848936
-0.12576294 -0.11663754 0.28617021
-0.12578402 -0.11720122 0.28755319
-0.12579946 -0.11776489 0.28893617
-0.12576315 -0.11828521 0.29021278
-0.12553808 -0.11863208 0.29106382
-0.12521823 -0.11889224 0.29170212
-0.12489577 -0.1191524 0.29234043
-0.12466116 -0.11949928 0.29319149
-0.12451312 -0.11993288 0.29425532
-0.12453993 -0.12053991 0.29574469
-0.12456065 -0.12114694 0.29723403
-0.12448657 -0.12166726 0.29851064
-0.12427484 -0.12205749 0.29946807
-0.12401527 -0.12240437 0.30031914
-0.12375224 -0.12275124 0.3011702
-0.12361622 -0.12322821 0.30234042
-0.12356198 -0.12379188 0.30372339
-0.12350209 -0.12435555 0.30510637
-0.12339373 -0.12487588 0.30638298
-0.12328014 -0.12539619 0.30765957
-0.12316135 -0.12591651 0.30893618
-0.12295297 -0.1263501 0.31
-0.12274023 -0.1267837 0.31106383
-0.12260669 -0.12730402 0.31234044
-0.12255101 -0.12791105 0.31382978
-0.12244793 -0.12847473 0.31521276
-0.12229811 -0.12899505 0.31648937
-0.1219795 -0.12934193 0.31734043
-0.12161675 -0.12964544 0.3180851
-0.12129141 -0.12999232 0.31893617
-0.13487916 -0.086371534 0.21297872
-0.13451175 -0.086414672 0.2130851
-0.13427782 -0.086544104 0.21340425
-0.13410929 -0.086716674 0.21382979
-0.13393903 -0.086889245 0.21425532
-0.13383332 -0.087104961 0.21478723
-0.13365936 -0.087277532 0.21521276
-0.13341781 -0.087406956 0.21553192
-0.13317497 -0.087536387 0.21585107
-0.13293082 -0.087665811 0.21617021
-0.13268538 -0.087795243 0.21648936
-0.13243863 -0.087924667 0.21680851
-0.13225533 -0.088097245 0.21723405
-0.13207032 -0.088269815 0.21765958
-0.13188356 -0.088442385 0.21808511
-0.13169506 -0.088614956 0.21851064
-0.13144092 -0.08874438 0.21882978
-0.13118549 -0.088873804 0.21914893
-0.13086529 -0.088960096 0.21936171
-0.13060747 -0.08908952 0.21968085
-0.1304744 -0.089305237 0.22021277
-0.13040198 -0.089564092 0.22085106
-0.13045216 -0.089909233 0.22170213
-0.13043648 -0.090211228 0.22244681
-0.13047992 -0.090556376 0.22329788
-0.13033405 -0.090772085 0.22382979
-0.13012429 -0.090944655 0.22425532
-0.12991278 -0.091117226 0.22468086
-0.12957695 -0.091203511 0.22489361
-0.12930132 -0.091332935 0.22521277
-0.12908527 -0.091505505 0.2256383
-0.12886746 -0.091678075 0.22606383
-0.12870836 -0.091893792 0.22659574
-0.12860729 -0.09215264 0.22723404
-0.12850362 -0.092411503 0.22787234
-0.12845711 -0.092713505 0.22861703
-0.12834801 -0.092972353 0.22925532
-0.12817696 -0.09318807 0.22978723
-0.12794462 -0.09336064 0.23021276
-0.12782836 -0.093619496 0.23085107
-0.12770949 -0.093878351 0.23148936
-0.12764649 -0.094180353 0.23223405
-0.12758045 -0.094482347 0.23297872
-0.12745334 -0.094741203 0.23361702
-0.1272658 -0.09495692 0.23414893
-0.12707607 -0.095172629 0.23468085
-0.12688419 -0.095388345 0.23521277
-0.12680449 -0.09569034 0.23595744
-0.12672172 -0.095992342 0.23670213
-0.12663594 -0.096294343 0.23744681
-0.12654711 -0.096596338 0.23819149
-0.12645525 -0.096898332 0.23893617
-0.12630425 -0.097157188 0.23957446
-0.12615065 -0.097416051 0.24021277
-0.12599444 -0.097674899 0.24085106
-0.12589107 -0.097976901 0.24159575
-0.12583989 -0.098322041 0.24244681
-0.12578522 -0.098667182 0.24329787
-0.12578186 -0.099055469 0.24425532
-0.12577459 -0.099443749 0.24521276
-0.12576343 -0.099832028 0.24617021
-0.12591074 -0.10034975 0.24744681
-0.12632243 -0.10108317 0.24925531
-0.12688783 -0.10194602 0.25138298
-0.12749802 -0.10285202 0.25361702
-0.12777951 -0.10349915 0.25521275
-0.12784232 -0.10397372 0.25638297
-0.12768903 -0.10427573 0.25712767
-0.12758531 -0.10462087 0.25797874
-0.12747811 -0.104966 0.25882977
-0.1274718 -0.10539743 0.25989363
-0.12746115 -0.10582886 0.26095745
-0.12739441 -0.10621714 0.26191488
-0.1273753 -0.10664857 0.26297873
-0.12735184 -0.10708 0.26404256
-0.12737514 -0.10755457 0.26521277
-0.12734278 -0.10798599 0.2662766
-0.12735674 -0.10846056 0.26744682
-0.12731549 -0.10889199 0.26851064
-0.12721968 -0.10928027 0.2694681
-0.12716995 -0.1097117 0.27053192
-0.12711588 -0.11014313 0.27159575
-0.12705748 -0.11057454 0.27265957
-0.12694538 -0.11096283 0.27361703
-0.12668194 -0.11122168 0.27425531
-0.12641592 -0.11148054 0.27489361
-0.126196 -0.11178254 0.27563831
-0.12606999 -0.11217082 0.27659574
-0.12608492 -0.11268854 0.27787235
-0.12609462 -0.11320625 0.27914894
-0.12605128 -0.11368082 0.28031915
-0.12600316 -0.11415539 0.28148937
-0.12585546 -0.11454367 0.2824468
-0.12579823 -0.11501823 0.28361702
-0.12573622 -0.11549281 0.28478724
-0.12571619 -0.11601052 0.28606382
-0.12573749 -0.11657137 0.2874468
-0.12575313 -0.11713222 0.28882977
-0.12562485 -0.11756366 0.28989363
-0.12535456 -0.11786565 0.2906383
-0.12503557 -0.11812451 0.2912766
-0.12471396 -0.11838336 0.29191488
-0.12452547 -0.11877164 0.29287234
-0.1244681 -0.11928935 0.29414892
-0.12445033 -0.11985022 0.29553193
-0.12447149 -0.12045421 0.29702127
-0.12439785 -0.12097193 0.29829788
-0.12427484 -0.12144648 0.29946807
-0.12401527 -0.12179162 0.30031914
-0.12379596 -0.12217991 0.30127659
-0.12361622 -0.12261134 0.30234042
-0.12351871 -0.12312905 0.30361703
-0.12345903 -0.1236899 0.30500001
-0.12339373 -0.12425076 0.30638298
-0.12328014 -0.12476847 0.30765957
-0.12311894 -0.12524304 0.30882978
-0.12291077 -0.12567446 0.30989361
-0.12269826 -0.1261059 0.31095746
-0.12264844 -0.12670989 0.3124468
-0.12263409 -0.12735702 0.31404254
-0.12257191 -0.12796102 0.31553191
-0.12242144 -0.12847874 0.31680852
-0.12210218 -0.12882388 0.31765959
-0.12177945 -0.12916902 0.31851065
-0.13481177 -0.085894063 0.21287234
-0.13444461 -0.085936993 0.21297872
-0.13421088 -0.086065769 0.21329787
-0.13404258 -0.086237468 0.21372341
-0.13387252 -0.086409174 0.21414894
-0.13376702 -0.086623803 0.21468085
-0.13352722 -0.086752579 0.215
-0.13335197 -0.086924285 0.21542554
-0.13310933 -0.087053053 0.21574467
-0.1328654 -0.087181829 0.21606383
-0.13262017 -0.087310612 0.21638298
-0.13243863 -0.087482311 0.21680851
-0.13225533 -0.087654017 0.21723405
-0.13200577 -0.087782793 0.2175532
-0.13181922 -0.087954499 0.21797873
-0.13163094 -0.08812619 0.21840425
-0.13137703 -0.088254973 0.2187234
-0.13112181 -0.088383749 0.21904255
-0.13073836 -0.088426672 0.21914893
-0.13048097 -0.088555455 0.21946809
-0.13034834 -0.088770077 0.22
-0.13033918 -0.089070559 0.22074468
-0.13038956 -0.089413963 0.22159575
-0.13043648 -0.089757368 0.22244681
-0.13041775 -0.090057842 0.22319148
-0.13033405 -0.090315402 0.22382979
-0.13018601 -0.09053003 0.2243617
-0.12991278 -0.090658806 0.22468086
-0.12963824 -0.090787582 0.22499999
-0.1293624 -0.090916358 0.22531915
-0.12908527 -0.091045134 0.2256383
-0.12880683 -0.091173917 0.22595745
-0.12864794 -0.091388538 0.22648937
-0.12854707 -0.09164609 0.22712766
-0.12844363 -0.091903649 0.22776596
-0.12839733 -0.092204124 0.22851063
-0.12828845 -0.092461683 0.22914894
-0.12811762 -0.092676304 0.22968085
-0.12788549 -0.09284801 0.23010638
-0.12771054 -0.093062632 0.2306383
-0.1276508 -0.093363114 0.23138298
-0.12764649 -0.093706518 0.23223405
-0.12758045 -0.094006993 0.23297872
-0.1273953 -0.094221629 0.23351064
-0.12720796 -0.094436258 0.23404256
-0.12707607 -0.094693802 0.23468085
-0.12688419 -0.094908439 0.23521277
-0.12674731 -0.09516599 0.23585106
-0.12666477 -0.095466472 0.23659575
-0.1265792 -0.095766947 0.23734042
-0.12654711 -0.096110351 0.23819149
-0.12645525 -0.096410833 0.23893617
-0.12630425 -0.096668385 0.23957446
-0.12615065 -0.096925937 0.24021277
-0.12599444 -0.097183488 0.24085106
-0.12583564 -0.097441047 0.24148937
-0.12578467 -0.097784452 0.24234043
-0.12573022 -0.098127857 0.2431915
-0.12561752 -0.098428331 0.24393617
-0.12555633 -0.098771736 0.24478723
-0.12560038 -0.099200994 0.24585107
-0.12585662 -0.09980195 0.24734043
-0.12637635 -0.10061754 0.24936171
-0.12704892 -0.1015619 0.25170213
-0.12760498 -0.1024204 0.25382978
-0.12793931 -0.10310721 0.25553191
-0.1279484 -0.10353647 0.25659573
-0.12784751 -0.10387988 0.2574468
-0.12769054 -0.10418036 0.2581915
-0.12758291 -0.10452376 0.25904256
-0.12752397 -0.10491009 0.25999999
-0.12746115 -0.10529643 0.26095745
-0.12744616 -0.10572568 0.26202127
-0.1273753 -0.10611201 0.26297873
-0.12735184 -0.10654127 0.26404256
-0.12737514 -0.10701345 0.26521277
-0.12739366 -0.10748563 0.26638299
-0.12740739 -0.1079578 0.26755318
-0.12731549 -0.10834414 0.26851064
-0.12721968 -0.10873047 0.2694681
-0.12706994 -0.10907388 0.27031916
-0.12696651 -0.1094602 0.27127659
-0.12685919 -0.10984654 0.27223405
-0.1266986 -0.11018994 0.27308512
-0.12648539 -0.11049042 0.27382979
-0.12622023 -0.11074798 0.27446809
-0.12604988 -0.11109138 0.27531916
-0.12592453 -0.1114777 0.27627659
-0.12598836 -0.11203574 0.27765957
-0.12599851 -0.11255085 0.27893618
-0.12600344 -0.11306595 0.28021276
-0.12590791 -0.1134952 0.28127658
-0.12580806 -0.11392447 0.28234044
-0.12575103 -0.11439664 0.28351063
-0.12573622 -0.11491175 0.28478724
-0.12571619 -0.11542685 0.28606382
-0.12573749 -0.11598489 0.2874468
-0.12566051 -0.11645707 0.28861701
-0.12544043 -0.11680047 0.28946808
-0.12507926 -0.1170151 0.28999999
-0.12476157 -0.11727266 0.2906383
-0.12453217 -0.11761606 0.29148936
-0.124435 -0.11808825 0.29265958
-0.12442309 -0.11864628 0.29404256
-0.12440553 -0.11920431 0.29542553
-0.12438232 -0.11976234 0.29680851
-0.12430912 -0.12027744 0.29808509
-0.12418655 -0.12074962 0.29925531
-0.12405921 -0.12122181 0.30042553
-0.12383968 -0.12160815 0.30138299
-0.12361622 -0.12199447 0.30234042
-0.12343214 -0.12242372 0.30340424
-0.12337291 -0.12298176 0.30478725
-0.12335087 -0.12358271 0.30627659
-0.12332277 -0.12418368 0.30776596
-0.12320376 -0.12469878 0.30904254
-0.12299516 -0.12512805 0.3101064
-0.12282418 -0.12560022 0.31127658
-0.12277372 -0.12620118 0.31276596
-0.12275872 -0.12684506 0.31436169
-0.12265456 -0.12740308 0.31574467
-0.12242144 -0.12783235 0.31680852
-0.12210218 -0.12817575 0.31765959
-0.12182012 -0.12856208 0.31861702
-0.13467704 -0.085374318 0.21265957
-0.13431031 -0.085417032 0.21276596
-0.134077 -0.085545152 0.2130851
-0.13390912 -0.085715987 0.21351063
-0.13380602 -0.085929535 0.21404256
-0.13363446 -0.08610037 0.21446809
-0.13346116 -0.086271204 0.21489362
-0.13322026 -0.086399324 0.21521276
-0.13297807 -0.086527452 0.21553192
-0.13273457 -0.08665558 0.21585107
-0.13255498 -0.086826414 0.2162766
-0.13243863 -0.087039955 0.21680851
-0.13219057 -0.087168083 0.21712767
-0.13200577 -0.087338917 0.2175532
-0.13175489 -0.087467037 0.21787234
-0.13156682 -0.087637872 0.21829787
-0.13137703 -0.087808706 0.2187234
-0.13105813 -0.087894127 0.21893618
-0.13073836 -0.08797954 0.21914893
-0.13048097 -0.088107668 0.21946809
-0.13034834 -0.088321209 0.22
-0.13027637 -0.088577464 0.2206383
-0.13032696 -0.088919125 0.22148935
-0.13031171 -0.089218087 0.22223404
-0.13029343 -0.089517049 0.22297873
-0.13021016 -0.089773297 0.22361702
-0.13006255 -0.089986838 0.22414893
-0.12991278 -0.090200387 0.22468086
-0.12963824 -0.090328507 0.22499999
-0.12930132 -0.090413928 0.22521277
-0.1290244 -0.090542056 0.22553192
-0.12874618 -0.090670176 0.22585106
-0.12852708 -0.09084101 0.22627659
-0.12836644 -0.091054551 0.2268085
-0.12832363 -0.091353513 0.22755319
-0.12827778 -0.091652475 0.22829787
-0.12816933 -0.091908723 0.22893617
-0.12805828 -0.092164978 0.22957447
-0.12788549 -0.092378519 0.23010638
-0.12771054 -0.092592061 0.2306383
-0.12759212 -0.092848316 0.2312766
-0.12758802 -0.093189985 0.23212767
-0.12746394 -0.093446232 0.23276596
-0.12733725 -0.09370248 0.23340425
-0.12715015 -0.093916029 0.23393618
-0.12696087 -0.09412957 0.23446809
-0.12682681 -0.094385818 0.23510638
-0.12669015 -0.094642073 0.23574468
-0.12660782 -0.094941027 0.23648936
-0.1265792 -0.095282696 0.23734042
-0.12649059 -0.095581658 0.23808511
-0.12639894 -0.09588062 0.23882979
-0.12624817 -0.096136868 0.23946808
-0.12609479 -0.096393123 0.24010639
-0.1259388 -0.096649371 0.24074468
-0.12583564 -0.096948333 0.24148937
-0.12572944 -0.097247288 0.24223404
-0.12562022 -0.09754625 0.24297872
-0.12545317 -0.097802505 0.24361703
-0.12539263 -0.098144166 0.24446808
-0.12543733 -0.098571256 0.24553192
-0.12585662 -0.0992973 0.24734043
-0.12648417 -0.10019418 0.24957447
-0.12715632 -0.10113376 0.25191489
