# .PCD v0.7 - Point Cloud Data file format
VERSION 0.7
FIELDS x y z
SIZE 4 4 4
TYPE F F F
COUNT 1 1 1
WIDTH 1362
HEIGHT 1
VIEWPOINT 0 0 0 1 0 0 0
POINTS 1362
DATA ascii
0.054786671 0.046658643 0.15837611
0.054795381 0.046706654 0.15836889
0.054811362 0.046800919 0.15834455
0.05481619 0.046826761 0.15833569
0.054814167 0.046804857 0.15833372
0.054809518 0.046784103 0.15833658
0.051855877 0.037728846 0.13241178
0.051801529 0.037800714 0.13217635
0.051690966 0.037914794 0.13185167
0.051566776 0.038039073 0.13152148
0.051499147 0.038181733 0.13127504
0.051429 0.038342681 0.13101792
0.051330928 0.038482282 0.1307333
0.051271871 0.03864624 0.13049302
0.051224984 0.038832858 0.13021149
0.051179554 0.038975514 0.12996319
0.051151019 0.03903136 0.12980185
0.05116326 0.039061453 0.12977445
0.051204018 0.039081849 0.1298608
0.051281229 0.039045252 0.13005866
0.051348045 0.038952064 0.13024811
0.051431078 0.038860172 0.13049963
0.051530097 0.038767513 0.13073301
0.051633991 0.038691904 0.1309489
0.05177065 0.038618959 0.13122639
0.051947683 0.038550172 0.13158889
0.052262448 0.038469639 0.13221075
0.053033303 0.038494866 0.13359009
0.054686256 0.039019726 0.13603395
0.056536876 0.03982538 0.13801807
0.058053192 0.04037711 0.13929471
0.058627639 0.040645353 0.1396559
0.058806274 0.040809318 0.13988413
0.058837343 0.040845614 0.13992016
0.14156987 0.072257057 0.24950856
0.14152898 0.072288938 0.24943893
0.14154065 0.072264254 0.24940853
0.14155731 0.072316654 0.24938393
0.14158089 0.07239119 0.24935158
0.14160269 0.072468251 0.24932316
0.14162245 0.072547816 0.24929857
-0.15757762 0.07281439 0.25511572
-0.15754865 0.072965853 0.25504923
-0.15753418 0.073067904 0.25500911
-0.157528 0.073117994 0.25498509
-0.1575294 0.073085889 0.25500503
-0.15749037 0.073268816 0.25492573
-0.15748058 0.073335849 0.25489068
-0.1574683 0.07339026 0.25486329
-0.15746427 0.07343746 0.25482813
-0.045191288 0.035151828 0.12259439
-0.045161709 0.035146803 0.12259664
-0.045119599 0.035173323 0.12259582
-0.045088727 0.035180926 0.12259841
-0.045059569 0.035201203 0.12260398
-0.045036335 0.035194404 0.12262415
-0.045017987 0.035229214 0.12261146
-0.044991158 0.03524268 0.12262197
-0.044982426 0.035267629 0.12261396
-0.044973556 0.035301331 0.12260134
-0.044958781 0.035310898 0.12260879
-0.044951759 0.035324749 0.12260559
-0.044945739 0.035330322 0.12260592
-0.044933669 0.035363052 0.12259459
-0.044920135 0.035347175 0.12261152
-0.044903219 0.035367403 0.12260763
-0.044887759 0.035388444 0.12260491
-0.044869874 0.035388146 0.12261264
-0.044844452 0.03540593 0.12261483
-0.044808928 0.035436537 0.1226152
-0.044774238 0.035447691 0.12262273
-0.044732433 0.035477094 0.12261741
-0.05187498 0.053187944 0.18135917
-0.051814862 0.053218547 0.18137543
-0.051751245 0.053255048 0.18139416
-0.051715318 0.053275276 0.18140648
-0.051689014 0.053298231 0.18141271
-0.05168112 0.053284306 0.18142331
-0.051659051 0.053292885 0.18142936
-0.051643409 0.05334352 0.18142202
-0.051632077 0.053323459 0.18143108
-0.051615268 0.0533414 0.18142919
-0.051599264 0.053369634 0.18142349
-0.051586058 0.053385913 0.18141662
-0.051573668 0.053438194 0.18140456
-0.051565196 0.053459119 0.18140142
-0.051558431 0.053489897 0.181392
-0.051552314 0.053490385 0.18139552
-0.051548332 0.053512368 0.18139188
-0.051538289 0.053524088 0.18139489
-0.051538289 0.053524092 0.1813949
-0.051530804 0.05354654 0.18139541
-0.051524669 0.053557519 0.1813931
-0.051516782 0.053579345 0.18138936
-0.051509988 0.053601973 0.18138795
-0.051504441 0.05361376 0.18138783
-0.051496886 0.053625371 0.18139178
-0.051490832 0.053605251 0.18140654
-0.051493939 0.05363784 0.18138851
-0.05148425 0.053640865 0.18139906
-0.051452249 0.053640056 0.18141991
-0.051421519 0.053682841 0.18142603
-0.051374733 0.053750049 0.18143126
-0.0059696017 0.089262895 0.30157465
-0.005916737 0.089312844 0.30152181
-0.0057939505 0.089600414 0.30131924
-0.0057108849 0.089782901 0.30122
-0.0056439908 0.089946575 0.30113912
-0.0055821049 0.090081953 0.3010689
-0.0055068978 0.090065733 0.30107594
-0.0054515777 0.0901049 0.30105853
-0.0054132491 0.090072744 0.30108368
0.01424033 0.071633734 0.24151699
0.014256404 0.071685009 0.24150524
0.014280297 0.071757592 0.24149698
0.014299685 0.07184419 0.24145968
0.014310397 0.07190568 0.24143662
0.014334488 0.071907848 0.24147052
0.014357822 0.071981102 0.24147095
0.014364103 0.072001413 0.24146576
0.014373994 0.072026521 0.24145235
0.014389259 0.07207302 0.24142872
0.014407608 0.072163872 0.24139003
0.014417422 0.072148718 0.2413902
0.014426763 0.072149388 0.24138798
0.014429054 0.072107241 0.24140622
0.014450852 0.072110377 0.24141957
0.042712037 0.054071635 0.18480264
0.042723622 0.054101624 0.1847994
0.042752735 0.054191619 0.18478508
0.042770058 0.054251313 0.18477312
0.042782843 0.05429611 0.18476306
0.042810027 0.054450609 0.1847422
0.042822327 0.054479618 0.18473358
0.042829521 0.054476991 0.18472373
0.042826053 0.054438859 0.18471441
0.042810608 0.054346286 0.18472213
0.042814463 0.054346401 0.18471132
0.054826733 0.046910826 0.15831423
0.054834936 0.046958905 0.15831129
0.054854088 0.047079273 0.15829545
0.054868948 0.047149122 0.15827769
0.054860845 0.047101125 0.15828203
0.054841079 0.046984006 0.15829624
0.051825341 0.037947897 0.13217148
0.051805761 0.037963312 0.13207476
0.051693346 0.038115878 0.13171463
0.051595647 0.038233683 0.13143654
0.051516216 0.038381062 0.13116603
0.051466502 0.038555447 0.13092734
0.051369973 0.038675234 0.1306587
0.051302966 0.038854994 0.13040166
0.051253889 0.039019849 0.1301129
0.051200118 0.039184593 0.12987547
0.051158555 0.039282516 0.12968835
0.051168516 0.039301787 0.12965082
0.05119228 0.039301023 0.12969899
0.051268116 0.039300203 0.12983051
0.051340785 0.039237529 0.13001582
0.051430922 0.039148804 0.13023664
0.051508769 0.03903864 0.13049887
0.051607203 0.038944449 0.13072287
0.051721245 0.038875207 0.13095418
0.051903069 0.038771529 0.13134006
0.052183889 0.03865245 0.13194294
0.052925285 0.038691632 0.1332773
0.054606229 0.039103061 0.13588926
0.056518242 0.039915681 0.13794398
0.058013026 0.040491786 0.13913681
0.058515348 0.040651459 0.13948692
0.058663428 0.040744618 0.13966221
0.14163202 0.072833344 0.24926043
0.14161928 0.072903395 0.24922609
0.14161664 0.072763912 0.24923898
0.14163984 0.072844297 0.24920614
0.14165483 0.072897539 0.24918824
0.14167777 0.072975546 0.24915835
0.14169846 0.073056057 0.24913189
-0.15750749 0.073301807 0.254888
-0.15749229 0.073455282 0.25481749
-0.15746857 0.073606096 0.25475407
-0.15746266 0.073656298 0.25473112
-0.15745412 0.073705859 0.2547079
-0.15745412 0.073705852 0.2547079
-0.1574223 0.073839307 0.2546511
-0.15740368 0.073892884 0.25462675
-0.045180764 0.035386439 0.12248448
-0.045149822 0.035397649 0.12248017
-0.045119137 0.035394106 0.12248759
-0.045089483 0.035416495 0.12248705
-0.04506287 0.035402838 0.12251134
-0.045032404 0.035389669 0.12253299
-0.045009568 0.035405241 0.12253828
-0.044990275 0.035439152 0.12252667
-0.044978064 0.0354742 0.1225124
-0.04496051 0.035495453 0.12251633
-0.044949893 0.035506856 0.12251996
-0.044940691 0.035525244 0.12251384
-0.044921964 0.035533275 0.1225216
-0.044907901 0.03552812 0.12253015
-0.044895768 0.035541698 0.12252801
-0.04487706 0.035535928 0.1225425
-0.044857223 0.035554849 0.12254249
-0.04482108 0.035595074 0.12253673
-0.044785142 0.035620578 0.12253774
-0.044746988 0.035648122 0.12253296
-0.044703864 0.035683468 0.12252763
-0.044639796 0.03573253 0.12249967
-0.051786162 0.053515088 0.18130989
-0.051745515 0.053575236 0.18131143
-0.051707804 0.053592183 0.18132477
-0.051682107 0.053562459 0.18134567
-0.05168074 0.053572971 0.18134311
-0.051650893 0.053594686 0.1813515
-0.051649198 0.053606469 0.18135093
-0.05162305 0.053625457 0.18135239
-0.051612433 0.053602047 0.18135925
-0.051589031 0.05365013 0.18134628
-0.051568989 0.05365546 0.18134506
-0.051559042 0.05368606 0.18133472
-0.051547159 0.053726431 0.18132095
-0.051539611 0.053736098 0.18131635
-0.051532671 0.053758018 0.1813141
-0.051525999 0.053790007 0.18130666
-0.051524878 0.053779777 0.18131171
-0.051516082 0.05380122 0.1813086
-0.05151099 0.053812921 0.18131042
-0.051503621 0.053813826 0.18131581
-0.051498674 0.053824756 0.18131325
-0.051489908 0.053857557 0.18131
-0.051484615 0.053858448 0.18131399
-0.051477648 0.053880472 0.18131162
-0.051471636 0.053890958 0.18131351
-0.051472846 0.053890422 0.18131711
-0.051439166 0.053927898 0.18133457
-0.051405132 0.053986743 0.18134378
-0.0058449581 0.090133585 0.30106401
-0.0057754959 0.090253502 0.30101064
-0.0057070227 0.090356782 0.30096138
-0.0056460532 0.090442613 0.30092841
-0.0055814297 0.090537429 0.30087808
-0.0055166096 0.090673044 0.30080828
-0.0054886672 0.090624757 0.30083105
-0.0054233312 0.090627015 0.30081663
-0.0053910995 0.090563022 0.30085003
0.014258699 0.071896717 0.24139918
0.014291327 0.071985997 0.24138658
0.01430517 0.072064362 0.24135765
0.014310574 0.072105147 0.24134149
0.014326233 0.072165154 0.24132185
0.014351298 0.072258867 0.24131192
0.014373206 0.072285533 0.24133617
0.014389143 0.072324194 0.24132907
0.014397778 0.072367251 0.24131113
0.014407771 0.072410084 0.24129598
0.014424557 0.072436512 0.24128248
0.014430366 0.072483748 0.2412588
0.014451501 0.07248684 0.24125911
0.014457322 0.072485022 0.241264
0.014463884 0.072466567 0.24127553
0.014488101 0.072407961 0.24130213
0.014495496 0.07239528 0.24129955
0.042780612 0.054486368 0.18474363
0.042801891 0.054531325 0.18472993
0.042810708 0.054545309 0.18472648
0.042828418 0.054604039 0.18471256
0.04284218 0.054632381 0.18470281
0.042872034 0.054800626 0.18467672
0.042887423 0.054844223 0.18466434
0.042890247 0.05482715 0.18466096
0.042900931 0.054849014 0.18463881
0.042896654 0.05478707 0.18463844
0.042897105 0.054771099 0.18463618
0.054841861 0.047017228 0.15828989
0.054879222 0.04723132 0.15825573
0.054897554 0.047351275 0.15824047
0.054919064 0.047469351 0.15821981
0.054907925 0.047397759 0.15822722
0.054883834 0.047256965 0.15824801
0.054878615 0.047213543 0.15824404
0.051877528 0.038165331 0.13212983
0.051840346 0.038166221 0.13201034
0.051685952 0.038291525 0.13158043
0.051599789 0.038429745 0.13130498
0.051530171 0.038563237 0.13105853
0.051481541 0.038723573 0.13083541
0.051392458 0.038857643 0.13056779
0.051314242 0.039014678 0.13030295
0.051274966 0.039218239 0.13001269
0.05123467 0.039416458 0.12975256
0.051168978 0.039511822 0.12958525
0.051175624 0.039549332 0.12950119
0.051206075 0.03956271 0.12956023
0.051267434 0.039527353 0.1296843
0.051342368 0.039473779 0.12983309
0.051430281 0.039393067 0.1300457
0.051513284 0.039286423 0.13027944
0.051595159 0.039192244 0.13051896
0.051718164 0.039112192 0.13076903
0.051885497 0.03898206 0.13115498
0.052126817 0.038856056 0.13168721
0.052828833 0.038855735 0.13298945
0.054448292 0.039196715 0.13557215
0.056199312 0.039930079 0.13758814
0.057749964 0.040476568 0.13884251
0.058407724 0.040680427 0.1393434
0.058535457 0.040758993 0.1394186
0.14167967 0.073330395 0.24906874
0.1416871 0.073303692 0.249066
0.1417105 0.073385142 0.24903147
0.14172594 0.073439285 0.2490119
0.1417391 0.073494457 0.2489934
0.14174955 0.073550478 0.24897532
0.14176568 0.073632747 0.24894521
-0.15744279 0.073899813 0.25461972
-0.15740694 0.074151382 0.2545082
-0.15740129 0.074201658 0.25448632
-0.15738982 0.074218519 0.2544862
-0.15737866 0.074253611 0.25447321
-0.15735964 0.074338429 0.25443861
-0.1573471 0.074387342 0.25441727
-0.045178119 0.035659395 0.12234412
-0.045144156 0.035656624 0.12235253
-0.045113333 0.035644744 0.12237343
-0.04508749 0.03564281 0.12238138
-0.045065798 0.035612591 0.12241178
-0.045038939 0.035603132 0.12243416
-0.045015618 0.035608772 0.12243983
-0.044990528 0.035638522 0.12243237
-0.044979338 0.035670362 0.12242108
-0.044968057 0.03570592 0.12239676
-0.04495243 0.035725214 0.12239275
-0.044926822 0.035715718 0.12242503
-0.04490719 0.035734672 0.12243057
-0.044884529 0.035734031 0.12244225
-0.044867378 0.035720956 0.12245875
-0.04483629 0.035725344 0.12247448
-0.044813909 0.035735983 0.1224791
-0.044768997 0.035775788 0.12247532
-0.04472195 0.035831265 0.12246165
-0.044675898 0.035868172 0.12245239
-0.04462966 0.035903133 0.12243903
-0.044580411 0.035965052 0.12241364
-0.051735364 0.053854302 0.18123518
-0.051704537 0.053834211 0.18125418
-0.051689945 0.053869449 0.18125167
-0.051681522 0.053856786 0.1812575
-0.051659167 0.053872887 0.18126369
-0.051645793 0.053905785 0.18126754
-0.051632464 0.053886946 0.1812786
-0.051616229 0.053881727 0.18127586
-0.051585309 0.05390368 0.18127066
-0.051557627 0.053964093 0.18125404
-0.051541358 0.053930245 0.18126233
-0.051532388 0.053992938 0.18123844
-0.051524349 0.054013126 0.18122926
-0.051516376 0.054033581 0.18122318
-0.051508758 0.054055333 0.18122004
-0.051505335 0.05405568 0.18122125
-0.05149354 0.054067198 0.1812239
-0.051487446 0.054099306 0.18121739
-0.05148188 0.054110285 0.18121703
-0.051475521 0.054121353 0.18121964
-0.05147022 0.054122183 0.18122061
-0.051465303 0.054133281 0.18122114
-0.051455881 0.054185748 0.1812084
-0.051447619 0.054207753 0.18120201
-0.051443171 0.054218102 0.18120319
-0.051422834 0.054202493 0.18124272
-0.0057460037 0.090797417 0.3007383
-0.0056723417 0.090859793 0.30071884
-0.0056078825 0.090929873 0.300699
-0.0055592046 0.091038167 0.30065677
-0.0055277292 0.091052555 0.30065563
-0.0054914542 0.091156974 0.3006053
-0.0054627545 0.091065988 0.30064538
-0.0054302062 0.091080479 0.30063197
-0.0053704376 0.091048472 0.30063722
0.014310114 0.072248004 0.24126576
0.014341108 0.072333433 0.24126379
0.01437231 0.072442733 0.24125339
0.014379765 0.072504051 0.2412314
0.014384698 0.072545432 0.24121739
0.014396844 0.072563238 0.24121703
0.01440895 0.072624914 0.24119931
0.014424547 0.072686307 0.24118371
0.014427984 0.072707057 0.24117647
0.014446053 0.072770081 0.24115543
0.014458967 0.072794333 0.24114448
0.014470887 0.072817661 0.24113333
0.014483829 0.072819598 0.24113469
0.01448683 0.072779842 0.24115159
0.014497323 0.072762713 0.24115638
0.014510849 0.072725594 0.24116799
0.042839419 0.054915767 0.18469067
0.042855725 0.054958794 0.18468165
0.042872697 0.05494117 0.18466225
0.042886432 0.054969154 0.18465318
0.042911381 0.055090468 0.18463194
0.042928953 0.055164758 0.18461679
0.042943824 0.055223767 0.1846019
0.04295896 0.055214643 0.18458179
0.042966124 0.055227768 0.1845707
0.042963609 0.055181202 0.18456605
0.042959951 0.055149466 0.18456545
0.054879315 0.047266487 0.15823337
0.054917555 0.047478493 0.15820614
0.054945409 0.0476688 0.15817761
0.054959945 0.047738284 0.15816306
0.054959949 0.047738273 0.15816303
0.054939758 0.047620285 0.15818001
0.05492755 0.047531251 0.15818197
0.052036714 0.038354449 0.13235524
0.051938437 0.038392384 0.13205488
0.051717639 0.038427632 0.13154991
0.051622164 0.038665898 0.13116695
0.051528718 0.038778294 0.13088508
0.051485948 0.038907729 0.13070455
0.051416747 0.039060768 0.13046481
0.051356938 0.039168973 0.13025752
0.051296998 0.03941882 0.12990372
0.051252499 0.03961084 0.12964158
0.05119624 0.039731022 0.12947641
0.051182609 0.039806113 0.12936486
0.051220827 0.039811317 0.12940626
0.051268928 0.039749708 0.1295535
0.051353596 0.039694939 0.12967683
0.05142292 0.039609857 0.12986645
0.05150447 0.039502751 0.13010681
0.051600587 0.039414376 0.13033243
0.051713876 0.039313529 0.13062574
0.051866613 0.039169535 0.13098752
0.052118652 0.039014533 0.13155147
0.052704487 0.039029595 0.13263519
0.054308012 0.039351154 0.13525899
0.055696957 0.039935473 0.13703927
0.057301667 0.040350061 0.13845308
0.058124114 0.040722854 0.13899156
0.14173295 0.073848024 0.24887961
0.1417478 0.073876463 0.2488651
0.14176443 0.073904909 0.24885131
0.14177765 0.073962092 0.24883001
0.14179027 0.074017242 0.24880861
0.14179996 0.074073151 0.24878716
0.14180687 0.074129961 0.24876621
-0.1573807 0.074525826 0.25434867
-0.1573558 0.074693918 0.25427911
-0.15733372 0.074842028 0.25421491
-0.157326 0.074891426 0.25419444
-0.15730505 0.074976914 0.25416067
-0.15729275 0.074978113 0.25416422
-0.15726997 0.075000316 0.2541562
-0.045170456 0.035902191 0.12222735
-0.045146193 0.035900071 0.12223479
-0.045120414 0.035893723 0.12224568
-0.045098931 0.035884421 0.12226798
-0.045072086 0.035852082 0.1223033
-0.045046829 0.035821479 0.12233161
-0.04501817 0.035827018 0.12233339
-0.044999763 0.035855364 0.12232428
-0.044979468 0.035878051 0.12231379
-0.044965506 0.035894722 0.12230498
-0.044941161 0.035904501 0.12231059
-0.044924725 0.035922289 0.12231489
-0.044893511 0.035928641 0.12232832
-0.044858221 0.035918538 0.12236848
-0.044822056 0.035908297 0.12239221
-0.044796355 0.035931863 0.12239245
-0.0447498 0.035961814 0.12240161
-0.04468577 0.036013659 0.12238105
-0.044636078 0.036061909 0.12236239
-0.044596009 0.036089532 0.12235847
-0.044561967 0.036135413 0.12234547
-0.044534221 0.03617188 0.12234014
-0.051651206 0.054161035 0.18119188
-0.05164073 0.054158803 0.18120584
-0.051621553 0.054188129 0.18120098
-0.051593781 0.054191746 0.18120161
-0.05156748 0.054187369 0.18118368
-0.051546164 0.054196145 0.18118101
-0.051529843 0.054214865 0.18116884
-0.051520538 0.054257743 0.18114929
-0.05150738 0.054298941 0.18113457
-0.051495504 0.054330043 0.18112664
-0.051487315 0.054351702 0.18112299
-0.051478397 0.054352149 0.18112513
-0.051473293 0.054363512 0.18112488
-0.051464397 0.054394808 0.18111683
-0.051456951 0.05441666 0.18111448
-0.051450733 0.054437861 0.18111278
-0.05144481 0.054438867 0.18111436
-0.051435646 0.054460429 0.18111125
-0.051431481 0.054491624 0.18110357
-0.051428828 0.054513026 0.18109737
-0.05142431 0.054524183 0.18109705
-0.0056509823 0.091306478 0.3004933
-0.005587351 0.091340259 0.3004947
-0.0055258768 0.09141095 0.30047584
-0.0054990328 0.09145721 0.30046201
-0.0054910197 0.091504358 0.30044189
-0.0054511456 0.091526262 0.30043572
-0.0054407427 0.091557078 0.30042481
-0.0054265317 0.09153574 0.30042833
-0.0053871381 0.091528162 0.30042017
0.014359715 0.072570123 0.24115902
0.014387847 0.072676189 0.24115296
0.014394709 0.072714403 0.24114484
0.014406706 0.072796404 0.24111861
0.014425406 0.072905295 0.24107139
0.01444333 0.072965071 0.24105741
0.014449523 0.072982892 0.24106155
0.014455319 0.072958075 0.24108101
0.014459743 0.072978809 0.24107394
0.014473046 0.073002078 0.24106742
0.014484811 0.073025353 0.24105649
0.014491967 0.073091239 0.2410247
0.014508047 0.073094159 0.24102305
0.014509502 0.073055625 0.24103597
0.014521462 0.07303869 0.24104033
0.014533116 0.073041007 0.24103405
0.0428853 0.055299442 0.18464617
0.04290456 0.055342756 0.1846354
0.042928852 0.055367958 0.18460731
0.042947054 0.055409979 0.18459378
0.042972434 0.055547267 0.18457292
0.042988271 0.055636413 0.18456
0.043004632 0.055711664 0.18454374
0.043023977 0.055717845 0.18452142
0.043029681 0.055636931 0.18450715
0.043026257 0.055527333 0.18450604
0.043032285 0.055522408 0.1844912
0.054889068 0.047374636 0.1581898
0.05490952 0.047462761 0.15819418
0.054964963 0.047793843 0.1581416
0.054994594 0.047981679 0.15810989
0.055012714 0.048075248 0.15808687
0.055012725 0.048075255 0.15808687
0.054999836 0.048002806 0.15809713
0.054992799 0.047938455 0.15809904
0.054989744 0.04791715 0.15809803
0.052372739 0.038633317 0.13299215
0.052069332 0.038510349 0.13228968
0.05178231 0.03863623 0.13152692
0.051638275 0.038829535 0.13107467
0.051537789 0.038969029 0.13076334
0.051474124 0.039104361 0.13054267
0.05143461 0.039251879 0.13034576
0.051392052 0.039383437 0.13015074
0.051315036 0.039621979 0.12977211
0.051271152 0.039785426 0.12955521
0.051218342 0.039917432 0.12939626
0.051212497 0.039973862 0.12931591
0.051225759 0.039991207 0.12931423
0.051295985 0.039974716 0.12943569
0.051354118 0.039879356 0.12956083
0.051437069 0.039821628 0.12973197
0.051525053 0.039775722 0.12989417
0.051590197 0.039645348 0.13012764
0.051714133 0.039509874 0.13046822
0.05185974 0.039373435 0.13082632
0.052112065 0.039205279 0.13140103
0.052672852 0.039196756 0.13245203
0.054170296 0.039518606 0.13493486
0.055514608 0.039947983 0.13674854
0.05696106 0.040425934 0.13811587
0.057898626 0.040669248 0.138787
0.14177842 0.074369811 0.24868244
0.14179184 0.074397638 0.24866611
0.14180733 0.074425563 0.24865085
0.14181946 0.074482471 0.24862738
0.14182343 0.074511312 0.24861734
0.14183278 0.07456702 0.24859366
0.14183843 0.074593954 0.24858037
0.14185424 0.074647762 0.24855478
-0.15729004 0.075378679 0.25399759
-0.15726197 0.075562984 0.2539137
-0.15723592 0.075710803 0.25386181
-0.15722328 0.075701401 0.25386775
-0.15722921 0.075605534 0.253912
-0.045172736 0.036164496 0.12212243
-0.045150295 0.036160786 0.12212338
-0.045129906 0.036151413 0.12213533
-0.045106869 0.036135733 0.12215314
-0.045083996 0.036093004 0.12219569
-0.045056 0.036064677 0.12222464
-0.045032613 0.03606122 0.12222362
-0.045008853 0.036063801 0.1222216
-0.044988506 0.036094263 0.12220516
-0.044963155 0.036103319 0.12220722
-0.044939 0.036135036 0.12219741
-0.044910166 0.036137462 0.12221374
-0.044868447 0.036148377 0.12222354
-0.044804618 0.036180817 0.12223724
-0.044744801 0.036172252 0.1222739
-0.044714838 0.036178395 0.12229118
-0.044656109 0.036235254 0.12227427
-0.044614401 0.036266245 0.12227257
-0.044565938 0.036302596 0.12226965
-0.04454596 0.036321819 0.12227819
-0.044514351 0.036360379 0.12227198
-0.044494916 0.03639451 0.12226833
-0.05154996 0.054446369 0.18109688
-0.051533066 0.054458566 0.18108802
-0.051513419 0.054511063 0.18106686
-0.051499754 0.054583151 0.18103802
-0.051489584 0.054605126 0.18103248
-0.051480792 0.054625973 0.18102668
-0.051467914 0.054657485 0.18101957
-0.051458105 0.054679111 0.18101597
-0.051450323 0.054689944 0.18101446
-0.051442079 0.054711975 0.18101346
-0.051437449 0.05472289 0.18101373
-0.051430717 0.05472422 0.1810167
-0.051420223 0.054746117 0.181016
-0.051415775 0.054777391 0.18100861
-0.051414538 0.054777812 0.18100804
-0.051408798 0.054819264 0.18099731
-0.005561932 0.091722772 0.30029568
-0.0054937229 0.091818504 0.30026752
-0.0054746568 0.091809273 0.30028278
-0.0054575438 0.091856003 0.30026749
-0.0054421062 0.091903456 0.30024523
-0.005409942 0.092001185 0.30019572
-0.0053914031 0.092000708 0.30020019
-0.0053890757 0.092006639 0.30019876
-0.0053548599 0.092092544 0.30015698
0.014428228 0.073053889 0.24101138
0.014438198 0.073114544 0.2409959
0.014453909 0.073174559 0.24098299
0.014459326 0.07321623 0.24096926
0.014474069 0.073257551 0.24095571
0.014477263 0.073278531 0.24094868
0.014481571 0.073299326 0.24094145
0.014495917 0.073321551 0.24093345
0.014502595 0.073322967 0.24093232
0.014513358 0.0733447 0.24091999
0.014524683 0.073347531 0.24091686
0.014530869 0.073327862 0.24092323
0.014543641 0.073331669 0.24091798
0.04293647 0.055534188 0.18458493
0.042959239 0.055625189 0.18456616
0.042982887 0.055728301 0.1845482
0.043001015 0.055786408 0.18453401
0.043028768 0.055969652 0.18451114
0.043054789 0.056105483 0.18449548
0.043074384 0.056196719 0.18447505
0.043091461 0.056241248 0.18446162
0.043094926 0.056158736 0.18445016
0.043098841 0.056044973 0.18443827
0.043101016 0.055930816 0.18442945
0.043113407 0.055924568 0.18441641
0.054983128 0.047945298 0.15810253
0.055024639 0.048176881 0.15805885
0.055035464 0.048247889 0.15805042
0.055055402 0.048342671 0.15803124
0.055055406 0.048342671 0.15803124
0.055052172 0.048318669 0.15803328
0.055040468 0.048248179 0.15804319
0.055045187 0.048274912 0.15803164
0.052166861 0.038749095 0.13235572
0.051864609 0.038806822 0.13158202
0.051652864 0.03902014 0.13097507
0.051533487 0.039192807 0.13060132
0.05147858 0.039288815 0.13041079
0.0514405 0.039434303 0.13022353
0.051405307 0.039584659 0.13001257
0.051346552 0.039775833 0.12971397
0.051309668 0.039972745 0.12947911
0.051231511 0.040125228 0.12927926
0.051220421 0.040165208 0.12920219
0.051243309 0.040191311 0.12921101
0.051313825 0.040152159 0.12933068
0.051368088 0.040102411 0.1294309
0.051442679 0.040076301 0.12953296
0.051510081 0.040020902 0.12968479
0.051582962 0.03991561 0.12988557
0.05170143 0.039722834 0.13027547
0.051847611 0.039567605 0.13065082
0.052116215 0.039384566 0.13127555
0.052665554 0.039327625 0.13234974
0.054137204 0.03964714 0.13479918
0.055464908 0.040028024 0.13662633
0.056859069 0.040500801 0.13797069
0.057717152 0.040699895 0.13852285
0.14180958 0.074863367 0.24848592
0.14182162 0.074890621 0.2484678
0.14183553 0.074917868 0.24845046
0.14184672 0.074974343 0.2484252
0.14185901 0.075031377 0.24840195
0.14186901 0.075087279 0.24837753
0.14187492 0.075114317 0.2483639
0.14188203 0.075172208 0.24834244
-0.1572157 0.076025911 0.2537393
-0.15719324 0.076267898 0.25362945
-0.15715994 0.07640405 0.25358132
-0.1571366 0.076492123 0.25355166
-0.15713933 0.076400429 0.25359699
-0.045169868 0.036394291 0.1220416
-0.04514901 0.036397144 0.12203665
-0.045128252 0.036387727 0.12204243
-0.045116432 0.036375411 0.12205915
-0.04509541 0.036352243 0.12207689
-0.045072768 0.036330838 0.12209458
-0.045049027 0.036316611 0.12209497
-0.045025162 0.036323465 0.12208302
-0.044991571 0.036317963 0.12209184
-0.044965353 0.036337536 0.12208765
-0.044928994 0.036368087 0.12209126
-0.044883538 0.036407668 0.12207954
-0.044781599 0.036457974 0.1220626
-0.044702053 0.036510948 0.12207047
-0.044656694 0.036539018 0.1220845
-0.044612907 0.036497056 0.12214758
-0.044585239 0.036498945 0.12216294
-0.044546667 0.036535066 0.12216081
-0.044527564 0.036563803 0.12216722
-0.044501331 0.036588203 0.12217996
-0.04447541 0.036598772 0.12219279
-0.044456702 0.036637895 0.12218717
-0.051509589 0.05478318 0.18097463
-0.05149496 0.05485747 0.18094644
-0.051480822 0.054900117 0.18093506
-0.051464528 0.054931622 0.18092711
-0.051455121 0.054952711 0.18092208
-0.051445905 0.054974634 0.18091916
-0.051437851 0.054985553 0.18091713
-0.051433373 0.055007145 0.18091305
-0.051427223 0.055018608 0.18091321
-0.051418904 0.05504052 0.1809119
-0.051409423 0.055052482 0.18091391
-0.051403426 0.055073116 0.18091132
-0.051399078 0.055073436 0.18091442
-0.05139612 0.055073522 0.18091524
-0.051387973 0.055105004 0.18090941
-0.0054524243 0.092177533 0.30009454
-0.0054327096 0.092276834 0.30004603
-0.0054096463 0.092375211 0.29999897
-0.0054011228 0.092445731 0.29996318
-0.0053593386 0.092519574 0.2999289
-0.0053452877 0.092468731 0.29996073
-0.0053238422 0.09252587 0.29993516
-0.005318305 0.092509896 0.29994655
0.014472977 0.073454641 0.24086802
0.014482236 0.073495515 0.24085706
0.014487415 0.07353732 0.24084303
0.014494784 0.073578566 0.24082857
0.014497858 0.073599525 0.2408212
0.014508305 0.073641151 0.24080309
0.014522543 0.073662266 0.24079303
0.014525224 0.073641501 0.24080063
0.014534767 0.073622443 0.24080704
0.014543409 0.073642716 0.24079384
0.014555616 0.073625416 0.24079973
0.042994704 0.05590304 0.1845327
0.043008212 0.055978324 0.18451837
0.043038424 0.056157961 0.1844878
0.043064475 0.056277912 0.18447028
0.043096732 0.056444194 0.18444996
0.043124605 0.056595925 0.1844231
0.043152932 0.056719888 0.18441245
0.043163214 0.056751035 0.18440695
0.043171506 0.056698207 0.18439141
0.043182656 0.056662221 0.18438095
0.043179896 0.056488372 0.18437557
0.043203134 0.056464497 0.18435511
0.055043072 0.048303403 0.15802628
0.05506818 0.048443746 0.15800411
0.05508247 0.048514768 0.15799773
0.055088285 0.048539873 0.15799239
0.055105094 0.048610274 0.15797377
0.055105094 0.048610277 0.15797375
0.055100527 0.048585385 0.15798047
0.055089924 0.04853978 0.15798159
0.055084944 0.048517425 0.15797885
0.052096531 0.038917605 0.13208064
0.051855914 0.039001085 0.13142957
0.051674377 0.039184276 0.13089149
0.051555224 0.039353531 0.13051304
0.051490795 0.039476614 0.13029668
0.051464669 0.039646368 0.13010433
0.051429052 0.0397924 0.12988405
0.051380076 0.039969832 0.12962885
0.051324639 0.0401669 0.12936787
0.051275577 0.04030823 0.12920827
0.051265664 0.040357269 0.1291357
0.051282968 0.040381495 0.12913613
0.051311292 0.040394694 0.12916206
0.051368754 0.040347714 0.12926254
0.051433887 0.040341638 0.12933552
0.051493887 0.040298011 0.12944907
0.051560294 0.040184081 0.12963653
0.051681932 0.039973702 0.13002728
0.051817711 0.039772063 0.13045271
0.05206408 0.039569184 0.13105652
0.052588034 0.039528798 0.13204888
0.054023668 0.039762624 0.13451087
0.055374928 0.040170819 0.13645896
0.056759898 0.040562026 0.13782795
0.05757143 0.040779088 0.13836138
0.14184432 0.075298294 0.2483054
0.14186192 0.075381428 0.24826407
0.14187475 0.075408235 0.24824558
0.14187995 0.075435922 0.24823123
0.14189211 0.075491942 0.24820496
0.14189686 0.075521089 0.2481945
0.14190717 0.075577825 0.24817172
0.14190966 0.075607978 0.24816284
-0.15707903 0.077067569 0.25331682
-0.045180816 0.036621291 0.12196051
-0.045159575 0.036598861 0.12196769
-0.04514163 0.036590572 0.12196997
-0.04512259 0.036574937 0.12198262
-0.045109011 0.036585942 0.12198137
-0.045082346 0.036569364 0.12199128
-0.045058258 0.036574047 0.12198696
-0.045023732 0.036577474 0.12198865
-0.044996057 0.036576182 0.12198181
-0.044956908 0.036607292 0.12197852
-0.044896506 0.036637198 0.12196993
-0.044788841 0.036722124 0.121929
-0.044706784 0.036777977 0.12191561
-0.044663534 0.036823358 0.12190667
-0.044623457 0.036838867 0.12192685
-0.044585299 0.036823038 0.12198606
-0.04454672 0.036761105 0.12206667
-0.044523824 0.036802646 0.12206281
-0.044500869 0.036830105 0.12207292
-0.044472888 0.036848072 0.12208281
-0.044453107 0.036870364 0.12209496
-0.044435907 0.03690299 0.1221048
-0.051485632 0.055171836 0.18084247
-0.051469922 0.055193748 0.18083851
-0.05145615 0.055226013 0.18083128
-0.051444788 0.0552487 0.18082757
-0.051435243 0.05527018 0.18082359
-0.051428165 0.055281475 0.18082225
-0.051419944 0.055292778 0.18082277
-0.05141544 0.05531428 0.18081856
-0.051409267 0.055325635 0.18081863
-0.051400866 0.055347305 0.18081686
-0.05139298 0.055368766 0.18081412
-0.051385399 0.055379491 0.18081599
-0.051379353 0.055389833 0.18081619
-0.051376365 0.05536994 0.18082391
-0.0054047112 0.092651881 0.29986057
-0.005389173 0.092719585 0.2998344
-0.0053629247 0.092817716 0.29978839
-0.0053326567 0.092940539 0.299732
-0.0053196521 0.092912592 0.29974762
-0.0053035966 0.092941552 0.29973549
-0.0052899993 0.092947371 0.29973677
-0.0052652773 0.092982292 0.29972443
0.014514458 0.073878922 0.24070971
0.014521539 0.073919952 0.24069405
0.014524437 0.073940627 0.24068552
0.014524441 0.073940635 0.24068552
0.01452843 0.073961116 0.24067681
0.014532172 0.073939756 0.24068308
0.014545092 0.073959336 0.24067006
0.014550726 0.07395865 0.2406664
0.014563425 0.073957965 0.24066135
0.04306265 0.056429256 0.18447277
0.043087419 0.056529671 0.1844492
0.043110359 0.056663405 0.18442312
0.043135237 0.056797612 0.18439658
0.04317338 0.056981102 0.18437225
0.043192673 0.057070822 0.18435881
0.043245658 0.057240557 0.18433446
0.043257732 0.057270445 0.18432949
0.043257136 0.057239402 0.18433209
0.04325939 0.057172939 0.18432754
0.043263592 0.057068173 0.18430969
0.043269966 0.056914385 0.18431602
0.05510965 0.048688415 0.15795296
0.055115893 0.048711583 0.15794837
0.055115886 0.048711576 0.15794837
0.055129439 0.048786115 0.15793604
0.055133138 0.048810933 0.15792854
0.055127367 0.048760768 0.15794076
0.055120479 0.048736211 0.15794121
0.055124145 0.048760898 0.15793373
0.051843841 0.039253701 0.13121733
0.051698707 0.039389182 0.13079287
0.051573783 0.039540693 0.13042305
0.051530905 0.039666791 0.13021544
0.051489566 0.039818075 0.13000952
0.051452044 0.04001303 0.12974794
0.051397618 0.040215641 0.12946984
0.051342387 0.040368833 0.12925562
0.051300377 0.040464655 0.12912989
0.051274814 0.040547468 0.12902553
0.051288947 0.040594462 0.12899972
0.051317357 0.040600337 0.12901579
0.051367164 0.040622562 0.12905797
0.051412486 0.040589046 0.12914088
0.051477522 0.040533829 0.12924738
0.051543236 0.040427882 0.12941948
0.051633656 0.040248297 0.12973191
0.051801316 0.04001664 0.13022344
0.051994022 0.039830148 0.13072334
0.052478667 0.03968193 0.13169767
0.053659339 0.039922845 0.13382533
0.055067025 0.040252972 0.13593723
0.056342334 0.040582255 0.13742404
0.057436924 0.040807828 0.13820189
0.14188877 0.075818829 0.24808921
0.14190109 0.07584402 0.24806993
0.14190109 0.07584402 0.24806991
0.14191215 0.075899377 0.24804161
0.14192405 0.075955138 0.24801499
0.14192948 0.075984389 0.24800497
0.14193387 0.076014102 0.24799593
0.1419486 0.076128788 0.24794573
-0.045180596 0.036846034 0.12190052
-0.045164451 0.036854003 0.12189423
-0.045148347 0.036858529 0.12189628
-0.045131844 0.036850501 0.12189426
-0.04510843 0.036841411 0.12190021
-0.04507627 0.036855116 0.12189931
-0.045041908 0.036863439 0.12189474
-0.045010615 0.036877617 0.12189204
-0.044969983 0.036893807 0.12188824
-0.044888906 0.03695057 0.12185347
-0.0447741 0.037062619 0.12179172
-0.044726525 0.037070666 0.12180158
-0.044676859 0.037108421 0.1217872
-0.044648863 0.037121542 0.12179776
-0.044610947 0.037139799 0.12181342
-0.044579025 0.03714763 0.12182944
-0.044543292 0.037125658 0.12189583
-0.04451428 0.037126642 0.12193465
-0.044484645 0.037130926 0.12197677
-0.044469345 0.037148733 0.1219928
-0.044448901 0.037166677 0.12200612
-0.044431549 0.03717329 0.12201984
-0.051457439 0.055488352 0.1807428
-0.051447134 0.05551064 0.18073925
-0.05143455 0.055532757 0.18073617
-0.051426586 0.055554569 0.18073222
-0.051415149 0.055566162 0.18073216
-0.051407538 0.05557742 0.18073042
-0.051399101 0.055609416 0.18072397
-0.051394161 0.055630799 0.18071967
-0.051390853 0.055631343 0.18072246
-0.051382359 0.055652738 0.18072022
-0.051378027 0.055663146 0.18071976
-0.051366709 0.055684313 0.18071832
-0.0513607 0.055694439 0.18071847
-0.051351905 0.055704415 0.18071975
-0.0053577586 0.093079209 0.29966599
-0.0053311647 0.093170352 0.29963332
-0.0053077075 0.093292408 0.29959136
-0.0052956566 0.093341373 0.2995753
-0.0052777324 0.093368702 0.29956019
-0.0052687675 0.093369052 0.29956099
-0.0052555106 0.093348794 0.2995708
-0.0052236365 0.09338738 0.29955494
0.014532926 0.074217223 0.24057575
0.014541382 0.074237391 0.2405671
0.014541381 0.074237399 0.2405671
0.014544102 0.074257709 0.24055719
0.014544102 0.074257709 0.24055719
0.014547904 0.074277818 0.24054705
0.014556876 0.074276224 0.24054267
0.014561416 0.074232489 0.24055465
0.014569354 0.074166335 0.24057753
0.043164343 0.057034835 0.18437727
0.043195453 0.057199985 0.18434702
0.043224931 0.057333507 0.18432425
0.043274056 0.057518024 0.18430087
0.043278195 0.057547156 0.18429546
0.043297965 0.057592012 0.18429439
0.043336149 0.057696488 0.18426396
0.043331213 0.057663657 0.18426447
0.043335862 0.057615083 0.18426107
0.043332007 0.057497028 0.18425505
0.043325469 0.057373658 0.18425867
0.055131741 0.048836879 0.15791574
0.055138677 0.048861425 0.15791535
0.055162668 0.048987236 0.15790266
0.05519456 0.049138159 0.1578778
0.055194553 0.049138155 0.1578778
0.055155378 0.048935313 0.157901
0.055147879 0.048910882 0.1579026
0.05178228 0.03950955 0.13090083
0.051714089 0.039571237 0.13069189
0.051635496 0.039711189 0.13040537
0.051567558 0.039831564 0.13015938
0.051502764 0.040026605 0.12987937
0.051473364 0.040233009 0.12961498
0.051411692 0.0404131 0.12933673
0.051356964 0.040559955 0.12913553
0.051305737 0.040666379 0.12900136
0.051302716 0.040749129 0.12891364
0.05131295 0.040823102 0.12885316
0.051333327 0.040859602 0.12884778
0.051378857 0.040857065 0.12889268
0.05141896 0.040802024 0.12899724
0.051466145 0.040735926 0.12909833
0.051528957 0.040652756 0.12923111
0.051609352 0.040495295 0.12949631
0.051745411 0.040301248 0.12989058
0.051922787 0.040088728 0.13038962
0.052303784 0.039953534 0.1311775
0.053006973 0.039931465 0.13261826
0.054499 0.040272303 0.13502818
0.055719886 0.040450461 0.13666186
0.056612615 0.040733922 0.13746777
0.14193492 0.076307148 0.24788307
0.14194101 0.076305598 0.24787758
0.14195399 0.076360986 0.24785003
0.14196075 0.076389708 0.2478388
0.14196652 0.076418892 0.24782854
0.14197125 0.07644853 0.24781919
0.14198945 0.076591492 0.24775361
-0.045177054 0.037131459 0.12184557
-0.045161255 0.037122637 0.12183338
-0.045138966 0.037150986 0.12181743
-0.04510783 0.037150722 0.12180718
-0.045086823 0.037156492 0.12181193
-0.045053389 0.037181664 0.12181284
-0.04501912 0.037203167 0.12179745
-0.044984888 0.037214819 0.12179847
-0.044902828 0.037266344 0.1217524
-0.044772953 0.037391312 0.12167434
-0.04473171 0.037418671 0.12166294
-0.044698995 0.037452813 0.12166879
-0.044669919 0.037463382 0.12167712
-0.044636417 0.037496388 0.1216764
-0.044606667 0.037503492 0.1216877
-0.044585705 0.037496489 0.12171314
-0.04455841 0.037524693 0.12174503
-0.044537213 0.037518766 0.12179105
-0.044503614 0.037473995 0.12186632
-0.044479217 0.037483834 0.12189934
-0.044469148 0.0374748 0.12191539
-0.044450294 0.037484452 0.12192867
-0.051438976 0.055782773 0.18065108
-0.051429842 0.055794574 0.18065049
-0.051418673 0.055806149 0.18064958
-0.051406611 0.05584937 0.18063989
-0.051396456 0.05587092 0.18063533
-0.051388584 0.055881958 0.18063268
-0.051382273 0.055902891 0.18062635
-0.051377792 0.055924151 0.18062367
-0.051371433 0.055935066 0.18062274
-0.051366169 0.055945497 0.18062319
-0.051360264 0.055945959 0.18062721
-0.051353011 0.055955939 0.1806284
-0.051343206 0.055982545 0.18062948
-0.051327236 0.056009371 0.18062983
-0.005316901 0.093561716 0.29947603
-0.0052889092 0.093627743 0.29945964
-0.0052739265 0.093728893 0.29943228
-0.0052638981 0.093780078 0.2994206
-0.0052365153 0.09383259 0.29940301
-0.0052275807 0.093833268 0.2994048
-0.005212496 0.093813844 0.29940829
-0.0051704785 0.093879342 0.29937834
0.014551066 0.07456772 0.24042077
0.014560903 0.07456924 0.24042037
0.014562582 0.074549563 0.24043041
0.014565163 0.074569792 0.24041961
0.014565162 0.074569792 0.24041957
0.014565162 0.074569792 0.24041954
0.014567904 0.07456959 0.24042147
0.014574481 0.074503586 0.24044408
0.014587566 0.074499518 0.24044
0.04325112 0.057513263 0.1843126
0.043280281 0.057640221 0.18428639
0.043298356 0.057765026 0.18427588
0.043348104 0.057915062 0.18424313
0.043362282 0.057972454 0.18422674
0.04336768 0.058000933 0.18422052
0.043381684 0.058029376 0.18421046
0.043392986 0.058041379 0.18419588
0.043393433 0.057977173 0.18419728
0.043397684 0.057894498 0.18419392
0.043384828 0.057791092 0.18420805
0.043379921 0.057691209 0.18422785
0.055165648 0.049037598 0.15788034
0.055207685 0.049214486 0.15786543
0.055237167 0.049367387 0.15784009
0.055237167 0.049367391 0.15784009
0.055205718 0.049188502 0.1578691
0.055205718 0.049188502 0.15786912
0.051728938 0.039702151 0.130665
0.05172614 0.039764166 0.13057114
0.051661711 0.039853215 0.1303471
0.051578201 0.040029157 0.13004138
0.051524345 0.040189255 0.12979172
0.051477607 0.040443204 0.1294629
0.051415946 0.040632352 0.12919165
0.051373456 0.040790003 0.12899514
0.051326711 0.040885925 0.12885174
0.051325824 0.040979922 0.12876604
0.051323391 0.041034229 0.12870757
0.051331405 0.041059911 0.12869312
0.051373977 0.041074615 0.12872528
0.05141652 0.041032661 0.128811
0.051464263 0.040918514 0.1289743
0.051528692 0.040841307 0.12910245
0.051595159 0.040742952 0.1292783
0.051686469 0.040578716 0.12957485
0.051813461 0.040392965 0.12995993
0.052017972 0.040187195 0.13050033
0.052505169 0.040062573 0.13146828
0.053756502 0.040299114 0.13372971
0.055202812 0.040579338 0.13587977
0.056242451 0.040802304 0.13706495
0.14197101 0.076740541 0.24770181
0.14197551 0.076739535 0.24769785
0.14199224 0.076767206 0.24768314
0.14199939 0.076795876 0.24767169
0.14200529 0.076824911 0.24766083
0.14201024 0.076883279 0.24763562
0.14202701 0.07699775 0.24758312
0.14203838 0.077114366 0.2475343
-0.045140654 0.03741185 0.12178481
-0.04512101 0.037454952 0.12176377
-0.045096163 0.037438285 0.12175061
-0.045067746 0.037479397 0.12173287
-0.045046479 0.03750072 0.12172474
-0.045012038 0.037500788 0.12171771
-0.044973504 0.037538085 0.12169828
-0.044841919 0.037677407 0.12161457
-0.044764947 0.037738655 0.12157094
-0.044734731 0.037746403 0.12156856
-0.044701289 0.037781078 0.1215544
-0.04467978 0.037818171 0.12156481
-0.044664927 0.037844624 0.12156506
-0.044639461 0.037841838 0.12157827
-0.044610899 0.037863944 0.12158523
-0.044591546 0.037869319 0.12160148
-0.044579808 0.037891354 0.12161972
-0.044554349 0.037857786 0.12167068
-0.044528157 0.037836321 0.12172558
-0.044500727 0.037802402 0.12178089
-0.044485804 0.037760135 0.12182741
-0.044468537 0.037760846 0.12184148
-0.051420435 0.056086347 0.18055454
-0.051409829 0.056097526 0.18055221
-0.051398806 0.056141324 0.18053927
-0.051386964 0.056173403 0.18053165
-0.051377814 0.056195021 0.18052602
-0.051368512 0.056184318 0.18053102
-0.051361904 0.0562049 0.18052357
-0.05135943 0.056215435 0.18052205
-0.051354174 0.056236323 0.18051654
-0.051347099 0.056236498 0.18052176
-0.051341113 0.056256805 0.18051821
-0.051333528 0.056266624 0.18051942
-0.051326089 0.056272868 0.18052857
-0.051310293 0.056286577 0.18053755
-0.0052694883 0.094020635 0.29931602
-0.0052511473 0.094118997 0.29930052
-0.0052328152 0.094194748 0.2992886
-0.0052230707 0.094247133 0.2992793
-0.0051958021 0.094300441 0.29926458
-0.0051869033 0.094301187 0.29926667
-0.0051675476 0.094308697 0.29925922
-0.0051414683 0.094395623 0.2992287
-0.005112899 0.094424136 0.29920182
0.014572185 0.074876763 0.24027963
0.014578869 0.074897349 0.24026786
0.014583012 0.074898452 0.24026737
0.014585799 0.074879326 0.24027799
0.014585794 0.074879333 0.24027799
0.014589366 0.074899532 0.24026686
0.014587282 0.074858084 0.24029124
0.014596529 0.074790791 0.24031553
0.0146111 0.074719019 0.24034834
0.043340057 0.057999995 0.18424073
0.043361232 0.058067787 0.18422313
0.043380842 0.058155488 0.1842023
0.043399338 0.058228474 0.18418281
0.04341118 0.058288548 0.18416882
0.043442067 0.05837496 0.18414873
0.043457117 0.058399212 0.18413129
0.043462619 0.058380526 0.18412642
0.043465864 0.05834965 0.18412638
0.043458655 0.058259558 0.18413503
0.043453813 0.058181062 0.18413551
0.043457188 0.058106344 0.18414259
0.05521661 0.049291581 0.15784743
0.055239171 0.049393389 0.15783598
0.055278495 0.049573552 0.1578145
0.055267319 0.049495317 0.15783115
0.055237178 0.049367387 0.15784009
0.05522183 0.049317036 0.15784283
0.051781218 0.03984521 0.13066344
0.051770162 0.039925113 0.13053726
0.051706567 0.040003601 0.13033216
0.051635548 0.040150482 0.13005717
0.051553901 0.040380787 0.12969393
0.051482618 0.040656369 0.12931626
0.051431172 0.040850386 0.12903655
0.051374312 0.040981896 0.12886393
0.051363003 0.041094765 0.12873836
0.051329989 0.041192006 0.12860954
0.051327534 0.041233703 0.12857418
0.051334254 0.041257828 0.12855859
0.051375341 0.041249733 0.12860665
0.051420081 0.041229323 0.1286767
0.051459044 0.041142024 0.12879184
0.051515579 0.041054547 0.12894344
0.05157724 0.040948041 0.1291111
0.051639557 0.040860105 0.12926918
0.051754687 0.040697921 0.1296055
0.051887263 0.040479787 0.13003497
0.052297078 0.040311564 0.13087654
0.052976497 0.040266529 0.13226719
0.054634217 0.040608969 0.13494551
0.055866513 0.040871672 0.13653214
0.056799982 0.04093625 0.13747889
0.14201033 0.077144854 0.24752173
0.14202747 0.077173218 0.24750817
0.14204209 0.077230059 0.24748299
0.14204776 0.077258743 0.24747084
0.14205204 0.077287704 0.24745889
0.14206836 0.077402554 0.24740505
0.14208175 0.077488989 0.24736598
-0.045100734 0.037713028 0.12169103
-0.045082267 0.037710149 0.12168067
-0.045058209 0.037751403 0.12166305
-0.045033008 0.037786312 0.12164638
-0.044998422 0.03780172 0.1216263
-0.044901028 0.037911829 0.12155894
-0.044776574 0.038054988 0.12147328
-0.044752564 0.038055923 0.1214654
-0.044729289 0.038077712 0.12145536
-0.044701833 0.038099322 0.12145515
-0.044681039 0.038123924 0.12145165
-0.04466825 0.038157586 0.12146345
-0.044648349 0.038178079 0.12146267
-0.044631135 0.038183674 0.1214661
-0.044615127 0.038186934 0.12147825
-0.044599302 0.038200796 0.12149826
-0.044588178 0.038192276 0.12152816
-0.044579081 0.038176175 0.12154876
-0.044552054 0.038142476 0.12160636
-0.044536561 0.038120899 0.12163999
-0.044513449 0.038114835 0.12166318
-0.051398754 0.056378763 0.18045934
-0.051388968 0.056390379 0.18045661
-0.051382191 0.056411434 0.18044804
-0.051374797 0.056454059 0.18043241
-0.051358055 0.056506325 0.18041719
-0.051347569 0.056484923 0.18042624
-0.051344786 0.056495342 0.18042226
-0.051338233 0.05651569 0.18041648
-0.051336084 0.056526087 0.18041465
-0.051331431 0.056515813 0.18042101
-0.051324256 0.05653578 0.18041891
-0.051316243 0.056553233 0.18042366
-0.05129908 0.05657623 0.18043026
-0.051291715 0.056595895 0.18042514
-0.051261496 0.056643721 0.1804276
-0.0052456493 0.094462417 0.29917136
-0.0052172225 0.094477557 0.29918051
-0.0052038957 0.094609454 0.29915699
-0.0051919525 0.094660081 0.29914942
-0.0051786117 0.094738662 0.29913199
-0.0051603862 0.094791614 0.29911745
-0.0051464452 0.094766356 0.29912671
-0.005132278 0.094743267 0.29913494
-0.0051024863 0.094800152 0.29910794
-0.0050890096 0.094829395 0.29909092
-0.0050733555 0.094880573 0.29906666
0.014590616 0.075183399 0.24013525
0.014596744 0.075224169 0.24011415
0.014609157 0.075226225 0.24011265
0.014609156 0.075226218 0.24011268
0.014612682 0.075246781 0.24010217
0.014617308 0.075267337 0.24009198
0.014617124 0.075182378 0.24013317
0.014612797 0.075074971 0.24019422
0.01467781 0.07516852 0.24019107
0.043424942 0.058405694 0.1841573
0.043437142 0.058478341 0.18414231
0.043439683 0.058504626 0.18413311
0.043463483 0.058555249 0.18411246
0.043481864 0.058624666 0.18409041
0.043513089 0.058725864 0.18407187
0.043518975 0.058737498 0.18406241
0.043528926 0.058734465 0.1840547
0.043534521 0.058715452 0.1840498
0.043529291 0.05864362 0.18405846
0.043523308 0.058550678 0.18406346
0.043528654 0.058539752 0.18406445
0.055301495 0.04970248 0.15779155
0.055304136 0.049728934 0.1577857
0.055282839 0.04959929 0.15780878
0.055248614 0.04947082 0.15781771
0.055215836 0.049342543 0.15782195
0.051819358 0.040030163 0.13057284
0.05176032 0.040121228 0.13035651
0.05169661 0.040281586 0.13007534
0.051584639 0.040515706 0.12966256
0.051499717 0.040791314 0.12924866
0.05143689 0.041023538 0.12892543
0.051401716 0.041187793 0.12875316
0.051381312 0.041293934 0.12862596
0.051348448 0.04135444 0.12851933
0.051334631 0.041408606 0.12846673
0.051340483 0.041434709 0.12844297
0.051380672 0.041419394 0.12850115
0.051419042 0.041412633 0.12854329
0.051442761 0.041379604 0.12860642
0.051510464 0.041241333 0.1288099
0.051555134 0.041168045 0.12891471
0.051608559 0.041116241 0.12903483
0.051696453 0.041011494 0.12925968
0.051822446 0.040800534 0.12965631
0.052017666 0.040534694 0.13023783
0.052534975 0.040401541 0.1312688
0.053966045 0.040690899 0.13382778
0.055539776 0.040938742 0.13602477
0.056632653 0.041027445 0.13721739
0.057427939 0.04122562 0.13789038
0.14204621 0.077606209 0.2473134
0.14205773 0.077693187 0.24727362
0.14207318 0.077750906 0.24724711
0.1420788 0.077808701 0.24722019
0.14209475 0.077837549 0.24720633
0.14209855 0.07780806 0.24721977
0.14210974 0.07786449 0.24719241
-0.04505825 0.037958711 0.12160249
-0.045035142 0.037995748 0.12159464
-0.045011971 0.038036779 0.12158055
-0.044978246 0.038079277 0.12155709
-0.044828948 0.038250782 0.12144275
-0.044764262 0.03833393 0.1213886
-0.044733685 0.038381398 0.12135795
-0.044710446 0.038406428 0.12135281
-0.044690955 0.038420744 0.12134905
-0.044680141 0.038442317 0.12134597
-0.044663321 0.038450841 0.1213538
-0.044651326 0.038456153 0.12135477
-0.044632308 0.038474243 0.1213595
-0.044621766 0.038490407 0.12137018
-0.044611953 0.038497325 0.12137545
-0.044596106 0.038482007 0.1213975
-0.044596422 0.038442202 0.12143059
-0.044588637 0.038452059 0.12144601
-0.044577435 0.038469039 0.12145045
-0.044567719 0.038457774 0.12146796
-0.044546917 0.038441412 0.12149377
-0.051377811 0.05664723 0.18036759
-0.05136494 0.056679949 0.1803571
-0.051355232 0.056700844 0.18034829
-0.051348537 0.05674357 0.18033232
-0.051336672 0.056764159 0.1803246
-0.051329553 0.056773957 0.18032329
-0.051323108 0.056794349 0.18031512
-0.051316451 0.056814492 0.18030891
-0.051311076 0.056835126 0.18030293
-0.051307596 0.056835063 0.18030477
-0.051299267 0.056844562 0.18030685
-0.051288139 0.056859273 0.18031916
-0.051279381 0.056875333 0.18032184
-0.051255051 0.056928668 0.18031524
