# .PCD v0.7 - Point Cloud Data file format
VERSION 0.7
FIELDS x y z
SIZE 4 4 4
TYPE F F F
COUNT 1 1 1
WIDTH 1358
HEIGHT 1
VIEWPOINT 0 0 0 1 0 0 0
POINTS 1358
DATA ascii
-0.05326556 0.021246664 0.24085106
-0.052774146 0.021246664 0.24085106
-0.052282736 0.021246664 0.24085106
-0.051837079 0.021265434 0.24106383
-0.051390547 0.021284202 0.24127659
-0.050965596 0.021312356 0.24159575
-0.050517112 0.021331126 0.2418085
-0.050067768 0.021349896 0.24202128
-0.049617548 0.021368664 0.24223404
-0.049166463 0.021387434 0.24244681
-0.048714507 0.021406202 0.24265957
-0.048240546 0.021415588 0.24276596
-0.047724303 0.021406202 0.24265957
-0.047208499 0.021396818 0.24255319
-0.046734102 0.021406202 0.24265957
-0.046299815 0.021434356 0.24297872
-0.045884281 0.021471895 0.24340425
-0.045486845 0.021518817 0.24393617
-0.045028381 0.021537587 0.24414894
-0.044569045 0.021556355 0.2443617
-0.044089656 0.021565739 0.24446808
-0.043647774 0.021593893 0.24478723
-0.043185838 0.021612663 0.245
-0.042704493 0.021622047 0.24510638
-0.042149447 0.021593893 0.24478723
-0.0415776 0.021556355 0.2443617
-0.041061144 0.021546971 0.24425532
-0.040598117 0.021565739 0.24446808
-0.040169127 0.021603277 0.24489361
-0.039721165 0.021631433 0.24521276
-0.039271902 0.021659587 0.24553192
-0.038821336 0.02168774 0.24585107
-0.038352884 0.021706508 0.24606383
-0.037834473 0.021697124 0.24595745
-0.037284199 0.021668971 0.2456383
-0.036751162 0.021650203 0.24542554
-0.036297556 0.021678355 0.24574468
-0.035873644 0.021725278 0.2462766
-0.035432279 0.021762816 0.24670213
-0.03494399 0.0217722 0.24680851
-0.034440424 0.0217722 0.24680851
-0.033951484 0.021781586 0.24691489
-0.033505343 0.021819124 0.24734043
-0.03305747 0.021856662 0.24776596
-0.032607857 0.0218942 0.24819149
-0.032142747 0.021922354 0.24851064
-0.031649251 0.021931738 0.24861702
-0.031141993 0.021931738 0.24861702
-0.030608518 0.021912968 0.24840425
-0.030088805 0.021903584 0.24829787
-0.029569525 0.0218942 0.24819149
-0.029075595 0.021903584 0.24829787
-0.02858123 0.021912968 0.24840425
-0.028098455 0.021931738 0.24861702
-0.02761481 0.021950508 0.24882978
-0.027118711 0.021959893 0.24893618
-0.02659943 0.021950508 0.24882978
-0.026069429 0.021931738 0.24861702
-0.025540296 0.021912968 0.24840425
-0.025054917 0.021931738 0.24861702
-0.024589676 0.021969277 0.24904256
-0.024102123 0.021988045 0.24925531
-0.023593565 0.021988045 0.24925531
-0.023075154 0.021978661 0.24914894
-0.022566812 0.021978661 0.24914894
-0.022096146 0.022016199 0.24957447
-0.021642145 0.022072507 0.25021276
-0.02118554 0.022128815 0.25085106
-0.020717563 0.022175737 0.25138298
-0.020213215 0.022185123 0.25148937
-0.019708429 0.022194505 0.25159574
-0.019203212 0.022203891 0.25170213
-0.018705459 0.02222266 0.25191489
-0.018206839 0.022241428 0.25212765
-0.017714815 0.022269582 0.2524468
-0.01722149 0.022297736 0.25276595
-0.016719829 0.022316504 0.25297871
-0.01619686 0.022307122 0.25287235
-0.015667729 0.022288354 0.25265959
-0.015145844 0.022278968 0.25255319
-0.014642881 0.022297736 0.25276595
-0.014144997 0.02232589 0.25308511
-0.013645811 0.022354044 0.25340426
-0.013128787 0.022354044 0.25340426
-0.012617057 0.022363428 0.25351062
-0.012120127 0.022400968 0.25393617
-0.011636041 0.022466658 0.25468084
-0.011158204 0.022551119 0.2556383
-0.010672034 0.022626197 0.25648937
-0.010161343 0.022654351 0.25680852
-0.0096333809 0.022644965 0.25670213
-0.0091020782 0.022626197 0.25648937
-0.0085680848 0.022598043 0.25617021
-0.0080387359 0.022579275 0.25595745
-0.00750713 0.022551119 0.2556383
-0.0069797342 0.022532351 0.25542554
-0.006466656 0.022560505 0.2557447
-0.0059621674 0.022626197 0.25648937
-0.0054614069 0.022720043 0.25755319
-0.0049481508 0.02277635 0.2581915
-0.0044231811 0.022785733 0.25829786
-0.0038945684 0.02277635 0.2581915
-0.003367777 0.02277635 0.2581915
-0.0028409858 0.02277635 0.2581915
-0.0023161012 0.022795118 0.25840425
-0.0017903488 0.022813886 0.25861701
-0.001263728 0.022832656 0.25882977
-0.0007359368 0.022842042 0.25893617
-0.00020771142 0.022851426 0.25904256
0.00032107986 0.022870196 0.25925532
0.00085039058 0.02287958 0.25936171
0.0013795695 0.02287958 0.25936171
0.0019087484 0.02287958 0.25936171
0.0024389273 0.022888964 0.25946808
0.0029695404 0.02289835 0.25957447
0.0035005871 0.022907732 0.25968084
0.0040304172 0.022907732 0.25968084
0.0045602475 0.022907732 0.25968084
0.0050942483 0.022926504 0.25989363
0.0056314194 0.022954658 0.26021278
0.0061724121 0.022992194 0.2606383
0.006712405 0.023020349 0.26095745
0.0072507462 0.023039117 0.26117021
0.0077899559 0.023057885 0.26138297
0.008330035 0.023076657 0.26159576
0.0088637723 0.023076657 0.26159576
0.0093975086 0.023076657 0.26159576
0.0099312458 0.023076657 0.26159576
0.010460727 0.023067271 0.26148936
0.010989774 0.023057885 0.26138297
0.011513697 0.023039117 0.26117021
0.012036752 0.023020349 0.26095745
0.012569187 0.023020349 0.26095745
0.013117645 0.023048503 0.2612766
0.013672963 0.023086039 0.26170212
0.014230018 0.023123579 0.26212767
0.014782818 0.023151733 0.26244682
0.015343128 0.023189271 0.26287234
0.015905175 0.023226811 0.26329789
0.016455673 0.023245579 0.26351064
0.016993316 0.023245579 0.26351064
0.017516805 0.023226811 0.26329789
0.01804672 0.023217425 0.26319149
0.018583713 0.023217425 0.26319149
0.019136162 0.023236193 0.26340425
0.019697428 0.023264347 0.2637234
0.020259993 0.023292501 0.26404256
0.020823862 0.023320654 0.26436171
0.021380436 0.023339424 0.26457447
0.021929067 0.02334881 0.26468086
0.022451034 0.023330038 0.26446807
0.022953641 0.023292501 0.26404256
0.023445044 0.023245579 0.26351064
0.023973005 0.023236193 0.26340425
0.02455003 0.023273733 0.2638298
0.025169255 0.02334881 0.26468086
0.025771286 0.023405114 0.26531914
0.026354823 0.023442654 0.26574469
0.02690779 0.023452038 0.26585105
0.027439227 0.023442654 0.26574469
0.027959026 0.023423886 0.26553193
0.028489375 0.0234145 0.26542553
0.029019289 0.023405114 0.26531914
0.029572478 0.0234145 0.26542553
0.030126099 0.023423886 0.26553193
0.03065558 0.0234145 0.26542553
0.031172123 0.023395732 0.26521277
0.031700518 0.023386346 0.26510638
0.032254357 0.023395732 0.26521277
0.03283494 0.023423886 0.26553193
0.033430193 0.023461424 0.26595744
0.034000009 0.023480192 0.2661702
0.034543078 0.023480192 0.2661702
0.035072129 0.023470808 0.26606384
0.035586499 0.023452038 0.26585105
0.036100004 0.023433268 0.26563829
0.036627315 0.023423886 0.26553193
0.03715419 0.0234145 0.26542553
0.037725959 0.023433268 0.26563829
0.038329247 0.023470808 0.26606384
0.038949814 0.023517732 0.26659575
0.03955679 0.023555268 0.26702127
0.040149529 0.023583421 0.26734042
0.040743567 0.023611575 0.26765957
0.041338909 0.023639731 0.26797873
0.041918926 0.023658499 0.26819149
0.042466119 0.023658499 0.26819149
0.04299625 0.023649113 0.26808509
0.04357779 0.023667885 0.26829788
0.044195183 0.023705421 0.2687234
0.044885166 0.023780499 0.26957446
0.045614485 0.023874342 0.27063829
0.046293706 0.023940036 0.27138299
0.046920866 0.023977574 0.27180851
0.047456864 0.023968192 0.27170214
0.047954824 0.023940036 0.27138299
0.048432466 0.023902498 0.27095744
0.048908375 0.02386496 0.27053192
0.038131159 0.017802527 0.20180851
0.038481954 0.017774373 0.20148936
0.03883145 0.017746219 0.20117021
0.039200399 0.017727451 0.20095745
0.039610416 0.017727451 0.20095745
0.039999247 0.017718067 0.20085107
0.040344834 0.017689914 0.20053191
0.040645882 0.01764299 0.2
0.040944759 0.017596068 0.19946809
0.072753064 0.026520792 0.30063829
0.072561666 0.026229871 0.29734042
0.047179278 0.012622246 0.14308511
0.047259446 0.012565938 0.1424468
0.047265995 0.012490862 0.14159575
0.047269065 0.012415785 0.14074469
0.047268659 0.012340709 0.13989362
0.047300946 0.012275017 0.13914894
0.047402956 0.012228094 0.13861702
0.047539391 0.012190555 0.13819149
0.047747713 0.012171786 0.13797872
0.047992203 0.012162401 0.13787234
0.048236258 0.012153017 0.13776596
0.048479881 0.012143633 0.13765958
0.048760749 0.012143633 0.13765958
0.049117412 0.012162401 0.13787234
0.049513064 0.012190555 0.13819149
0.049986687 0.012237478 0.1387234
0.050539579 0.012303171 0.13946809
0.051173043 0.012387631 0.14042553
0.051888388 0.012490862 0.14159575
0.13731648 0.023977574 0.27180851
0.1378171 0.023968192 0.27170214
0.13826309 0.02394942 0.27148935
0.13881701 0.02394942 0.27148935
0.13926171 0.023930652 0.27127659
0.13965072 0.023902498 0.27095744
0.13998337 0.02386496 0.27053192
0.14042482 0.023846192 0.27031916
-0.11642821 0.016754834 0.18563829
-0.11611596 0.016764436 0.18574469
-0.11586956 0.016783638 0.18595745
-0.11582049 0.016831646 0.18648936
-0.11583512 0.016889257 0.18712766
-0.11584713 0.016946865 0.18776596
-0.11559487 0.016966069 0.18797873
-0.16606145 0.024868205 0.27553192
-0.16492417 0.02478179 0.27457446
-0.16423659 0.024762588 0.2743617
-0.16354989 0.024743386 0.27414894
-0.16286404 0.024724182 0.27393618
-0.16230513 0.024724182 0.27393618
-0.1617462 0.024724182 0.27393618
-0.16137508 0.024752986 0.27425531
-0.16112742 0.024800995 0.27478725
-0.16075324 0.024829797 0.27510637
-0.11531808 0.022141343 0.24531914
-0.11476777 0.022131743 0.24521276
-0.11411873 0.022102937 0.24489361
-0.11356971 0.022093335 0.24478723
-0.11316856 0.022112541 0.245
-0.11286437 0.022150947 0.24542554
-0.11255845 0.022189353 0.24585107
-0.11220229 0.022218157 0.24617021
-0.11170003 0.022218157 0.24617021
-0.11110166 0.022198955 0.24595745
-0.11040848 0.022160549 0.24553192
-0.10971704 0.022122141 0.24510638
-0.10907473 0.022093335 0.24478723
-0.10848092 0.022074133 0.24457447
-0.10784101 0.022045327 0.24425532
-0.10701538 0.021978116 0.24351063
-0.10609973 0.021891702 0.24255319
-0.10528062 0.02182449 0.2418085
-0.10460285 0.021786084 0.24138297
-0.10415624 0.021795686 0.24148937
-0.10380052 0.02182449 0.2418085
-0.10344351 0.021853296 0.24212766
-0.10308519 0.0218821 0.24244681
-0.10277059 0.021920508 0.24287234
-0.10245425 0.021958914 0.24329787
-0.10213617 0.02199732 0.24372341
-0.10186072 0.022045327 0.24425532
-0.1014948 0.022074133 0.24457447
-0.10099579 0.022074133 0.24457447
-0.10045307 0.022064531 0.24446808
-0.099954277 0.022064531 0.24446808
-0.099455491 0.022064531 0.24446808
-0.098999761 0.022074133 0.24457447
-0.098457903 0.022064531 0.24446808
-0.097959116 0.022064531 0.24446808
-0.097502738 0.022074133 0.24457447
-0.097172506 0.022112541 0.245
-0.097008444 0.022189353 0.24585107
-0.096882671 0.022275768 0.24680851
-0.096794523 0.022371784 0.24787234
-0.09649542 0.022419792 0.24840425
-0.050233003 0.011858005 0.13138297
-0.050005402 0.011867607 0.13148937
-0.049737122 0.011867607 0.13148937
-0.049468841 0.011867607 0.13148937
-0.049200565 0.011867607 0.13148937
-0.048853103 0.011848403 0.13127659
-0.048545886 0.011838802 0.13117021
-0.048239104 0.011829201 0.13106383
-0.047932751 0.011819598 0.13095744
-0.047704283 0.011829201 0.13106383
-0.047436871 0.011829201 0.13106383
-0.047169458 0.011829201 0.13106383
-0.046902049 0.011829201 0.13106383
-0.046634637 0.011829201 0.13106383
-0.046404861 0.011838802 0.13117021
-0.046212066 0.011858005 0.13138297
-0.04601841 0.011877209 0.13159575
-0.045786899 0.01188681 0.13170213
-0.045591723 0.011906014 0.1319149
-0.045359123 0.011915615 0.13202128
-0.045162424 0.011934818 0.13223404
-0.044964861 0.011954022 0.13244681
-0.044766422 0.011973225 0.13265957
-0.056760032 0.018012647 0.19957447
-0.055932291 0.017878223 0.1980851
-0.055438675 0.017849419 0.19776596
-0.055094376 0.017868621 0.19797872
-0.054749217 0.017887825 0.19819149
-0.054578211 0.017964639 0.19904256
-0.054722216 0.018147068 0.20106383
-0.061226614 0.021094767 0.2337234
-0.061523978 0.021363612 0.23670213
-0.061397675 0.021488434 0.23808511
-0.061047994 0.021536442 0.23861702
-0.06058814 0.021546043 0.2387234
-0.06010107 0.021546043 0.2387234
-0.059640568 0.021555645 0.23882979
-0.059232324 0.021584449 0.23914893
-0.058848914 0.021622857 0.23957446
-0.058463767 0.021661263 0.23999999
-0.058051184 0.021690069 0.24031915
-0.057611823 0.021709273 0.24053192
-0.057121061 0.021709273 0.24053192
-0.056655347 0.021718873 0.2406383
-0.056189198 0.021728475 0.24074468
-0.05574723 0.021747679 0.24095745
-0.055328786 0.021776482 0.24127659
-0.054860685 0.021786084 0.24138297
-0.054368187 0.021786084 0.24138297
-0.053828202 0.021766881 0.24117021
-0.053312615 0.02175728 0.24106383
-0.052797459 0.021747679 0.24095745
-0.052328922 0.02175728 0.24106383
-0.05188283 0.021776482 0.24127659
-0.051458526 0.021805288 0.24159575
-0.051032923 0.021834092 0.2419149
-0.050606012 0.021862896 0.24223404
-0.050177805 0.021891702 0.24255319
-0.049726501 0.021910906 0.24276596
-0.049252756 0.021920508 0.24287234
-0.048757222 0.021920508 0.24287234
-0.048261687 0.021920508 0.24287234
-0.047745228 0.021910906 0.24276596
-0.047270615 0.021920508 0.24287234
-0.046836548 0.021949312 0.2431915
-0.046421446 0.021987719 0.24361703
-0.046024662 0.022035727 0.24414894
-0.045605872 0.022074133 0.24457447
-0.045126483 0.022083735 0.24468085
-0.044646658 0.022093335 0.24478723
-0.044147216 0.022093335 0.24478723
-0.043685712 0.022112541 0.245
-0.04322334 0.022131743 0.24521276
-0.04272303 0.022131743 0.24521276
-0.042149447 0.022093335 0.24478723
-0.0415776 0.022054929 0.2443617
-0.041061144 0.022045327 0.24425532
-0.040615786 0.022074133 0.24457447
-0.040186577 0.022112541 0.245
-0.039755631 0.022150947 0.24542554
-0.039305933 0.022179751 0.24574468
-0.038838133 0.022198955 0.24595745
-0.038352884 0.022208557 0.24606383
-0.037818108 0.022189353 0.24585107
-0.037284199 0.022170149 0.2456383
-0.036767092 0.022160549 0.24553192
-0.036313269 0.022189353 0.24585107
-0.035920128 0.022256564 0.24659574
-0.035523951 0.022323776 0.24734043
-0.035064485 0.02235258 0.24765958
-0.034574028 0.022362182 0.24776596
-0.034097765 0.022381384 0.24797872
-0.033649452 0.022419792 0.24840425
-0.033185214 0.022448596 0.2487234
-0.032705694 0.022467799 0.24893618
-0.032184023 0.022458198 0.24882978
-0.031662792 0.022448596 0.2487234
-0.031141993 0.022438996 0.24861702
-0.030647846 0.022448596 0.2487234
-0.030166155 0.022467799 0.24893618
-0.029670922 0.022477401 0.24904256
-0.029162798 0.022477401 0.24904256
-0.028642433 0.022467799 0.24893618
-0.028134525 0.022467799 0.24893618
-0.02765023 0.022487003 0.24914894
-0.027165066 0.022506207 0.24936171
-0.026644917 0.022496603 0.24925531
-0.02611405 0.022477401 0.24904256
-0.02557311 0.022448596 0.2487234
-0.025076358 0.022458198 0.24882978
-0.02460018 0.022487003 0.24914894
-0.024122698 0.022515807 0.24946809
-0.023633845 0.022535011 0.24968085
-0.023124417 0.022535011 0.24968085
-0.022614991 0.022535011 0.24968085
-0.022124402 0.022554215 0.24989362
-0.021660548 0.022602221 0.25042552
-0.021212494 0.022669435 0.25117022
-0.020743866 0.022717442 0.25170213
-0.020255966 0.022746248 0.25202128
-0.019750096 0.022755846 0.25212765
-0.019251911 0.022775052 0.25234044
-0.018744955 0.022784652 0.2524468
-0.018237568 0.022794256 0.25255319
-0.01773721 0.022813458 0.25276595
-0.017235985 0.02283266 0.25297871
-0.016726861 0.022842264 0.25308511
-0.016210489 0.022842264 0.25308511
-0.015687518 0.02283266 0.25297871
-0.015164983 0.02282306 0.25287235
-0.01466137 0.022842264 0.25308511
-0.014162835 0.022871068 0.25340426
-0.013657268 0.022890272 0.25361702
-0.013145323 0.022899874 0.25372341
-0.012632941 0.022909474 0.25382978
-0.012130282 0.022938279 0.25414893
-0.011636041 0.022986287 0.25468084
-0.011144274 0.023043897 0.25531915
-0.010649902 0.023101507 0.25595745
-0.010144505 0.023139913 0.25638297
-0.0096373735 0.02317832 0.25680852
-0.0091171786 0.02318792 0.25691488
-0.0085894344 0.02317832 0.25680852
-0.0080587817 0.023159115 0.25659573
-0.0075227502 0.023120711 0.25617021
-0.0069971755 0.023111107 0.25606382
-0.0064827953 0.023139913 0.25638297
-0.0059819506 0.023226328 0.25734043
-0.0054794541 0.023322344 0.25840425
-0.0049664997 0.023389554 0.25914893
-0.004439577 0.023399157 0.25925532
-0.0039058009 0.023370352 0.25893617
-0.0033747151 0.02335115 0.25872341
-0.0028456678 0.023341546 0.25861701
-0.002318962 0.02335115 0.25872341
-0.0017925582 0.023370352 0.25893617
-0.0012652862 0.023389554 0.25914893
-0.00073684391 0.023399157 0.25925532
-0.00020813792 0.023427963 0.25957447
0.0003217386 0.023447165 0.25978723
0.00085178576 0.023447165 0.25978723
0.001381267 0.023437563 0.25968084
0.0019087484 0.023408759 0.25936171
0.0024359273 0.023389554 0.25914893
0.0029646719 0.023389554 0.25914893
0.0034962853 0.023408759 0.25936171
0.0040271152 0.023418359 0.25946808
0.0045602475 0.023437563 0.25968084
0.0050942483 0.023456767 0.25989363
0.0056337216 0.023495173 0.26031914
0.0061749318 0.023533581 0.26074469
0.0067151417 0.023562387 0.26106384
0.0072566532 0.023591189 0.26138297
0.0077994675 0.023619995 0.26170212
0.0083368095 0.023629596 0.26180851
0.0088673756 0.023619995 0.26170212
0.0094013298 0.023619995 0.26170212
0.009935284 0.023619995 0.26170212
0.010464983 0.023610394 0.26159576
0.010985302 0.023581589 0.2612766
0.011504318 0.023552783 0.26095745
0.012026939 0.023533581 0.26074469
0.012569187 0.023552783 0.26095745
0.013128327 0.023600791 0.26148936
0.013689637 0.023648798 0.26202127
0.014253118 0.023696806 0.26255319
0.014806786 0.023725612 0.26287234
0.015355546 0.023744814 0.2630851
0.015911601 0.02377362 0.26340425
0.016462315 0.023792822 0.26361701
0.017000174 0.023792822 0.26361701
0.017523881 0.02377362 0.26340425
0.01804672 0.023754418 0.26319149
0.018576201 0.023744814 0.2630851
0.019120706 0.023754418 0.26319149
0.01967359 0.02377362 0.26340425
0.020243669 0.023812028 0.2638298
0.020815482 0.023850434 0.26425532
0.021380436 0.023879237 0.26457447
0.021929067 0.023888841 0.26468086
0.022442004 0.023860035 0.26436171
0.022944391 0.023821628 0.26393616
0.023445044 0.023783222 0.26351064
0.023973005 0.02377362 0.26340425
0.02455003 0.023812028 0.2638298
0.025159139 0.023879237 0.26457447
0.025760954 0.023936849 0.26521277
0.026354823 0.023984857 0.26574469
0.026918558 0.024004059 0.26595744
0.027461195 0.024004059 0.26595744
0.027981428 0.023984857 0.26574469
0.028512212 0.023975253 0.26563829
0.029065834 0.023984857 0.26574469
0.029643593 0.024013663 0.26606384
0.030210586 0.024032865 0.2662766
0.030753873 0.024032865 0.2662766
0.031272154 0.024013663 0.26606384
0.031815007 0.024013663 0.26606384
0.032370798 0.024023263 0.2661702
0.032979641 0.024071271 0.26670212
0.033563916 0.024100075 0.26702127
0.034135904 0.02411928 0.26723406
0.034681145 0.02411928 0.26723406
0.035226386 0.02411928 0.26723406
0.035743143 0.024100075 0.26702127
0.036287948 0.024100075 0.26702127
0.036847431 0.024109678 0.26712766
0.03740735 0.02411928 0.26723406
0.037997913 0.024148082 0.26755318
0.038605109 0.02418649 0.26797873
0.039260667 0.024253702 0.2687234
0.039919265 0.024320913 0.2694681
0.040580899 0.024388125 0.27021277
0.041245572 0.024455335 0.27095744
0.041880466 0.024503343 0.27148935
0.042467646 0.024522549 0.27170214
0.043022003 0.024522549 0.27170214
0.043559298 0.024512945 0.27159575
0.044147994 0.024532149 0.27180851
0.04480755 0.024589758 0.27244681
0.04555827 0.024695378 0.27361703
0.046349626 0.024820197 0.27500001
0.038380366 0.018137468 0.20095745
0.038728777 0.018108662 0.20063829
0.039117392 0.01809906 0.20053191
0.039526537 0.01809906 0.20053191
0.0399145 0.01808946 0.20042554
0.040259223 0.018060654 0.20010638
0.0405594 0.018012647 0.19957447
0.040879246 0.017974241 0.19914894
0.04121941 0.017945435 0.19882978
0.064212203 0.026644507 0.29521278
0.064651027 0.026577294 0.29446808
0.065393277 0.026634904 0.29510638
0.066233292 0.026730919 0.2961702
0.067005634 0.026798133 0.29691491
0.067708328 0.026836539 0.29734042
0.068412766 0.026874946 0.29776597
0.069266886 0.026970962 0.29882979
0.070249729 0.027114986 0.30042553
0.071364552 0.027307017 0.30255318
0.072184332 0.02738383 0.30340424
0.072828904 0.027393432 0.30351064
0.073319443 0.027345425 0.30297872
0.073678002 0.027249409 0.3019149
0.074032217 0.027153393 0.30085108
0.074540466 0.027114986 0.30042553
0.07547278 0.027230207 0.30170214
0.076383464 0.027335823 0.30287233
0.077190749 0.027403034 0.30361703
0.077673905 0.027355026 0.30308512
0.078484654 0.027422238 0.30382979
0.079409242 0.027527856 0.30500001
0.080254853 0.027604669 0.30585107
0.081047669 0.027662277 0.30648935
0.081786402 0.027700685 0.3069149
0.082584001 0.027758295 0.3075532
0.083384201 0.027815903 0.30819148
0.08407101 0.027835108 0.30840427
0.084671035 0.027825506 0.30829787
0.085300058 0.027825506 0.30829787
0.086018033 0.02785431 0.30861703
0.086767182 0.027892716 0.30904254
0.087457903 0.027911922 0.30925533
0.088119179 0.027921522 0.3093617
0.08884193 0.027950326 0.30968085
0.089658193 0.028007938 0.31031916
0.096631438 0.0283824 0.31446809
0.097305961 0.028392002 0.31457448
0.046933733 0.012846972 0.14234042
0.047082976 0.012808566 0.14191489
0.047159456 0.012750956 0.1412766
0.047233332 0.012693346 0.14063829
0.047268659 0.012626136 0.13989362
0.047337107 0.012568525 0.13925532
0.047439333 0.012520517 0.1387234
0.047612581 0.012491712 0.13840425
0.04778453 0.012462908 0.13808511
0.047992203 0.012443705 0.13787234
0.048199009 0.012424502 0.13765958
0.048404947 0.012405298 0.13744681
0.048723061 0.012414899 0.13755319
0.049079515 0.012434103 0.13776596
0.049513064 0.012472509 0.13819149
0.050025016 0.012530118 0.13882978
0.050616678 0.012606932 0.13968085
0.051366881 0.012722151 0.14095744
0.052317213 0.012885379 0.14276595
0.053353332 0.01306781 0.14478724
0.13792501 0.024541751 0.2719149
0.13831727 0.024512945 0.27159575
0.13876262 0.024493743 0.27138299
0.13920709 0.024474537 0.2711702
0.1395959 0.024445735 0.27085108
0.13992831 0.024407327 0.27042553
0.14036955 0.024388125 0.27021277
-0.11642821 0.017133594 0.18563829
-0.11611596 0.017143413 0.18574469
-0.11593584 0.017172867 0.18606383
-0.11582049 0.017212143 0.18648936
-0.1157034 0.017251417 0.18691489
-0.11565022 0.017300511 0.1874468
-0.16663848 0.025518743 0.27648935
-0.16505198 0.025361648 0.27478725
-0.1641729 0.025312552 0.27425531
-0.16342296 0.025283098 0.27393618
-0.16280079 0.025273278 0.27382979
-0.16217905 0.025263458 0.27372339
-0.16155776 0.02525364 0.27361703
-0.16093689 0.025243822 0.27351063
-0.16037884 0.025243822 0.27351063
-0.15975863 0.025234003 0.27340424
-0.11491802 0.022563322 0.24446808
-0.11441923 0.022563322 0.24446808
-0.11392044 0.022563322 0.24446808
-0.11356971 0.022592779 0.24478723
-0.11326683 0.022632053 0.24521276
-0.11301114 0.022681147 0.24574468
-0.11265586 0.022710603 0.24606383
-0.11215381 0.022710603 0.24606383
-0.11160349 0.022700785 0.24595745
-0.1109575 0.022671329 0.2456383
-0.1103128 0.022641871 0.24531914
-0.10971704 0.022622235 0.24510638
-0.10912213 0.022602597 0.24489361
-0.10862248 0.022602597 0.24489361
-0.10807585 0.022592779 0.24478723
-0.10743615 0.022563322 0.24446808
-0.10665815 0.02250441 0.24382979
-0.10588276 0.0224455 0.2431915
-0.10529436 0.02242586 0.24297872
-0.1048445 0.02243568 0.2430851
-0.10453119 0.022474954 0.24351063
-0.1041707 0.02250441 0.24382979
-0.10385415 0.022543686 0.24425532
-0.10349084 0.022573141 0.24457447
-0.10317103 0.022612417 0.245
-0.10289405 0.022661509 0.24553192
-0.10261492 0.022710603 0.24606383
-0.10224531 0.022740059 0.24638298
-0.10174261 0.022740059 0.24638298
-0.1011962 0.022730241 0.2462766
-0.10069372 0.022730241 0.2462766
-0.10023452 0.022740059 0.24638298
-0.099774882 0.022749878 0.24648936
-0.099271968 0.022749878 0.24648936
-0.098726422 0.022740059 0.24638298
-0.098266132 0.022749878 0.24648936
-0.097931996 0.022789152 0.24691489
-0.097764023 0.022867702 0.24776596
-0.097676098 0.022965888 0.24882978
-0.097583838 0.023064075 0.24989362
-0.097280599 0.023113167 0.25042552
-0.050314356 0.012145706 0.13159575
-0.050045859 0.012145706 0.13159575
-0.049777362 0.012145706 0.13159575
-0.049508866 0.012145706 0.13159575
-0.049200565 0.012135887 0.13148937
-0.048853103 0.012116249 0.13127659
-0.048506517 0.012096612 0.13106383
-0.048199944 0.012086792 0.13095744
-0.047932751 0.012086792 0.13095744
-0.047665559 0.012086792 0.13095744
-0.047436871 0.012096612 0.13106383
-0.047169458 0.012096612 0.13106383
-0.046902049 0.012096612 0.13106383
-0.046634637 0.012096612 0.13106383
-0.046442494 0.012116249 0.13127659
-0.046212066 0.012126067 0.13138297
-0.04601841 0.012145706 0.13159575
-0.045786899 0.012155524 0.13170213
-0.045554951 0.012165342 0.1318085
-0.045322575 0.012175161 0.1319149
-0.045126092 0.012194798 0.13212766
-0.044928744 0.012214436 0.13234043
-0.044694629 0.012224255 0.13244681
-0.057989996 0.018684944 0.2024468
-0.056608755 0.018370748 0.19904256
-0.05584218 0.018252924 0.19776596
-0.055349208 0.018223466 0.19744681
-0.055005565 0.018243104 0.19765958
-0.054631665 0.018252924 0.19776596
-0.054403182 0.018311834 0.19840425
-0.054490589 0.018478753 0.20021276
-0.061800491 0.021944746 0.23776595
-0.061726887 0.022092026 0.2393617
-0.061347384 0.022131301 0.23978724
-0.060885143 0.022141119 0.23989362
-0.060368903 0.022131301 0.23978724
-0.059932791 0.022150937 0.23999999
-0.059522163 0.022180393 0.24031915
-0.059162498 0.022229487 0.24085106
-0.058774743 0.022268763 0.24127659
-0.05835956 0.022298219 0.24159575
-0.057917587 0.022317855 0.2418085
-0.057424221 0.022317855 0.2418085
-0.056930859 0.022317855 0.2418085
-0.056462325 0.022327675 0.2419149
-0.056017965 0.022347312 0.24212766
-0.055572741 0.02236695 0.24234043
-0.055102471 0.022376768 0.24244681
-0.054607801 0.022376768 0.24244681
-0.054065645 0.02235713 0.24223404
-0.053547885 0.022347312 0.24212766
-0.053053871 0.022347312 0.24212766
-0.052582946 0.02235713 0.24223404
-0.052157342 0.022386586 0.24255319
-0.051753093 0.02242586 0.24297872
-0.051324666 0.022455318 0.24329787
-0.050917163 0.022494592 0.24372341
-0.050485916 0.02252405 0.24404256
-0.050031573 0.022543686 0.24425532
-0.049533214 0.022543686 0.24425532
-0.048992146 0.02252405 0.24404256
-0.048473082 0.02251423 0.24393617
-0.047954455 0.02250441 0.24382979
-0.047498375 0.02252405 0.24404256
-0.047082406 0.022563322 0.24446808
-0.046684973 0.022612417 0.245
-0.046245258 0.022641871 0.24531914
-0.045804244 0.022671329 0.2456383
-0.045342304 0.022690967 0.24585107
-0.044860095 0.022700785 0.24595745
-0.04437745 0.022710603 0.24606383
-0.043932311 0.022740059 0.24638298
-0.043448362 0.022749878 0.24648936
-0.042908378 0.022730241 0.2462766
-0.042314306 0.022681147 0.24574468
-0.041740507 0.022641871 0.24531914
-0.041239981 0.022641871 0.24531914
-0.040810119 0.022681147 0.24574468
-0.040378522 0.022720421 0.24617021
-0.039945189 0.022759696 0.24659574
-0.039476089 0.022779334 0.24680851
-0.038972523 0.022779334 0.24680851
-0.038468957 0.022779334 0.24680851
-0.037949026 0.022769516 0.24670213
-0.037429526 0.022759696 0.24659574
-0.036942326 0.022769516 0.24670213
-0.036533255 0.022828426 0.24734043
-0.036152571 0.022906976 0.24819149
-0.035783697 0.022995345 0.24914894
-0.035335604 0.023034619 0.24957447
-0.034841236 0.023044437 0.24968085
-0.034361068 0.023064075 0.24989362
-0.033880029 0.023083713 0.25010639
-0.033383925 0.023093531 0.25021276
-0.032859437 0.023083713 0.25010639
-0.032294102 0.023044437 0.24968085
-0.031757593 0.023024801 0.24946809
-0.031235274 0.023014983 0.24936171
-0.030765822 0.023044437 0.24968085
-0.030307963 0.023083713 0.25010639
-0.029835688 0.023113167 0.25042552
-0.029324742 0.023113167 0.25042552
-0.028789315 0.023093531 0.25021276
-0.028266782 0.023083713 0.25010639
-0.027780099 0.023103351 0.25031915
-0.027304137 0.023132807 0.25063831
-0.026792757 0.023132807 0.25063831
-0.026259065 0.023113167 0.25042552
-0.025726242 0.023093531 0.25021276
-0.025205011 0.023083713 0.25010639
-0.024715723 0.023103351 0.25031915
-0.024235854 0.023132807 0.25063831
-0.023754684 0.023162263 0.25095746
-0.023252504 0.023172081 0.25106382
-0.022730621 0.023162263 0.25095746
-0.022228006 0.023172081 0.25106382
-0.021752564 0.023211356 0.25148937
-0.021293353 0.023270266 0.25212765
-0.02083154 0.02332918 0.25276595
-0.020341471 0.023358636 0.25308511
-0.019850098 0.023388091 0.25340426
-0.019349307 0.023407729 0.25361702
-0.018839749 0.023417549 0.25372341
-0.018322073 0.023417549 0.25372341
-0.017804397 0.023417549 0.25372341
-0.017301219 0.023437185 0.25393617
-0.016797172 0.023456821 0.25414893
-0.016278628 0.023456821 0.25414893
-0.015746891 0.023437185 0.25393617
-0.015222401 0.023427365 0.25382978
-0.014710673 0.023437185 0.25393617
-0.014204455 0.023456821 0.25414893
-0.013703099 0.023486279 0.25446808
-0.013194927 0.023505915 0.25468084
-0.012691182 0.023535371 0.255
-0.012186135 0.023564829 0.25531915
-0.011679786 0.023594284 0.2556383
-0.011172134 0.02362374 0.25595745
-0.010667606 0.023663014 0.25638297
-0.010165552 0.023712108 0.25691488
-0.0096653188 0.02377102 0.25755319
-0.0091549316 0.023810295 0.25797874
-0.0086321319 0.023820113 0.2580851
-0.0080955345 0.023790658 0.25776595
-0.0075633628 0.02377102 0.25755319
-0.0070378738 0.02377102 0.25755319
-0.0065231454 0.023810295 0.25797874
-0.0060165706 0.023888843 0.25882977
-0.00550878 0.023977213 0.25978723
-0.0049909656 0.024036124 0.26042554
-0.0044614375 0.024045942 0.2605319
-0.0039282665 0.024036124 0.26042554
-0.0033927544 0.024006668 0.26010638
-0.0028608853 0.023996849 0.25999999
-0.0023294508 0.023987032 0.25989363
-0.0017991865 0.023987032 0.25989363
-0.001269961 0.024006668 0.26010638
-0.00073986745 0.024026304 0.26031914
-0.00020899094 0.024055762 0.2606383
0.00032305613 0.024075398 0.26085106
0.0008552738 0.024075398 0.26085106
0.0013857939 0.024045942 0.2605319
0.001912663 0.023987032 0.25989363
0.0024379273 0.023937939 0.25936171
0.0029646719 0.023918299 0.25914893
0.0034948511 0.023928119 0.25925532
0.0040304172 0.023967393 0.25968084
0.0045658518 0.023996849 0.25999999
0.0051025888 0.024026304 0.26031914
0.0056406283 0.024055762 0.2606383
0.0061799702 0.024085218 0.26095745
0.0067206142 0.024114674 0.2612766
0.0072596068 0.024134312 0.26148936
0.0077994675 0.024153948 0.26170212
0.0083334213 0.024153948 0.26170212
0.0088673756 0.024153948 0.26170212
0.0093975086 0.024144132 0.26159576
0.0099272067 0.024134312 0.26148936
0.010456471 0.024124492 0.26138297
0.010976356 0.024095038 0.26106384
0.011499627 0.024075398 0.26085106
0.012036752 0.024085218 0.26095745
0.012589682 0.024124492 0.26138297
0.013160374 0.024193224 0.26212767
0.013722987 0.024242317 0.26265958
0.014281994 0.024281591 0.2630851
0.014830755 0.024301231 0.26329789
0.015386592 0.024330683 0.26361701
0.015937308 0.024350323 0.2638298
0.016488889 0.024369961 0.26404256
0.017027618 0.024369961 0.26404256
0.017545115 0.024340503 0.2637234
0.018068604 0.024320867 0.26351064
0.018591225 0.024301231 0.26329789
0.019136162 0.024311047 0.26340425
0.019705374 0.024350323 0.2638298
0.020276319 0.024389597 0.26425532
0.020857381 0.02443869 0.26478723
0.021414824 0.024458326 0.26499999
0.021955505 0.024458326 0.26499999
0.022469098 0.024428872 0.26468086
0.022981385 0.024399417 0.26436171
0.023482904 0.024360141 0.26393616
0.024031099 0.024369961 0.26404256
0.024599526 0.024399417 0.26436171
0.025219837 0.024477966 0.26521277
0.025833286 0.024546696 0.26595744
0.026449773 0.024615426 0.26670212
0.027015466 0.024635065 0.2669149
0.027571039 0.024644881 0.26702127
0.028104646 0.024635065 0.2669149
0.028649237 0.024635065 0.2669149
0.029217096 0.024654701 0.26712766
0.029809529 0.024693975 0.26755318
0.030379564 0.024713615 0.26776597
0.030950462 0.024733251 0.26797873
0.031497221 0.024733251 0.26797873
0.032069426 0.024752887 0.26819149
0.032668374 0.024792165 0.26861703
0.033282209 0.024841256 0.26914895
0.033884846 0.02488053 0.26957446
0.034475628 0.024909986 0.26989362
0.035026297 0.024909986 0.26989362
0.035576962 0.024909986 0.26989362
0.036127631 0.024909986 0.26989362
0.036707211 0.024929624 0.27010638
0.037302338 0.02495908 0.27042553
0.037898764 0.024988536 0.27074468
0.038496494 0.025017994 0.27106383
0.039126176 0.025067085 0.27159575
0.03980466 0.025145635 0.27244681
0.040518131 0.025243822 0.27351063
0.041251924 0.025351828 0.27468085
0.041974295 0.025450014 0.27574468
0.038969584 0.018832225 0.20404255
0.038708244 0.018508209 0.20053191
0.039013632 0.018459115 0.2
0.039442662 0.018468933 0.20010638
0.039850943 0.018468933 0.20010638
0.040173609 0.018429659 0.19968085
0.040472921 0.018380566 0.19914894
0.040770061 0.018331474 0.19861703
0.041131191 0.018311834 0.19840425
0.064480923 0.027619941 0.29925531
0.064975806 0.027570847 0.2987234
0.065561943 0.027561031 0.29861704
0.06619478 0.027570847 0.2987234
0.066947013 0.027629761 0.29936171
0.067677848 0.027678855 0.29989362
0.068386622 0.027718127 0.30031914
0.069072686 0.027747585 0.30063829
0.069809377 0.027796676 0.3011702
0.070622869 0.027875226 0.30202127
0.071464926 0.027963595 0.30297872
0.072260268 0.028032325 0.30372339
0.07295654 0.028061783 0.30404255
0.073602624 0.028071601 0.30414894
0.074275106 0.028091239 0.3043617
0.074974634 0.028120695 0.30468085
0.075701855 0.028159969 0.30510637
0.076404206 0.028189424 0.30542552
0.077027373 0.028189424 0.30542552
0.077596448 0.028169788 0.30521277
0.078191906 0.028159969 0.30510637
0.078924343 0.028199244 0.30553192
0.079686217 0.028248338 0.30606383
0.080394424 0.028277794 0.30638298
0.081103936 0.02830725 0.30670214
0.081814758 0.028336708 0.30702129
0.082612567 0.028395617 0.30765957
0.083384201 0.028444709 0.30819148
0.084100008 0.028474167 0.30851063
0.084729463 0.028474167 0.30851063
0.085388362 0.028483987 0.30861703
0.08607734 0.028503623 0.30882978
0.086797051 0.028533079 0.30914894
0.087487981 0.028552717 0.3093617
0.088149481 0.028562536 0.30946809
0.088902965 0.028601808 0.30989361
0.089719668 0.028660722 0.31053191
0.090600878 0.028739272 0.31138298
0.091454387 0.028808001 0.31212765
0.092342325 0.028886551 0.31297871
0.093075715 0.028916007 0.31329787
0.093874052 0.028965101 0.31382978
0.094610475 0.028994557 0.31414893
0.095348209 0.029024012 0.31446809
0.095989823 0.029024012 0.31446809
0.096598737 0.029014193 0.31436169
0.097273044 0.029024012 0.31446809
0.097947791 0.029033832 0.31457448
0.098722979 0.029073106 0.315
0.046793424 0.013098116 0.14191489
0.047012389 0.01307848 0.14170213
0.047123946 0.013029386 0.14117022
0.047233332 0.012980293 0.14063829
0.047304604 0.012921381 0.14
0.047373272 0.012862469 0.13936171
0.047512095 0.012823194 0.13893618
0.047649182 0.012783919 0.13851064
0.04778453 0.012744645 0.13808511
0.047955174 0.012715189 0.13776596
0.048124511 0.012685732 0.13744681
0.04833002 0.012666095 0.13723405
0.048647702 0.012675914 0.13734043
0.049079515 0.012715189 0.13776596
0.049551181 0.012764282 0.13829787
0.050063353 0.012823194 0.13893618
0.050655227 0.012901743 0.13978723
0.051444419 0.013029386 0.14117022
0.05247315 0.01321594 0.14319149
0.053627741 0.013431951 0.14553191
0.054713044 0.013628325 0.14765957
0.1378171 0.025076905 0.27170214
0.13820893 0.025047449 0.27138299
0.13859944 0.025017994 0.27106383
0.13904327 0.024998356 0.27085108
0.13954106 0.024988536 0.27074468
0.13987328 0.024949264 0.27031916
0.14031428 0.024929624 0.27010638
0.14075442 0.024909986 0.26989362
-0.11642821 0.017512353 0.18563829
-0.11611596 0.017522391 0.18574469
-0.11593584 0.017552497 0.18606383
-0.11575443 0.017582605 0.18638298
-0.11550584 0.017602675 0.18659574
-0.11532204 0.017632782 0.18691489
-0.16803895 0.026213335 0.27787235
-0.16683082 0.026112976 0.2768085
-0.16492417 0.025902225 0.27457446
-0.16391818 0.025831977 0.27382979
-0.16310561 0.025791831 0.27340424
-0.16254778 0.025791831 0.27340424
-0.16205299 0.025801869 0.27351063
-0.16149494 0.025801869 0.27351063
-0.16081171 0.025781797 0.27329788
-0.16012934 0.025761727 0.27308512
-0.15944782 0.025741654 0.27287233
-0.11471799 0.023021972 0.24404256
-0.11422007 0.023021972 0.24404256
-0.11382129 0.023042042 0.24425532
-0.11352036 0.023082186 0.24468085
-0.11326683 0.023132363 0.24521276
-0.11296221 0.023172507 0.2456383
-0.11255845 0.023192579 0.24585107
-0.11200834 0.023182543 0.24574468
-0.11141041 0.023162471 0.24553192
-0.11081333 0.023142399 0.24531914
-0.11026497 0.023132363 0.24521276
-0.10966942 0.023112293 0.245
-0.10916954 0.023112293 0.245
-0.10876404 0.023132363 0.24521276
-0.10831069 0.023142399 0.24531914
-0.10776342 0.023132363 0.24521276
-0.10717004 0.023112293 0.245
-0.10648489 0.02307215 0.24457447
-0.10593978 0.023062114 0.24446808
-0.10553276 0.023082186 0.24468085
-0.10517053 0.023112293 0.245
-0.104807 0.023142399 0.24531914
-0.10444217 0.023172507 0.2456383
-0.10407604 0.023202615 0.24595745
-0.10370861 0.023232723 0.2462766
-0.10342903 0.0232829 0.24680851
-0.10314729 0.023333078 0.24734043
-0.10273093 0.02335315 0.24755318
-0.10222584 0.02335315 0.24755318
-0.10172076 0.02335315 0.24755318
-0.10125917 0.023363186 0.24765958
-0.10079715 0.023373222 0.24776596
-0.10037775 0.023393292 0.24797872
-0.099871792 0.023393292 0.24797872
-0.099365838 0.023393292 0.24797872
-0.0989023 0.02340333 0.24808511
-0.098564908 0.023443472 0.24851064
-0.098351702 0.023513721 0.24925531
-0.098260738 0.023614081 0.25031915
-0.098123893 0.0237044 0.25127658
-0.050273679 0.012404166 0.13148937
-0.050005402 0.012404166 0.13148937
-0.049737122 0.012404166 0.13148937
-0.049428817 0.012394129 0.13138297
-0.049120948 0.012384094 0.13127659
-0.048813514 0.012374058 0.13117021
-0.048506517 0.012364023 0.13106383
-0.048199944 0.012353987 0.13095744
-0.047932751 0.012353987 0.13095744
-0.047665559 0.012353987 0.13095744
-0.047398362 0.012353987 0.13095744
-0.04713117 0.012353987 0.13095744
-0.046863973 0.012353987 0.13095744
-0.046634637 0.012364023 0.13106383
-0.046404861 0.012374058 0.13117021
-0.046212066 0.012394129 0.13138297
-0.04601841 0.012414201 0.13159575
-0.045786899 0.012424237 0.13170213
-0.045518186 0.012424237 0.13170213
-0.045286018 0.012434272 0.1318085
-0.045089759 0.012454345 0.13202128
-0.044856511 0.01246438 0.13212766
-0.044586927 0.01246438 0.13212766
-0.057685267 0.018997643 0.20138298
-0.056427218 0.018716641 0.19840425
-0.055722024 0.018616285 0.19734043
-0.055259742 0.018596213 0.19712766
-0.054887149 0.018606249 0.19723405
-0.054514114 0.018616285 0.19734043
-0.054228161 0.018656427 0.19776596
-0.054172099 0.018776856 0.19904256
-0.054628085 0.019077929 0.20223404
-0.062519424 0.022690792 0.24053192
-0.062412743 0.022831293 0.24202128
-0.062000595 0.022861401 0.24234043
-0.061506145 0.022861401 0.24234043
-0.061011694 0.022861401 0.24234043
-0.060596939 0.022891507 0.24265957
-0.060207233 0.022931648 0.2430851
-0.059841927 0.022981828 0.24361703
-0.059448533 0.023021972 0.24404256
-0.059002001 0.023042042 0.24425532
-0.058529124 0.023052078 0.2443617
-0.058005288 0.023042042 0.24425532
-0.057531975 0.023052078 0.2443617
-0.05705823 0.023062114 0.24446808
-0.056633279 0.023092221 0.24478723
-0.056182627 0.023112293 0.245
-0.055706929 0.023122329 0.24510638
-0.055182874 0.023112293 0.245
-0.054635506 0.023092221 0.24478723
-0.054089013 0.02307215 0.24457447
-0.053613313 0.023082186 0.24468085
-0.053160273 0.023102256 0.24489361
-0.052752119 0.023142399 0.24531914
-0.052364886 0.023192579 0.24585107
-0.05195304 0.023232723 0.2462766
-0.051539458 0.023272865 0.24670213
-0.051102132 0.02330297 0.24702127
-0.050619923 0.023313006 0.24712765
-0.050115705 0.023313006 0.24712765
-0.049547419 0.0232829 0.24680851
-0.049001571 0.023262829 0.24659574
-0.048477516 0.023252793 0.24648936
-0.048016015 0.023272865 0.24670213
-0.047594614 0.023313006 0.24712765
-0.047151212 0.023343114 0.24744681
-0.046706509 0.023373222 0.24776596
-0.046240661 0.023393292 0.24797872
-0.045754328 0.02340333 0.24808511
-0.045286965 0.0234234 0.24829787
-0.044837918 0.023453508 0.24861702
-0.044406537 0.023493651 0.24904256
-0.043917164 0.023503685 0.24914894
-0.043353215 0.023473579 0.24882978
-0.042753935 0.0234234 0.24829787
-0.042193029 0.023393292 0.24797872
-0.04170496 0.02340333 0.24808511
-0.041269455 0.023443472 0.24851064
-0.040832214 0.023483615 0.24893618
-0.040376004 0.023513721 0.24925531
-0.039884463 0.023523759 0.24936171
-0.039358888 0.023513721 0.24925531
-0.038833745 0.023503685 0.24914894
-0.038325403 0.023503685 0.24914894
-0.03783321 0.023513721 0.24925531
-0.037372444 0.023543829 0.24957447
-0.03700465 0.023634151 0.25053191
-0.036663946 0.023744544 0.25170213
-0.036287911 0.023834867 0.25265959
-0.035847716 0.023885045 0.2531915
-0.035345968 0.023895079 0.25329787
-0.034814537 0.023885045 0.2531915
-0.034283534 0.023875009 0.25308511
-0.033738773 0.023854937 0.25287235
-0.033166926 0.023814794 0.2524468
-0.0325693 0.02375458 0.25180852
-0.032028444 0.023734508 0.25159574
-0.03151511 0.023734508 0.25159574
-0.031041102 0.023764614 0.25191489
-0.030578684 0.02380476 0.25234044
-0.030101854 0.023834867 0.25265959
-0.029586351 0.023834867 0.25265959
-0.029058605 0.02382483 0.25255319
-0.028543318 0.02382483 0.25255319
-0.028051641 0.023844901 0.25276595
-0.027582278 0.023885045 0.2531915
-0.027088432 0.023905115 0.25340426
-0.026571408 0.023905115 0.25340426
-0.026054384 0.023905115 0.25340426
-0.02554808 0.023915149 0.25351062
-0.025041344 0.023925187 0.25361702
-0.024523886 0.023925187 0.25361702
-0.024026567 0.023945257 0.25382978
-0.023508675 0.023945257 0.25382978
-0.022981148 0.023935223 0.25372341
-0.022454053 0.023925187 0.25361702
-0.021964202 0.023955295 0.25393617
-0.021491013 0.024005473 0.25446808
-0.021015657 0.02405565 0.255
-0.020529579 0.024095796 0.25542554
-0.020041764 0.024135938 0.25585106
-0.019535981 0.024156008 0.25606382
-0.01902933 0.024176082 0.25627661
-0.018506447 0.024176082 0.25627661
-0.017983561 0.024176082 0.25627661
-0.017475173 0.024196152 0.25648937
-0.016972948 0.024226259 0.25680852
-0.016448978 0.024226259 0.25680852
-0.015911814 0.024206186 0.25659573
-0.015375519 0.024186116 0.25638297
-0.014846256 0.024176082 0.25627661
-0.014329316 0.024186116 0.25638297
-0.013829131 0.024226259 0.25680852
-0.013327206 0.024266401 0.25723404
-0.012828842 0.024316579 0.25776595
-0.012313075 0.024336653 0.25797874
-0.011796438 0.024356725 0.2581915
-0.011269647 0.024356725 0.2581915
-0.010751708 0.024376795 0.25840425
-0.010245529 0.024426972 0.25893617
-0.0097411722 0.024487188 0.25957447
-0.0092304358 0.024537368 0.26010638
-0.0087104123 0.024567474 0.26042554
-0.0081757214 0.024557438 0.26031914
-0.0076445886 0.024557438 0.26031914
-0.0071163634 0.024567474 0.26042554
-0.0065957736 0.024607616 0.26085106
-0.0060783937 0.024667831 0.26148936
-0.005560664 0.024738081 0.26223403
-0.0050358186 0.024788259 0.26276594
-0.0045033381 0.024808332 0.26297873
-0.003966779 0.024808332 0.26297873
-0.0034274447 0.024788259 0.26276594
-0.0028889792 0.024768189 0.26255319
-0.0023513816 0.024748117 0.26234043
-0.0018153886 0.024738081 0.26223403
-0.0012813881 0.024758155 0.26244682
-0.0007465193 0.024778225 0.26265958
-0.00021078229 0.024798296 0.26287234
0.00032569119 0.024808332 0.26297873
0.00086224999 0.024808332 0.26297873
0.0013959794 0.024758155 0.26244682
0.0019259724 0.024687901 0.26170212
0.0024509269 0.024597581 0.26074469
0.0029744082 0.02452733 0.25999999
0.0035048896 0.02452733 0.25999999
0.0040403241 0.024557438 0.26031914
0.0045789294 0.024597581 0.26074469
0.0051171859 0.024627689 0.26106384
0.0056521399 0.024637723 0.26117021
0.0061875284 0.024647761 0.2612766
0.0067260866 0.024667831 0.26148936
0.0072596068 0.024667831 0.26148936
0.0077962978 0.024677869 0.26159576
0.0083266469 0.024667831 0.26148936
0.0088601671 0.024667831 0.26148936
0.0093898652 0.024657795 0.26138297
0.0099231675 0.024657795 0.26138297
0.010447959 0.024637723 0.26117021
0.010971882 0.024617653 0.26095745
0.011499627 0.024607616 0.26085106
0.012051473 0.024647761 0.2612766
0.012620427 0.024718009 0.26202127
0.013192419 0.024788259 0.26276594
0.013756336 0.02483844 0.26329789
0.014305095 0.02485851 0.26351064
0.014854724 0.024878582 0.2637234
0.01541143 0.02490869 0.26404256
0.015975863 0.024948832 0.26446807
0.01652875 0.024968904 0.26468086
0.017075641 0.024978938 0.26478723
0.017601734 0.024958868 0.26457447
0.018119665 0.02492876 0.26425532
0.018643806 0.02490869 0.26404256
0.019205721 0.024938798 0.26436171
0.019792775 0.024999009 0.26499999
0.020390598 0.025069261 0.26574469
0.020974699 0.025119439 0.2662766
0.021535181 0.025139511 0.26648936
0.022070089 0.025129477 0.26638299
0.0225865 0.025099369 0.26606384
0.023101609 0.025069261 0.26574469
0.023624882 0.025049191 0.26553193
0.024186013 0.025069261 0.26574469
0.02476781 0.025109403 0.2661702
0.025401929 0.025199726 0.26712766
0.026039951 0.025290046 0.26808509
0.026671331 0.025370331 0.26893616
0.027263116 0.025410475 0.2693617
0.027834667 0.025430547 0.26957446
0.028395886 0.025440583 0.26968086
0.028968956 0.025460655 0.26989362
0.029542893 0.025480725 0.27010638
0.030129554 0.025510833 0.27042553
0.030705445 0.025530903 0.27063829
0.031282209 0.025550976 0.27085108
0.031872336 0.025581082 0.2711702
0.032501936 0.025641296 0.27180851
0.033147078 0.025711549 0.27255321
0.033795256 0.025781797 0.27329788
0.03441973 0.025831977 0.27382979
0.035019197 0.025862085 0.27414894
0.035592347 0.025872119 0.27425531
0.036179963 0.025892191 0.27446809
0.036754202 0.025902225 0.27457446
0.047453579 0.026885727 0.285
0.048268158 0.027016193 0.28638297
0.049070239 0.027136622 0.28765959
0.049785703 0.027206872 0.28840426
0.050392721 0.027216909 0.28851065
0.050943773 0.027196836 0.28829786
0.051512979 0.027186802 0.2881915
0.05221637 0.027247014 0.28882977
0.053097423 0.027397551 0.29042554
0.03883145 0.018977569 0.20117021
0.038930625 0.018827034 0.19957447
0.039400727 0.018857142 0.19989362
0.039787382 0.018847106 0.19978723
0.0401094 0.018806962 0.1993617
0.040386438 0.018746749 0.19872341
0.040660873 0.018686533 0.1980851
0.041020922 0.018666463 0.19787234
0.064847685 0.028391087 0.30095744
0.065415457 0.028371017 0.30074468
0.065982357 0.028350946 0.30053192
0.066595539 0.028350946 0.30053192
0.067232504 0.02836098 0.30063829
0.067917921 0.028391087 0.30095744
0.06862887 0.028431231 0.30138299
0.069317117 0.028461339 0.30170214
0.070031315 0.028501481 0.30212766
0.070821874 0.02857173 0.30287233
0.071615487 0.028641982 0.30361703
0.072386816 0.028702194 0.30425531
0.073084176 0.028732302 0.30457446
0.073757097 0.028752375 0.30478725
0.074508764 0.028802555 0.30531916
0.075288773 0.028862767 0.30595744
0.076018609 0.028902911 0.30638298
0.076617107 0.028892875 0.30627659
0.077134691 0.028852733 0.30585107
0.07765054 0.028812589 0.30542552
0.078273699 0.028812589 0.30542552
0.078979306 0.028842695 0.30574468
0.079713918 0.028882841 0.30617023
0.080450252 0.028922983 0.30659574
0.081160203 0.02895309 0.3069149
0.08187145 0.028983196 0.30723405
0.082641132 0.029033376 0.30776596
0.083412983 0.029083554 0.30829787
0.084158003 0.029123696 0.30872339
0.08484634 0.029143769 0.30893618
0.085476667 0.029143769 0.30893618
0.086166292 0.029163839 0.30914894
0.086826921 0.029173877 0.30925533
0.087487981 0.029183911 0.3093617
0.088179775 0.029203981 0.30957446
0.088994525 0.029264197 0.31021276
0.089842618 0.029334448 0.31095746
0.090724684 0.029414732 0.3118085
0.091547899 0.029474948 0.3124468
0.092342325 0.029525125 0.31297871
0.093075715 0.029555233 0.31329787
0.093874052 0.029605411 0.31382978
0.094610475 0.029635519 0.31414893
0.095315948 0.029655589 0.31436169
0.095957346 0.029655589 0.31436169
0.096533366 0.029635519 0.31414893
0.097174324 0.029635519 0.31414893
0.097914658 0.029665627 0.31446809
0.098689631 0.029705768 0.3148936
0.099399239 0.029725842 0.31510639
0.10004216 0.029725842 0.31510639
0.046898656 0.013417775 0.14223404
0.047118273 0.013397704 0.14202128
0.047230478 0.013347524 0.14148936
0.04730479 0.01328731 0.14085107
0.047376495 0.013227095 0.14021276
0.047445595 0.013166881 0.13957447
0.047548473 0.013116703 0.13904256
0.047649182 0.013066525 0.13851064
0.04778453 0.013026382 0.13808511
0.047918141 0.012986239 0.13765958
0.048087265 0.012956131 0.13734043
0.048292551 0.012936059 0.13712765
0.04861002 0.012946095 0.13723405
0.049041618 0.012986239 0.13765958
0.049589295 0.013056488 0.13840425
0.050101686 0.013116703 0.13904256
0.050655227 0.013186952 0.13978723
0.051405646 0.013307381 0.14106382
0.052395184 0.013488025 0.14297873
