# .PCD v0.7 - Point Cloud Data file format
VERSION 0.7
FIELDS x y z
SIZE 4 4 4
TYPE F F F
COUNT 1 1 1
WIDTH 1324
HEIGHT 1
VIEWPOINT 0 0 0 1 0 0 0
POINTS 1324
DATA ascii
-0.14461687 -0.055825472 0.26117021
-0.14437746 -0.055939168 0.26170212
-0.14401892 -0.056007389 0.26202127
-0.14365909 -0.056075606 0.26234043
-0.1432399 -0.056121085 0.26255319
-0.093955211 -0.042909436 0.20074467
-0.093496062 -0.042886697 0.20063829
-0.09318541 -0.042932175 0.20085107
-0.093021311 -0.043045875 0.20138298
-0.092855036 -0.043159571 0.20191489
-0.092637889 -0.043250527 0.20234042
-0.092273541 -0.043273266 0.2024468
-0.091715671 -0.043205053 0.20212767
-0.091111049 -0.043114092 0.20170213
-0.09050817 -0.043023136 0.2012766
-0.090097502 -0.043023136 0.2012766
-0.089781635 -0.043068614 0.20148936
-0.089559279 -0.043159571 0.20191489
-0.08928822 -0.043227788 0.20223404
-0.088875599 -0.043227788 0.20223404
-0.088416442 -0.043205053 0.20212767
-0.087911405 -0.043159571 0.20191489
-0.087453336 -0.043136831 0.20180851
-0.08708746 -0.043159571 0.20191489
-0.086858161 -0.043250527 0.20234042
-0.086536229 -0.043296009 0.2025532
-0.086213417 -0.043341488 0.20276596
-0.0857547 -0.043318748 0.20265958
-0.085251607 -0.043273266 0.2024468
-0.08479397 -0.043250527 0.20234042
-0.084381133 -0.043250527 0.20234042
-0.083968297 -0.043250527 0.20234042
-0.08355546 -0.043250527 0.20234042
-0.083142623 -0.043250527 0.20234042
-0.08268629 -0.043227788 0.20223404
-0.08227367 -0.043227788 0.20223404
-0.081861049 -0.043227788 0.20223404
-0.081448428 -0.043227788 0.20223404
-0.081035808 -0.043227788 0.20223404
-0.080538362 -0.04318231 0.20202127
-0.080041789 -0.043136831 0.20180851
-0.079588063 -0.043114092 0.20170213
-0.079218283 -0.043136831 0.20180851
-0.078889616 -0.04318231 0.20202127
-0.078560084 -0.043227788 0.20223404
-0.078270793 -0.043296009 0.2025532
-0.078061976 -0.043409705 0.20308511
-0.077891663 -0.04354614 0.2037234
-0.077799663 -0.043728057 0.20457447
-0.077704191 -0.043909974 0.20542553
-0.016772714 -0.059782144 0.27968085
-0.016202077 -0.059782144 0.27968085
-0.015607659 -0.059691191 0.27925533
-0.015009247 -0.059577491 0.27872342
-0.014401982 -0.059418313 0.27797872
-0.013797756 -0.059259139 0.27723405
-0.013201647 -0.0591227 0.27659574
-0.012622723 -0.059054479 0.27627659
-0.01205439 -0.059031744 0.27617022
-0.011490916 -0.059031744 0.27617022
-0.010923233 -0.059009001 0.27606383
-0.010351992 -0.058963526 0.27585107
-0.0097853942 -0.058940783 0.27574468
-0.009229905 -0.058986261 0.27595744
-0.0086902538 -0.059145439 0.27670214
-0.0081475638 -0.059304614 0.27744681
-0.0075931135 -0.059395578 0.27787235
-0.007023477 -0.059372835 0.27776596
-0.0064493287 -0.059304614 0.27744681
0.0042382167 -0.032631185 0.15265958
0.0045496896 -0.032631185 0.15265958
0.0048543876 -0.032585703 0.15244681
0.0051582176 -0.032540224 0.15223405
0.0054650009 -0.032517482 0.15212765
0.0057713501 -0.032494746 0.15202127
0.0060857767 -0.032517482 0.15212765
0.006391692 -0.032494746 0.15202127
0.0066971732 -0.032472007 0.15191489
0.00700222 -0.032449268 0.15180852
0.0073017087 -0.032403786 0.15159574
0.0076056705 -0.032381047 0.15148936
0.0079091983 -0.032358307 0.15138298
0.0082122907 -0.032335568 0.15127659
0.0085149501 -0.032312829 0.15117021
0.0088171754 -0.03229009 0.15106383
0.0091189668 -0.032267351 0.15095745
0.0094203241 -0.032244612 0.15085107
0.0097281076 -0.032244612 0.15085107
0.010035891 -0.032244612 0.15085107
0.010350969 -0.032267351 0.15095745
0.01066648 -0.03229009 0.15106383
0.010990154 -0.032335568 0.15127659
0.011306752 -0.032358307 0.15138298
0.011615621 -0.032358307 0.15138298
0.011941249 -0.032403786 0.15159574
0.012259148 -0.032426525 0.15170212
0.012586297 -0.032472007 0.15191489
0.012914311 -0.032517482 0.15212765
0.013243197 -0.032562964 0.15234043
0.013554018 -0.032562964 0.15234043
0.013845475 -0.032517482 0.15212765
0.014126167 -0.032449268 0.15180852
0.014405554 -0.032381047 0.15148936
0.014693973 -0.032335568 0.15127659
0.014992074 -0.032312829 0.15117021
0.015289742 -0.03229009 0.15106383
0.015586975 -0.032267351 0.15095745
0.015883774 -0.032244612 0.15085107
0.016168719 -0.032199133 0.1506383
0.016476069 -0.032199133 0.1506383
0.016807124 -0.032244612 0.15085107
0.017139046 -0.03229009 0.15106383
0.017471837 -0.032335568 0.15127659
0.017805496 -0.032381047 0.15148936
0.018127302 -0.032403786 0.15159574
0.018449543 -0.032426525 0.15170212
0.018798528 -0.032494746 0.15202127
0.019175559 -0.032608442 0.15255319
0.019554762 -0.032722142 0.15308511
0.019922329 -0.032813098 0.15351065
0.020235538 -0.032813098 0.15351065
0.020506026 -0.032744881 0.15319149
0.020760756 -0.03265392 0.15276596
0.021028422 -0.032585703 0.15244681
0.021324569 -0.032562964 0.15234043
0.021635393 -0.032562964 0.15234043
0.021946214 -0.032562964 0.15234043
0.083997607 -0.067377135 0.31521276
0.084669314 -0.067399874 0.31531915
0.085456572 -0.067513578 0.31585106
0.16231827 -0.068127543 0.31872341
0.16237022 -0.067877404 0.31755319
0.16258122 -0.067695491 0.31670213
0.16295324 -0.067581795 0.31617022
0.16315797 -0.067399874 0.31531915
0.16335921 -0.067217961 0.31446809
0.16316861 -0.066876873 0.31287235
0.1629715 -0.066535771 0.31127658
0.16220874 -0.065967292 0.30861703
0.16182804 -0.065557979 0.30670214
0.16183397 -0.065307841 0.30553192
0.16206139 -0.065148667 0.30478725
0.16262646 -0.065125927 0.30468085
0.16330512 -0.065148667 0.30478725
0.16801666 -0.059145439 0.27670214
0.1685164 -0.0591227 0.27659574
0.16908073 -0.0591227 0.27659574
-0.12015653 -0.041644 0.19670212
-0.11962567 -0.041598957 0.19648936
-0.11896656 -0.041508868 0.19606383
-0.1185022 -0.041486345 0.19595745
-0.1181665 -0.041508868 0.19606383
-0.11802207 -0.041598957 0.19648936
-0.11781222 -0.041666526 0.19680852
-0.11753759 -0.041711569 0.19702128
-0.11719885 -0.041734092 0.19712766
-0.11692271 -0.041779138 0.19734043
-0.11670852 -0.041846704 0.19765958
-0.11649302 -0.041914269 0.19797872
-0.11621385 -0.041959316 0.19819149
-0.11580948 -0.041959316 0.19819149
-0.11540511 -0.041959316 0.19819149
-0.11506246 -0.041981839 0.19829787
-0.11484241 -0.042049408 0.19861703
-0.14432199 -0.054977287 0.25968084
-0.14432234 -0.055179991 0.2606383
-0.14420138 -0.055337645 0.26138297
-0.14407741 -0.055495307 0.26212767
-0.1437756 -0.055585392 0.26255319
-0.14335598 -0.055630438 0.26276594
-0.092855036 -0.042747602 0.20191489
-0.092686594 -0.042860214 0.2024468
-0.092273541 -0.042860214 0.2024468
-0.091715671 -0.042792648 0.20212767
-0.091062993 -0.042680033 0.20159574
-0.09050817 -0.042612467 0.2012766
-0.090049878 -0.042589944 0.20117021
-0.089829035 -0.042680033 0.20159574
-0.089653656 -0.042792648 0.20212767
-0.089429133 -0.042882737 0.2025532
-0.089015856 -0.042882737 0.2025532
-0.088509515 -0.042837691 0.20234042
-0.087957717 -0.042770121 0.20202127
-0.087453336 -0.042725079 0.20180851
-0.087133348 -0.042770121 0.20202127
-0.086858161 -0.042837691 0.20234042
-0.086581677 -0.04290526 0.20265958
-0.086213417 -0.042927779 0.20276596
-0.085799709 -0.042927779 0.20276596
-0.085296407 -0.042882737 0.2025532
-0.084838554 -0.042860214 0.2024468
-0.084425502 -0.042860214 0.2024468
-0.084056593 -0.042882737 0.2025532
-0.083687253 -0.04290526 0.20265958
-0.083273761 -0.04290526 0.20265958
-0.08281678 -0.042882737 0.2025532
-0.082360223 -0.042860214 0.2024468
-0.081904106 -0.042837691 0.20234042
-0.081491269 -0.042837691 0.20234042
-0.081035808 -0.042815167 0.20223404
-0.080538362 -0.042770121 0.20202127
-0.080041789 -0.042725079 0.20180851
-0.079588063 -0.042702556 0.20170213
-0.079218283 -0.042725079 0.20180851
-0.078889616 -0.042770121 0.20202127
-0.078560084 -0.042815167 0.20223404
-0.078270793 -0.042882737 0.2025532
-0.078021087 -0.042972825 0.20297873
-0.077891663 -0.043130483 0.2037234
-0.077799663 -0.043310661 0.20457447
-0.07762371 -0.043445799 0.20521277
-0.077245034 -0.043468319 0.20531915
-0.076587282 -0.043333184 0.20468085
-0.075694598 -0.043062918 0.20340426
-0.016810993 -0.059346646 0.28031915
-0.016232891 -0.059324119 0.28021276
-0.015631441 -0.059211507 0.27968085
-0.015009247 -0.059008811 0.27872342
-0.014390958 -0.058806106 0.27776596
-0.013776577 -0.058603402 0.2768085
-0.013181337 -0.058468271 0.27617022
-0.01259842 -0.058378179 0.27574468
-0.012035815 -0.058378179 0.27574468
-0.011477637 -0.058400702 0.27585107
-0.010919023 -0.058423221 0.27595744
-0.010351992 -0.058400702 0.27585107
-0.00979672 -0.058445744 0.27606383
-0.0092548132 -0.058580883 0.27670214
-0.0087169828 -0.05876106 0.2775532
-0.0081694312 -0.058896191 0.27819148
-0.0076018339 -0.058896191 0.27819148
-0.0070180972 -0.05876106 0.2775532
-0.0064419098 -0.058670968 0.27712765
0.0048645507 -0.032342233 0.15276596
0.0051726364 -0.03231971 0.15265958
0.0054802876 -0.032297187 0.15255319
0.0057955827 -0.03231971 0.15265958
0.0061113117 -0.032342233 0.15276596
0.0064185294 -0.03231971 0.15265958
0.0067253122 -0.032297187 0.15255319
0.0070316615 -0.032274663 0.15244681
0.0073375767 -0.03225214 0.15234043
0.007643058 -0.032229621 0.15223405
0.0079481043 -0.032207094 0.15212765
0.0082527176 -0.032184575 0.15202127
0.0085449116 -0.032117005 0.15170212
0.0088420128 -0.032071963 0.15148936
0.0091382451 -0.032026917 0.15127659
0.0094402535 -0.032004394 0.15117021
0.0097418278 -0.031981871 0.15106383
0.010042968 -0.031959351 0.15095745
0.010358263 -0.031981871 0.15106383
0.010681503 -0.032026917 0.15127659
0.010997884 -0.03204944 0.15138298
0.011314698 -0.032071963 0.15148936
0.011623784 -0.032071963 0.15148936
0.011932869 -0.032071963 0.15148936
0.012250551 -0.032094482 0.15159574
0.012577482 -0.032139529 0.15180852
0.012905281 -0.032184575 0.15202127
0.013233948 -0.032229621 0.15223405
0.013554018 -0.03225214 0.15234043
0.013845475 -0.032207094 0.15212765
0.014136066 -0.032162052 0.15191489
0.01441567 -0.032094482 0.15159574
0.014693973 -0.032026917 0.15127659
0.015002624 -0.032026917 0.15127659
0.015300509 -0.032004394 0.15117021
0.015586975 -0.031959351 0.15095745
0.015872572 -0.031914305 0.15074468
0.016168719 -0.031891782 0.1506383
0.016476069 -0.031891782 0.1506383
0.016807124 -0.031936828 0.15085107
0.017139046 -0.031981871 0.15106383
0.017484125 -0.03204944 0.15138298
0.017818 -0.032094482 0.15159574
0.018152745 -0.032139529 0.15180852
0.018488357 -0.032184575 0.15202127
0.018837994 -0.03225214 0.15234043
0.019215675 -0.032364752 0.15287234
0.019595528 -0.032477364 0.15340425
0.019936135 -0.03252241 0.15361702
0.02024956 -0.03252241 0.15361702
0.020520266 -0.032454845 0.15329787
0.02078967 -0.032387275 0.15297872
0.021072445 -0.032342233 0.15276596
0.021369245 -0.03231971 0.15265958
0.021665609 -0.032297187 0.15255319
0.021976864 -0.032297187 0.15255319
0.084281102 -0.066959232 0.31627661
0.084926404 -0.066959232 0.31627661
0.085600488 -0.066981748 0.31638297
0.086246006 -0.066981748 0.31638297
0.16210155 -0.067387156 0.31829786
0.16198945 -0.067071848 0.31680852
0.16208971 -0.066846617 0.31574467
0.16240495 -0.066711485 0.31510639
0.16266254 -0.066553824 0.31436169
0.16291709 -0.066396169 0.31361702
0.16289121 -0.0661259 0.31234044
0.1628601 -0.06585563 0.31106383
0.16176142 -0.065157436 0.30776596
0.16121058 -0.064684466 0.30553192
0.16132683 -0.064481758 0.30457446
0.16149572 -0.06430158 0.30372339
0.16795206 -0.058558356 0.27659574
0.1685164 -0.058558356 0.27659574
0.16901571 -0.058535833 0.27648935
0.16957982 -0.058535833 0.27648935
-0.12029706 -0.041153446 0.19627659
-0.11976662 -0.041108835 0.19606383
-0.11904276 -0.040997308 0.19553192
-0.11845016 -0.04093039 0.19521277
-0.11805186 -0.04093039 0.19521277
-0.11797415 -0.041041918 0.19574468
-0.11795817 -0.041175753 0.19638298
-0.11781222 -0.041264974 0.19680852
-0.11747413 -0.041287281 0.1969149
-0.11713561 -0.041309584 0.19702128
-0.11679665 -0.041331887 0.19712766
-0.11658289 -0.041398805 0.19744681
-0.11636783 -0.041465722 0.19776596
-0.11621385 -0.041554943 0.19819149
-0.11587164 -0.04157725 0.19829787
-0.11546705 -0.04157725 0.19829787
-0.14525397 -0.054202102 0.25851065
-0.14466697 -0.054179795 0.25840425
-0.14431776 -0.054246712 0.25872341
-0.14402638 -0.054335929 0.25914893
-0.14390999 -0.054492071 0.25989363
-0.14379056 -0.054648206 0.2606383
-0.14372656 -0.054826651 0.26148936
-0.14360082 -0.054982785 0.26223403
-0.091715671 -0.042380244 0.20212767
-0.090966888 -0.042224105 0.20138298
-0.09041249 -0.042157188 0.20106383
-0.090049878 -0.042179491 0.20117021
-0.089829035 -0.042268716 0.20159574
-0.08970084 -0.042402547 0.20223404
-0.089523062 -0.042514075 0.20276596
-0.089156106 -0.042536378 0.20287234
-0.088602588 -0.042469464 0.2025532
-0.087957717 -0.042357937 0.20202127
-0.087453336 -0.042313326 0.20180851
-0.08708746 -0.042335629 0.20191489
-0.086812496 -0.042402547 0.20223404
-0.086536229 -0.042469464 0.2025532
-0.086213417 -0.042514075 0.20276596
-0.085799709 -0.042514075 0.20276596
-0.085341208 -0.042491771 0.20265958
-0.084883139 -0.042469464 0.2025532
-0.08451423 -0.042491771 0.20265958
-0.08414489 -0.042514075 0.20276596
-0.083775111 -0.042536378 0.20287234
-0.083404906 -0.042558689 0.20297873
-0.082947262 -0.042536378 0.20287234
-0.082490064 -0.042514075 0.20276596
-0.082033299 -0.042491771 0.20265958
-0.081534117 -0.042447157 0.2024468
-0.081078433 -0.042424854 0.20234042
-0.080580778 -0.042380244 0.20212767
-0.080083981 -0.042335629 0.20191489
-0.07963004 -0.042313326 0.20180851
-0.079260044 -0.042335629 0.20191489
-0.07893116 -0.042380244 0.20212767
-0.078601405 -0.042424854 0.20234042
-0.078311898 -0.042491771 0.20265958
-0.078061976 -0.042580992 0.20308511
-0.07785099 -0.04269252 0.20361702
-0.07771875 -0.042848658 0.20436171
-0.077502988 -0.042960182 0.20489362
-0.077084944 -0.042960182 0.20489362
-0.076507673 -0.042870961 0.20446809
-0.075773776 -0.04269252 0.20361702
-0.075200848 -0.042603295 0.20319149
-0.074786268 -0.042603295 0.20319149
-0.015643332 -0.058685482 0.27989361
-0.014992061 -0.058373209 0.27840427
-0.014352378 -0.05808324 0.27702129
-0.013744811 -0.057904799 0.27617022
-0.013145793 -0.057748657 0.27542552
-0.012564397 -0.057659436 0.27500001
-0.012003312 -0.057659436 0.27500001
-0.011451079 -0.057704046 0.27521276
-0.010902186 -0.057770964 0.27553192
-0.010351992 -0.057837881 0.27585107
-0.0098118205 -0.057971708 0.27648935
-0.0092797196 -0.058172457 0.27744681
-0.0087403702 -0.058350902 0.27829787
-0.0081850523 -0.058440126 0.27872342
-0.0076018339 -0.058328595 0.27819148
-0.0070073372 -0.058105543 0.27712765
-0.0064270725 -0.057971708 0.27648935
0.0058076987 -0.032075152 0.15297872
0.0061240792 -0.032097459 0.15308511
0.0064319475 -0.032075152 0.15297872
0.0067393822 -0.032052845 0.15287234
0.0070414757 -0.032008238 0.15265958
0.0073631965 -0.032052845 0.15287234
0.007680445 -0.032075152 0.15297872
0.0079925694 -0.032075152 0.15297872
0.0082931435 -0.032030541 0.15276596
0.0085808653 -0.031941321 0.15234043
0.0088730594 -0.031874403 0.15202127
0.0091703776 -0.031829793 0.15180852
0.0094668269 -0.031785183 0.15159574
0.0097624091 -0.031740572 0.15138298
0.0100642 -0.031718265 0.15127659
0.010372851 -0.031718265 0.15127659
0.010689016 -0.031740572 0.15138298
0.011013341 -0.031785183 0.15159574
0.011322644 -0.031785183 0.15159574
0.011631946 -0.031785183 0.15159574
0.011932869 -0.031762876 0.15148936
0.012241955 -0.031762876 0.15148936
0.012559854 -0.031785183 0.15159574
0.01288722 -0.031829793 0.15180852
0.013215452 -0.031874403 0.15202127
0.013535087 -0.031896707 0.15212765
0.013835793 -0.031874403 0.15202127
0.014126167 -0.031829793 0.15180852
0.014405554 -0.031762876 0.15148936
0.014693973 -0.031718265 0.15127659
0.014992074 -0.031695958 0.15117021
0.015289742 -0.031673655 0.15106383
0.015575991 -0.031629045 0.15085107
0.01586137 -0.031584434 0.1506383
0.016157301 -0.031562127 0.15053192
0.016476069 -0.031584434 0.1506383
0.016807124 -0.031629045 0.15085107
0.017151115 -0.031695958 0.15117021
0.017508697 -0.031785183 0.15159574
0.017843008 -0.031829793 0.15180852
0.018178185 -0.031874403 0.15202127
0.018527171 -0.031941321 0.15234043
0.018890614 -0.032030541 0.15276596
0.019242421 -0.032097459 0.15308511
0.01958194 -0.032142069 0.15329787
0.019908521 -0.032164373 0.15340425
0.020207491 -0.032142069 0.15329787
0.020506026 -0.032119762 0.15319149
0.02078967 -0.032075152 0.15297872
0.021087119 -0.032052845 0.15287234
0.021399027 -0.032052845 0.15287234
0.021695826 -0.032030541 0.15276596
0.022007518 -0.032030541 0.15276596
0.083692066 -0.066358536 0.31648937
0.084309451 -0.066336229 0.31638297
0.084926404 -0.06631393 0.31627661
0.085571714 -0.06631393 0.31627661
0.086188011 -0.066291623 0.31617022
0.16155978 -0.066514671 0.31723404
0.16133671 -0.066157788 0.31553191
0.16137974 -0.065912426 0.31436169
0.16169217 -0.065778598 0.31372342
0.16205704 -0.06566707 0.3131915
0.16247499 -0.06557785 0.31276596
0.16272476 -0.065421715 0.31202129
0.16762908 -0.057882488 0.27606383
0.16825715 -0.057904799 0.27617022
0.16888565 -0.057927098 0.27627659
0.16938409 -0.057904799 0.27617022
-0.12029706 -0.040752981 0.19627659
-0.11950669 -0.04062045 0.1956383
-0.11865415 -0.040465832 0.19489361
-0.11806286 -0.04039957 0.19457448
-0.11779453 -0.040443745 0.19478723
-0.11784592 -0.040598363 0.19553192
-0.11789426 -0.040752981 0.19627659
-0.11781222 -0.040863425 0.19680852
-0.11747413 -0.040885512 0.1969149
-0.11707236 -0.040885512 0.1969149
-0.11667059 -0.040885512 0.1969149
-0.11639445 -0.040929686 0.19712766
-0.11618004 -0.040995952 0.19744681
-0.14648947 -0.053740919 0.25882977
-0.1458414 -0.053696744 0.25861701
-0.14519419 -0.05365257 0.25840425
-0.14460741 -0.053630479 0.25829786
-0.14419909 -0.053674661 0.25851065
-0.143849 -0.053740919 0.25882977
-0.14355655 -0.053829275 0.25925532
-0.14326234 -0.053917628 0.25968084
-0.14308335 -0.054050159 0.26031914
-0.090364657 -0.041724868 0.20095745
-0.090002254 -0.041746955 0.20106383
-0.089829035 -0.041857395 0.20159574
-0.089748025 -0.042012013 0.20234042
-0.089570031 -0.042122457 0.20287234
-0.089202866 -0.042144548 0.20297873
-0.088602588 -0.042056192 0.2025532
-0.087957717 -0.041945748 0.20202127
-0.087407231 -0.041879486 0.20170213
-0.087041579 -0.041901574 0.20180851
-0.086766832 -0.041967839 0.20212767
-0.086490773 -0.042034104 0.2024468
-0.086168185 -0.042078283 0.20265958
-0.0857547 -0.042078283 0.20265958
-0.085341208 -0.042078283 0.20265958
-0.084927715 -0.042078283 0.20265958
-0.084558591 -0.04210037 0.20276596
-0.084233187 -0.042144548 0.20297873
-0.083906904 -0.042188723 0.20319149
-0.083492331 -0.042188723 0.20319149
-0.083077751 -0.042188723 0.20319149
-0.082619905 -0.042166635 0.20308511
-0.082162485 -0.042144548 0.20297873
-0.081662655 -0.04210037 0.20276596
-0.081163689 -0.042056192 0.2025532
-0.080665596 -0.042012013 0.20234042
-0.080168374 -0.041967839 0.20212767
-0.079713985 -0.041945748 0.20202127
-0.079301804 -0.041945748 0.20202127
-0.078972705 -0.041989926 0.20223404
-0.078642733 -0.042034104 0.2024468
-0.078353003 -0.04210037 0.20276596
-0.078061976 -0.042166635 0.20308511
-0.077810317 -0.042254988 0.20351064
-0.07759738 -0.042365428 0.20404255
-0.077301785 -0.042431694 0.20436171
-0.076924846 -0.042453781 0.20446809
-0.076467864 -0.042431694 0.20436171
-0.075892545 -0.042343341 0.20393617
-0.075358331 -0.042277075 0.20361702
-0.074942894 -0.042277075 0.20361702
-0.074605323 -0.04232125 0.20382978
-0.074266888 -0.042365428 0.20404255
-0.073812075 -0.042343341 0.20393617
-0.073357694 -0.04232125 0.20382978
-0.07297989 -0.042343341 0.20393617
-0.014313795 -0.05736341 0.27627659
-0.013707748 -0.0571867 0.27542552
-0.013110251 -0.057032086 0.27468085
-0.012530373 -0.05694373 0.27425531
-0.011970807 -0.05694373 0.27425531
-0.011424519 -0.057009995 0.27457446
-0.010889558 -0.057142526 0.27521276
-0.010359976 -0.057319231 0.27606383
-0.0098306974 -0.057518031 0.27702129
-0.0093046268 -0.057760995 0.27819148
-0.0087637585 -0.057937704 0.27904254
-0.0081913006 -0.057915621 0.27893618
-0.0075960201 -0.05771682 0.27797872
-0.0070019574 -0.05749594 0.27691489
0.00802036 -0.031873472 0.15351065
0.0083277943 -0.031851381 0.15340425
0.0086228112 -0.031785116 0.15308511
0.0089165242 -0.03171885 0.15276596
0.0092153614 -0.031674672 0.15255319
0.0095066885 -0.03160841 0.15223405
0.0098035717 -0.031564232 0.15202127
0.010099588 -0.031520057 0.15180852
0.010394735 -0.031475879 0.15159574
0.01071155 -0.031497966 0.15170212
0.011028798 -0.031520057 0.15180852
0.011338536 -0.031520057 0.15180852
0.011648272 -0.031520057 0.15180852
0.011949629 -0.031497966 0.15170212
0.012250551 -0.031475879 0.15159574
0.012559854 -0.031475879 0.15159574
0.012878188 -0.031497966 0.15170212
0.013206204 -0.031542145 0.15191489
0.013516158 -0.031542145 0.15191489
0.01381643 -0.031520057 0.15180852
0.014106368 -0.031475879 0.15159574
0.014395438 -0.031431705 0.15138298
0.01468364 -0.031387527 0.15117021
0.014981524 -0.031365439 0.15106383
0.015278975 -0.031343348 0.15095745
0.015565005 -0.03129917 0.15074468
0.01586137 -0.031277083 0.1506383
0.016168719 -0.031277083 0.1506383
0.016487705 -0.03129917 0.15074468
0.016830828 -0.031365439 0.15106383
0.017175255 -0.031431705 0.15138298
0.017520983 -0.031497966 0.15170212
0.017880518 -0.031586319 0.15212765
0.018229069 -0.031652585 0.15244681
0.018578924 -0.03171885 0.15276596
0.018930079 -0.031785116 0.15308511
0.019255793 -0.031807207 0.15319149
0.01956835 -0.031807207 0.15319149
0.019880909 -0.031807207 0.15319149
0.020179445 -0.031785116 0.15308511
0.020491786 -0.031785116 0.15308511
0.02078967 -0.031763025 0.15297872
0.021101793 -0.031763025 0.15297872
0.021399027 -0.031740937 0.15287234
0.021695826 -0.03171885 0.15276596
0.022007518 -0.03171885 0.15276596
0.0836358 -0.065668628 0.31627661
0.084252752 -0.065646537 0.31617022
0.084840707 -0.065602362 0.31595746
0.085456572 -0.065580271 0.31585106
0.08610101 -0.065580271 0.31585106
0.16123629 -0.065999947 0.31787235
0.16080128 -0.06555818 0.31574467
0.16052078 -0.065182678 0.31393617
0.16050595 -0.064917617 0.31265956
0.16092455 -0.064829268 0.31223404
0.16150656 -0.064807177 0.31212765
0.16724148 -0.0571867 0.27542552
0.16793308 -0.057230882 0.27563831
0.16856049 -0.057252966 0.27574468
0.1691231 -0.057252966 0.27574468
0.16968571 -0.057252966 0.27574468
-0.12042747 -0.040396258 0.19648936
-0.11957167 -0.040243156 0.19574468
-0.11865415 -0.040068187 0.19489361
-0.1179983 -0.039980702 0.19446808
-0.1177302 -0.040024444 0.19468085
-0.11784592 -0.040199418 0.19553192
-0.11795817 -0.040374387 0.19638298
-0.11781222 -0.040461872 0.19680852
-0.11741067 -0.040461872 0.19680852
-0.11694586 -0.040440001 0.19670212
-0.11654452 -0.040440001 0.19670212
-0.11626882 -0.040483743 0.1969149
-0.14654969 -0.0532347 0.25893617
-0.1458414 -0.053169083 0.25861701
-0.1451344 -0.053103469 0.25829786
-0.14454785 -0.053081602 0.2581915
-0.14413974 -0.053125344 0.25840425
-0.143849 -0.053212825 0.25882977
-0.14343874 -0.053256571 0.25904256
-0.14291021 -0.053256571 0.25904256
-0.14238168 -0.053256571 0.25904256
-0.089781635 -0.041424207 0.20148936
-0.08970084 -0.041577306 0.20223404
-0.089570031 -0.041708533 0.20287234
-0.089202866 -0.041730408 0.20297873
-0.088556044 -0.041621048 0.2024468
-0.087865084 -0.041489821 0.20180851
-0.087361127 -0.041446079 0.20159574
-0.08694981 -0.041446079 0.20159574
-0.08672116 -0.041533563 0.20202127
-0.086399876 -0.041577306 0.20223404
-0.08607772 -0.041621048 0.2024468
-0.085709684 -0.041642923 0.2025532
-0.085296407 -0.041642923 0.2025532
-0.084927715 -0.041664794 0.20265958
-0.084602959 -0.041708533 0.20287234
-0.084277332 -0.041752279 0.20308511
-0.083950832 -0.041796017 0.20329787
-0.083579756 -0.041817892 0.20340426
-0.083164752 -0.041817892 0.20340426
-0.082749739 -0.041817892 0.20340426
-0.082248606 -0.041774146 0.20319149
-0.081748344 -0.041730408 0.20297873
-0.081206322 -0.041664794 0.20265958
-0.080708005 -0.041621048 0.2024468
-0.080210567 -0.041577306 0.20223404
-0.079797946 -0.041577306 0.20223404
-0.079385325 -0.041577306 0.20223404
-0.079014242 -0.041599177 0.20234042
-0.078642733 -0.041621048 0.2024468
-0.078353003 -0.041686662 0.20276596
-0.078061976 -0.041752279 0.20308511
-0.077769645 -0.041817892 0.20340426
-0.077476002 -0.041883502 0.2037234
-0.077181064 -0.041949119 0.20404255
-0.076804779 -0.041970991 0.20414893
-0.076348446 -0.041949119 0.20404255
-0.075892545 -0.041927248 0.20393617
-0.075437076 -0.041905373 0.20382978
-0.07506036 -0.041927248 0.20393617
-0.074683204 -0.041949119 0.20404255
-0.074266888 -0.041949119 0.20404255
-0.073812075 -0.041927248 0.20393617
-0.073395982 -0.041927248 0.20393617
-0.073017962 -0.041949119 0.20404255
-0.072753064 -0.042036604 0.20446809
-0.072524063 -0.04214596 0.205
-0.013660097 -0.056427907 0.27446809
-0.013074708 -0.056318551 0.27393618
-0.012501211 -0.056252938 0.27361703
-0.01194759 -0.056274805 0.27372339
-0.011415667 -0.056406036 0.2743617
-0.010897976 -0.056624748 0.27542552
-0.010379937 -0.056865331 0.27659574
-0.0098608993 -0.057127792 0.27787235
-0.0093295341 -0.0573465 0.27893618
-0.0087804636 -0.057477724 0.27957445
-0.0082037961 -0.057433985 0.2793617
-0.0076047415 -0.057215273 0.27829787
0.0086707491 -0.031647746 0.15393618
0.0089786164 -0.031625874 0.15382978
0.0092796255 -0.031582132 0.15361702
0.0095731216 -0.031516518 0.15329787
0.0098584555 -0.03142903 0.15287234
0.010134975 -0.031319674 0.15234043
0.010423914 -0.031254061 0.15202127
0.010726573 -0.031232191 0.15191489
0.011044255 -0.031254061 0.15202127
0.011354426 -0.031254061 0.15202127
0.011672759 -0.031275932 0.15212765
0.011974768 -0.031254061 0.15202127
0.012276342 -0.031232191 0.15191489
0.012577482 -0.03121032 0.15180852
0.012878188 -0.031188447 0.15170212
0.013187707 -0.031188447 0.15170212
0.013497227 -0.031188447 0.15170212
0.013787383 -0.031144705 0.15148936
0.01407667 -0.03110096 0.15127659
0.014365089 -0.03105722 0.15106383
0.014662974 -0.031035349 0.15095745
0.014960424 -0.031013479 0.15085107
0.015257439 -0.030991605 0.15074468
0.015554021 -0.030969735 0.1506383
0.01586137 -0.030969735 0.1506383
0.016168719 -0.030969735 0.1506383
0.016510976 -0.031035349 0.15095745
0.016854534 -0.03110096 0.15127659
0.017211463 -0.031188447 0.15170212
0.017557845 -0.031254061 0.15202127
0.017918032 -0.031341545 0.15244681
0.018292675 -0.031450901 0.15297872
0.018643612 -0.031516518 0.15329787
0.018982699 -0.031560261 0.15351065
0.019282537 -0.031538386 0.15340425
0.01958194 -0.031516518 0.15329787
0.019880909 -0.031494647 0.15319149
0.020193469 -0.031494647 0.15319149
0.020506026 -0.031494647 0.15319149
0.020833042 -0.031516518 0.15329787
0.021145817 -0.031516518 0.15329787
0.021443702 -0.031494647 0.15319149
0.021741152 -0.031472776 0.15308511
0.022053493 -0.031472776 0.15308511
0.083607666 -0.06500145 0.31617022
0.084196053 -0.064957708 0.31595746
0.084783569 -0.064913958 0.31574467
0.085370228 -0.064870223 0.31553191
0.08601401 -0.064870223 0.31553191
0.16123265 -0.065613844 0.31914893
0.16091251 -0.065220162 0.31723404
0.16042203 -0.064760864 0.315
0.16008562 -0.064367183 0.31308511
0.16006905 -0.064104721 0.3118085
0.1669185 -0.056515392 0.27489361
0.16754419 -0.056537263 0.27500001
0.1681703 -0.056559131 0.27510637
0.16879685 -0.056581005 0.27521276
0.16935837 -0.056581005 0.27521276
-0.12122087 -0.040125281 0.19712766
-0.12062307 -0.040060323 0.19680852
-0.11970165 -0.039887089 0.19595745
-0.11878369 -0.039713852 0.19510639
-0.11806286 -0.039605584 0.19457448
-0.11779453 -0.03964889 0.19478723
-0.11784592 -0.039800469 0.19553192
-0.11795817 -0.039973706 0.19638298
-0.11774853 -0.040038664 0.19670212
-0.1173472 -0.040038664 0.19670212
-0.11688261 -0.040017013 0.19659574
-0.1164815 -0.040017013 0.19659574
-0.11608038 -0.040017013 0.19659574
-0.14725928 -0.052771352 0.25925532
-0.1466099 -0.052728046 0.25904256
-0.14578141 -0.052619774 0.25851065
-0.14501487 -0.052533153 0.2580851
-0.14442874 -0.052511502 0.25797874
-0.14413974 -0.052598119 0.25840425
-0.14390813 -0.052706387 0.25893617
-0.14349763 -0.052749697 0.25914893
-0.14291021 -0.052728046 0.25904256
-0.08731503 -0.041013107 0.20148936
-0.08694981 -0.041034758 0.20159574
-0.08662983 -0.041078068 0.20180851
-0.086354427 -0.041143034 0.20212767
-0.086032487 -0.04118634 0.20234042
-0.085619651 -0.04118634 0.20234042
-0.085251607 -0.041207992 0.2024468
-0.084883139 -0.04122965 0.2025532
-0.084558591 -0.041272957 0.20276596
-0.084277332 -0.041337922 0.20308511
-0.083950832 -0.041381229 0.20329787
-0.083623469 -0.041424539 0.20351064
-0.083208248 -0.041424539 0.20351064
-0.08279302 -0.041424539 0.20351064
-0.08229167 -0.041381229 0.20329787
-0.081791185 -0.041337922 0.20308511
-0.081291571 -0.041294612 0.20287234
-0.080750421 -0.04122965 0.2025532
-0.080294952 -0.041207992 0.2024468
-0.079839922 -0.04118634 0.20234042
-0.079385325 -0.041164685 0.20223404
-0.078972705 -0.041164685 0.20223404
-0.078642733 -0.041207992 0.2024468
-0.078311898 -0.041251302 0.20265958
-0.078021087 -0.041316267 0.20297873
-0.077728964 -0.041381229 0.20329787
-0.077395089 -0.041424539 0.20351064
-0.077060342 -0.041467845 0.2037234
-0.076644681 -0.041467845 0.2037234
-0.076229021 -0.041467845 0.2037234
-0.075813368 -0.041467845 0.2037234
-0.075437076 -0.041489497 0.20382978
-0.0750212 -0.041489497 0.20382978
-0.074644268 -0.041511156 0.20393617
-0.074266888 -0.041532807 0.20404255
-0.07385058 -0.041532807 0.20404255
-0.073434271 -0.041532807 0.20404255
-0.0730941 -0.041576114 0.20425531
-0.072790913 -0.041641079 0.20457447
-0.07244879 -0.041684389 0.20478724
-0.072030962 -0.041684389 0.20478724
-0.071464323 -0.041597772 0.20436171
-0.013601855 -0.055629712 0.27329788
-0.013039164 -0.055608053 0.27319148
-0.012481769 -0.055608053 0.27319148
-0.011942947 -0.055694673 0.27361703
-0.011428947 -0.055911213 0.27468085
-0.010923233 -0.056192718 0.27606383
-0.010415869 -0.056495879 0.2775532
-0.0098948758 -0.056755729 0.27882978
-0.009358 -0.056950618 0.27978724
-0.0087971697 -0.057015583 0.2801064
-0.0082194163 -0.056972269 0.27989361
0.009732563 -0.031723443 0.15585107
0.0099545009 -0.031420283 0.1543617
0.010198672 -0.031203741 0.15329787
0.010460386 -0.031052161 0.15255319
0.010749108 -0.030987199 0.15223405
0.011059714 -0.030987199 0.15223405
0.011370318 -0.030987199 0.15223405
0.011689086 -0.031008855 0.15234043
0.011999908 -0.031008855 0.15234043
0.012302133 -0.030987199 0.15223405
0.01259511 -0.030943891 0.15202127
0.01289625 -0.030922236 0.15191489
0.013187707 -0.030878926 0.15170212
0.013478298 -0.030835619 0.15148936
0.013768018 -0.030792309 0.15127659
0.014046973 -0.030727349 0.15095745
0.014344857 -0.030705696 0.15085107
0.014652641 -0.030705696 0.15085107
0.014960424 -0.030705696 0.15085107
0.015257439 -0.030684039 0.15074468
0.015554021 -0.030662386 0.1506383
0.01586137 -0.030662386 0.1506383
0.016191557 -0.030705696 0.15085107
0.016522611 -0.030749002 0.15106383
0.016866388 -0.030813966 0.15138298
0.017235605 -0.030922236 0.15191489
0.017606992 -0.031030508 0.15244681
0.017980549 -0.031138778 0.15297872
0.018369 -0.031268705 0.15361702
0.018721242 -0.03133367 0.15393618
0.019048475 -0.031355321 0.15404256
0.019349398 -0.03133367 0.15393618
0.019636296 -0.03129036 0.1537234
0.019936135 -0.031268705 0.15361702
0.02024956 -0.031268705 0.15361702
0.020577228 -0.03129036 0.1537234
0.020905329 -0.031312011 0.15382978
0.021233864 -0.03133367 0.15393618
0.021547943 -0.03133367 0.15393618
0.021862021 -0.03133367 0.15393618
0.022176098 -0.03133367 0.15393618
0.084224403 -0.064334705 0.31606382
0.084783569 -0.064269744 0.31574467
0.085341446 -0.06420479 0.31542554
0.085956007 -0.064183131 0.31531915
0.16622888 -0.055911213 0.27468085
0.16678931 -0.055911213 0.27468085
0.16728492 -0.055889558 0.27457446
0.16784514 -0.055889558 0.27457446
0.16847062 -0.055911213 0.27468085
0.16903105 -0.055911213 0.27468085
-0.12102462 -0.03965877 0.19680852
-0.12049267 -0.039615896 0.19659574
-0.11970165 -0.039487273 0.19595745
-0.11891322 -0.039358649 0.19531915
-0.1182565 -0.039272901 0.19489361
-0.11798754 -0.039315775 0.19510639
-0.11791003 -0.039422959 0.1956383
-0.11789426 -0.039551582 0.19627659
-0.11768485 -0.039615896 0.19659574
-0.11728373 -0.039615896 0.19659574
-0.11688261 -0.039615896 0.19659574
-0.11654452 -0.039637331 0.19670212
-0.11614319 -0.039637331 0.19670212
-0.14731972 -0.05226383 0.25936171
-0.1466701 -0.052220952 0.25914893
-0.1458414 -0.052113764 0.25861701
-0.14507465 -0.052028019 0.2581915
-0.14448829 -0.05200658 0.2580851
-0.14419909 -0.052092332 0.25851065
-0.14402638 -0.052220952 0.25914893
-0.14367436 -0.052285261 0.25946808
-0.14314497 -0.052285261 0.25946808
-0.08690393 -0.040602006 0.20148936
-0.08662983 -0.040666316 0.20180851
-0.086263523 -0.040687755 0.20191489
-0.085942023 -0.040730629 0.20212767
-0.085529618 -0.040730629 0.20212767
-0.085117213 -0.040730629 0.20212767
-0.084704816 -0.040730629 0.20212767
-0.084381133 -0.040773503 0.20234042
-0.08414489 -0.040859252 0.20276596
-0.083862975 -0.040923562 0.20308511
-0.083579756 -0.040987875 0.20340426
-0.083164752 -0.040987875 0.20340426
-0.082749739 -0.040987875 0.20340426
-0.08229167 -0.040966436 0.20329787
-0.081791185 -0.040923562 0.20308511
-0.081291571 -0.040880688 0.20287234
-0.080792829 -0.040837813 0.20265958
-0.080294952 -0.040794939 0.2024468
-0.079839922 -0.040773503 0.20234042
-0.079385325 -0.040752064 0.20223404
-0.078972705 -0.040752064 0.20223404
-0.078601405 -0.040773503 0.20234042
-0.078270793 -0.040816378 0.2025532
-0.077980191 -0.040880688 0.20287234
-0.077688292 -0.040945001 0.20319149
-0.077354632 -0.040987875 0.20340426
-0.076979868 -0.041009311 0.20351064
-0.07656464 -0.041009311 0.20351064
-0.076149411 -0.041009311 0.20351064
-0.075734191 -0.041009311 0.20351064
-0.075318962 -0.041009311 0.20351064
-0.074942894 -0.04103075 0.20361702
-0.074566387 -0.041052185 0.2037234
-0.074189447 -0.04107362 0.20382978
-0.073812075 -0.041095059 0.20393617
-0.073434271 -0.041116498 0.20404255
-0.073056027 -0.041137934 0.20414893
-0.072715208 -0.041180808 0.20436171
-0.072298251 -0.041180808 0.20436171
-0.071843863 -0.041159369 0.20425531
-0.07131552 -0.041095059 0.20393617
-0.07082545 -0.041052185 0.2037234
-0.07040979 -0.041052185 0.2037234
-0.070103787 -0.041116498 0.20404255
-0.069832809 -0.041202247 0.20446809
-0.013575383 -0.054964911 0.27276596
-0.013018855 -0.054964911 0.27276596
-0.012472047 -0.055007786 0.27297872
-0.01194759 -0.055157844 0.27372339
-0.011451079 -0.055457965 0.27521276
-0.010956908 -0.055800959 0.27691489
-0.010447807 -0.056101084 0.27840427
-0.0099175274 -0.056315452 0.27946809
-0.0093722325 -0.05646551 0.28021276
0.010119152 -0.031619828 0.15691489
0.01026237 -0.0310839 0.15425532
0.010504154 -0.030869529 0.15319149
0.010779154 -0.030762345 0.15265958
0.01107517 -0.030719468 0.15244681
0.011386209 -0.030719468 0.15244681
0.011705411 -0.030740904 0.15255319
0.012025048 -0.030762345 0.15265958
0.012327923 -0.030740904 0.15255319
0.012621552 -0.030698031 0.15234043
0.012914311 -0.030655155 0.15212765
0.013196956 -0.030590847 0.15180852
0.013478298 -0.030526534 0.15148936
0.013748654 -0.030440785 0.15106383
0.014027174 -0.030376473 0.15074468
0.014324624 -0.030355036 0.1506383
0.014642307 -0.030376473 0.15074468
0.014949872 -0.030376473 0.15074468
0.015257439 -0.030376473 0.15074468
0.015565005 -0.030376473 0.15074468
0.015872572 -0.030376473 0.15074468
0.016191557 -0.030397912 0.15085107
0.016522611 -0.030440785 0.15106383
0.016866388 -0.030505098 0.15138298
0.017235605 -0.030612282 0.15191489
0.017631566 -0.030762345 0.15265958
0.018030565 -0.030912401 0.15340425
0.018445326 -0.0310839 0.15425532
0.018811807 -0.031169649 0.15468085
0.019140558 -0.031191085 0.15478723
0.01942963 -0.031148212 0.15457447
0.019717829 -0.031105336 0.1543617
0.020018971 -0.0310839 0.15425532
0.020347722 -0.031105336 0.1543617
0.020662669 -0.031105336 0.1543617
0.02100653 -0.031148212 0.15457447
0.021351259 -0.031191085 0.15478723
0.021696856 -0.031233961 0.155
0.022013105 -0.031233961 0.155
0.084252752 -0.063711278 0.31617022
0.084840707 -0.063668407 0.31595746
0.085399009 -0.063604094 0.3156383
0.085985012 -0.063561216 0.31542554
0.16610013 -0.055307906 0.27446809
0.16666013 -0.055307906 0.27446809
0.1671553 -0.055286467 0.2743617
0.16765004 -0.055265028 0.27425531
0.16820961 -0.055265028 0.27425531
0.16876918 -0.055265028 0.27425531
-0.1206321 -0.039129898 0.19617021
-0.12016666 -0.039108679 0.19606383
-0.11950669 -0.039023798 0.1956383
-0.11891322 -0.038960136 0.19531915
-0.11838561 -0.038917698 0.19510639
-0.11805186 -0.038938917 0.19521277
-0.11791003 -0.039023798 0.1956383
-0.11776647 -0.039108679 0.19606383
-0.11755749 -0.03917234 0.19638298
-0.11722027 -0.039193559 0.19648936
-0.11688261 -0.039214779 0.19659574
-0.11660756 -0.039257221 0.19680852
-0.14738013 -0.051755868 0.25946808
-0.14673032 -0.051713429 0.25925532
-0.1459014 -0.051607329 0.25872341
-0.1451344 -0.051522445 0.25829786
-0.14448829 -0.051480006 0.2580851
-0.14419909 -0.051564891 0.25851065
-0.14402638 -0.051692206 0.25914893
-0.14373328 -0.051777091 0.25957447
-0.08662983 -0.040254563 0.20180851
-0.086263523 -0.040275782 0.20191489
-0.085896783 -0.040297002 0.20202127
-0.085439585 -0.040275782 0.20191489
-0.08493802 -0.040233344 0.20170213
-0.084481902 -0.040212121 0.20159574
-0.084159315 -0.040254563 0.20180851
-0.083924152 -0.040339444 0.20223404
-0.083731182 -0.040445544 0.20276596
-0.083492331 -0.040530425 0.20319149
-0.083121248 -0.040551644 0.20329787
-0.082706459 -0.040551644 0.20329787
-0.082248606 -0.040530425 0.20319149
-0.081791185 -0.040509205 0.20308511
-0.081291571 -0.040466763 0.20287234
-0.080835238 -0.040445544 0.20276596
-0.080379345 -0.040424325 0.20265958
-0.079881899 -0.040381882 0.2024468
-0.079427086 -0.040360663 0.20234042
-0.07893116 -0.040318225 0.20212767
-0.078518756 -0.040318225 0.20212767
-0.078188568 -0.040360663 0.20234042
-0.077898405 -0.040424325 0.20265958
-0.077606946 -0.040487986 0.20297873
-0.077273719 -0.040530425 0.20319149
-0.076939628 -0.040572867 0.20340426
-0.076524615 -0.040572867 0.20340426
-0.07610961 -0.040572867 0.20340426
-0.075694598 -0.040572867 0.20340426
-0.075240217 -0.040551644 0.20329787
-0.074825428 -0.040551644 0.20329787
-0.074449576 -0.040572867 0.20340426
-0.074112006 -0.040615305 0.20361702
-0.073735066 -0.040636525 0.2037234
-0.073357694 -0.040657744 0.20382978
-0.07297989 -0.040678967 0.20393617
-0.072563797 -0.040678967 0.20393617
-0.072110064 -0.040657744 0.20382978
-0.071619354 -0.040615305 0.20361702
-0.071166709 -0.040594086 0.20351064
-0.070714504 -0.040572867 0.20340426
-0.070373029 -0.040615305 0.20361702
-0.070103787 -0.040700186 0.20404255
-0.069832809 -0.040785067 0.20446809
-0.069487862 -0.040827505 0.20468085
-0.069106154 -0.040848728 0.20478724
-0.068616956 -0.040806286 0.20457447
-0.068164095 -0.040785067 0.20446809
-0.013570088 -0.054387163 0.27265957
-0.013013776 -0.054387163 0.27265957
-0.012472047 -0.054450825 0.27297872
-0.011956877 -0.054641806 0.27393618
-0.011468785 -0.054981329 0.27563831
-0.010977955 -0.055342067 0.27744681
-0.010463776 -0.055617929 0.27882978
-0.0099250777 -0.05578769 0.27968085
0.0098776938 -0.042716097 0.21414894
0.010294128 -0.042631216 0.21372341
0.01072485 -0.042609997 0.21361703
0.011138463 -0.042525116 0.21319149
0.010326067 -0.030960152 0.15521276
0.010547921 -0.03068429 0.15382978
0.010809201 -0.030535752 0.15308511
0.011098356 -0.03047209 0.15276596
0.011402101 -0.030450871 0.15265958
0.0117299 -0.03049331 0.15287234
0.012050186 -0.030514529 0.15297872
0.012362311 -0.030514529 0.15297872
0.012656808 -0.03047209 0.15276596
0.012941405 -0.030408429 0.15244681
0.013215452 -0.030323548 0.15202127
0.013487762 -0.030238668 0.15159574
0.013758336 -0.030153787 0.15117021
0.014027174 -0.030068906 0.15074468
0.014314508 -0.030026468 0.15053192
0.014621641 -0.030026468 0.15053192
0.014939322 -0.030047687 0.1506383
0.015257439 -0.030068906 0.15074468
0.015565005 -0.030068906 0.15074468
0.015883774 -0.030090129 0.15085107
0.016202975 -0.030111348 0.15095745
0.016522611 -0.030132568 0.15106383
0.016854534 -0.030175006 0.15127659
0.017223535 -0.03028111 0.15180852
0.017643852 -0.03047209 0.15276596
0.018080581 -0.03068429 0.15382978
0.01850893 -0.030875271 0.15478723
0.018889435 -0.030981373 0.15531915
0.01921949 -0.031002592 0.15542553
0.019509861 -0.030960152 0.15521276
0.019812955 -0.030938933 0.15510638
0.02012942 -0.030938933 0.15510638
0.020445885 -0.030938933 0.15510638
0.02077659 -0.030960152 0.15521276
0.021107733 -0.030981373 0.15531915
0.021468654 -0.031045033 0.15563829
0.021845771 -0.031129912 0.15606382
0.02216419 -0.031129912 0.15606382
0.084897839 -0.063066192 0.31617022
0.085485362 -0.063023753 0.31595746
0.086072005 -0.062981308 0.31574467
0.16597135 -0.054705463 0.27425531
0.16646633 -0.054684244 0.27414894
0.16702569 -0.054684244 0.27414894
0.16751999 -0.054663025 0.27404255
0.16801389 -0.054641806 0.27393618
0.1685728 -0.054641806 0.27393618
-0.12076981 -0.038645636 0.19574468
-0.12030502 -0.038624633 0.1956383
-0.11977544 -0.038582627 0.19542553
-0.11931173 -0.038561624 0.19531915
-0.11891322 -0.038561624 0.19531915
-0.11851471 -0.038561624 0.19531915
-0.11818053 -0.038582627 0.19542553
-0.11791003 -0.038624633 0.1956383
-0.11770257 -0.038687643 0.19595745
-0.1174938 -0.038750652 0.19627659
-0.11728373 -0.038813662 0.19659574
-0.11700911 -0.038855668 0.19680852
-0.11673362 -0.038897675 0.19702128
-0.14707799 -0.051121455 0.25893617
-0.14654969 -0.051121455 0.25893617
-0.1458414 -0.051058445 0.25861701
-0.14507465 -0.050974436 0.2581915
-0.14442874 -0.050932433 0.25797874
-0.1440804 -0.050995436 0.25829786
-0.14390813 -0.051121455 0.25893617
-0.14367436 -0.051226471 0.25946808
-0.085896783 -0.039884817 0.20202127
-0.085439585 -0.039863814 0.20191489
-0.084803626 -0.039758801 0.20138298
-0.084303573 -0.039716791 0.20117021
-0.083937496 -0.039737798 0.2012766
-0.083747558 -0.03984281 0.20180851
-0.083599389 -0.03996883 0.2024468
-0.083404906 -0.040073846 0.20297873
-0.083034262 -0.040094849 0.20308511
-0.082663178 -0.040115852 0.20319149
-0.082205549 -0.040094849 0.20308511
-0.081791185 -0.040094849 0.20308511
-0.081334203 -0.040073846 0.20297873
-0.080877647 -0.040052842 0.20287234
-0.080421537 -0.040031839 0.20276596
-0.079965852 -0.040010836 0.20265958
-0.079468839 -0.03996883 0.2024468
-0.078972705 -0.039926823 0.20223404
-0.078477427 -0.039884817 0.20202127
-0.078106359 -0.039905824 0.20212767
-0.077775732 -0.039947826 0.20234042
-0.077484921 -0.040010836 0.20265958
-0.077192806 -0.040073846 0.20297873
-0.076899379 -0.040136855 0.20329787
-0.076524615 -0.040157858 0.20340426
-0.07610961 -0.040157858 0.20340426
-0.075655006 -0.040136855 0.20329787
-0.075200848 -0.040115852 0.20319149
-0.074786268 -0.040115852 0.20319149
-0.074371696 -0.040115852 0.20319149
-0.074034572 -0.040157858 0.20340426
-0.073658064 -0.040178861 0.20351064
-0.073281124 -0.040199865 0.20361702
-0.07286568 -0.040199865 0.20361702
-0.072412387 -0.040178861 0.20351064
-0.071959525 -0.040157858 0.20340426
-0.071507096 -0.040136855 0.20329787
-0.071055107 -0.040115852 0.20319149
-0.070677511 -0.040136855 0.20329787
-0.070373029 -0.040199865 0.20361702
-0.070067234 -0.040262874 0.20393617
-0.06979648 -0.040346887 0.20436171
-0.069451749 -0.04038889 0.20457447
-0.069034353 -0.04038889 0.20457447
-0.068581276 -0.04036789 0.20446809
-0.068128631 -0.040346887 0.20436171
-0.067711666 -0.040346887 0.20436171
-0.067364767 -0.04038889 0.20457447
-0.013596561 -0.053935867 0.27319148
-0.01302901 -0.05389386 0.27297872
-0.012481769 -0.053935867 0.27319148
-0.011966164 -0.054124895 0.27414894
-0.011473211 -0.05443994 0.27574468
-0.010977955 -0.054775991 0.27744681
-0.010459784 -0.055028029 0.27872342
0.0099218562 -0.042468194 0.21510638
0.010340245 -0.042384181 0.21468085
0.010767578 -0.042342179 0.21446809
0.011171811 -0.042216159 0.21382979
0.011481037 -0.041754089 0.21148936
0.010333146 -0.030664474 0.15531915
0.01056251 -0.030412437 0.15404256
0.010824224 -0.030265415 0.15329787
0.011113813 -0.030202404 0.15297872
0.011425938 -0.030202404 0.15297872
0.011754388 -0.030244412 0.15319149
0.012092086 -0.030307421 0.15351065
0.012413893 -0.030328425 0.15361702
0.012709691 -0.030286416 0.15340425
0.012986559 -0.030202404 0.15297872
0.013252444 -0.03009739 0.15244681
0.013506693 -0.029971372 0.15180852
0.013768018 -0.029866355 0.15127659
0.014027174 -0.02976134 0.15074468
0.014314508 -0.029719336 0.15053192
0.014611308 -0.029698333 0.15042554
0.014928772 -0.029719336 0.15053192
0.015246672 -0.029740337 0.1506383
0.015565005 -0.02976134 0.15074468
0.015883774 -0.029782346 0.15085107
0.016202975 -0.029803349 0.15095745
0.016510976 -0.029803349 0.15095745
0.01684268 -0.029845353 0.15117021
0.017211463 -0.029950367 0.15170212
0.017643852 -0.030160399 0.15276596
0.018105589 -0.030412437 0.15404256
0.018547093 -0.030622466 0.15510638
0.018941186 -0.030748487 0.15574469
0.019285263 -0.030790491 0.15595745
0.019590095 -0.030769488 0.15585107
0.01990808 -0.030769488 0.15585107
0.020239869 -0.030790491 0.15595745
0.020572094 -0.030811494 0.15606382
0.020904755 -0.030832499 0.15617022
0.02122339 -0.030832499 0.15617022
0.021586049 -0.030895505 0.15648936
0.021950012 -0.030958517 0.15680851
0.022285057 -0.030979518 0.15691489
0.084897839 -0.062421106 0.31617022
0.085542925 -0.062421106 0.31617022
0.086130016 -0.062379099 0.31595746
0.16577822 -0.054082893 0.27393618
0.16627254 -0.054061886 0.27382979
0.16670161 -0.05401988 0.27361703
0.16719484 -0.053998876 0.27351063
0.16781814 -0.05401988 0.27361703
0.1683764 -0.05401988 0.27361703
-0.1205729 -0.038183898 0.19542553
-0.12004334 -0.038142327 0.19521277
-0.11951464 -0.038100753 0.19499999
-0.11911678 -0.038100753 0.19499999
-0.11884845 -0.038142327 0.19521277
-0.11857925 -0.038183898 0.19542553
-0.11824486 -0.038204685 0.19553192
-0.11791003 -0.038225472 0.1956383
-0.11770257 -0.03828783 0.19595745
-0.11755749 -0.038370974 0.19638298
-0.1173472 -0.038433328 0.19670212
-0.11713561 -0.03849569 0.19702128
-0.14845774 -0.049990352 0.25585106
-0.14781269 -0.049948782 0.2556383
-0.14710723 -0.04988642 0.25531915
-0.1465863 -0.04988642 0.25531915
-0.14649138 -0.050031923 0.25606382
-0.14681795 -0.050322928 0.25755319
-0.14659458 -0.050426856 0.2580851
-0.14618842 -0.050468426 0.25829786
-0.14554144 -0.050426856 0.2580851
-0.14483553 -0.050364498 0.25776595
-0.14425007 -0.050343715 0.25765958
-0.14396171 -0.050426856 0.2580851
-0.14378989 -0.050551575 0.25872341
-0.14349763 -0.050634716 0.25914893
-0.083804399 -0.039264772 0.20095745
-0.083659261 -0.039389487 0.20159574
-0.08355546 -0.03953499 0.20234042
-0.083361186 -0.039638918 0.20287234
-0.083034262 -0.039680492 0.20308511
-0.082663178 -0.039701276 0.20319149
-0.082248606 -0.039701276 0.20319149
-0.081791185 -0.039680492 0.20308511
-0.081334203 -0.039659705 0.20297873
-0.080877647 -0.039638918 0.20287234
-0.08046373 -0.039638918 0.20287234
-0.080007829 -0.039618134 0.20276596
-0.079552367 -0.039597347 0.20265958
-0.079014242 -0.03953499 0.20234042
-0.078477427 -0.039472628 0.20202127
-0.078024134 -0.039451845 0.20191489
-0.077653058 -0.039472628 0.20202127
-0.077403568 -0.039555773 0.2024468
-0.077111885 -0.039618134 0.20276596
-0.076859139 -0.039701276 0.20319149
-0.076524615 -0.03974285 0.20340426
-0.07610961 -0.03974285 0.20340426
-0.075655006 -0.039722063 0.20329787
-0.075200848 -0.039701276 0.20319149
-0.074747115 -0.039680492 0.20308511
-0.074371696 -0.039701276 0.20319149
-0.073995844 -0.039722063 0.20329787
-0.073619559 -0.03974285 0.20340426
-0.073204555 -0.03974285 0.20340426
-0.072789542 -0.03974285 0.20340426
-0.072336681 -0.039722063 0.20329787
-0.071884252 -0.039701276 0.20319149
-0.071432263 -0.039680492 0.20308511
-0.071055107 -0.039701276 0.20319149
-0.070677511 -0.039722063 0.20329787
-0.07033626 -0.039763637 0.20351064
-0.070030682 -0.039825991 0.20382978
-0.069723807 -0.039888352 0.20414893
-0.069379516 -0.039929923 0.20436171
-0.068962552 -0.039929923 0.20436171
-0.068509907 -0.039909136 0.20425531
-0.068057701 -0.039888352 0.20414893
-0.067676418 -0.039909136 0.20425531
-0.067329735 -0.03995071 0.20446809
-0.066947371 -0.039971497 0.20457447
-0.066564567 -0.03999228 0.20468085
-0.066112578 -0.039971497 0.20457447
-0.065592691 -0.039909136 0.20425531
