# .PCD v0.7 - Point Cloud Data file format
VERSION 0.7
FIELDS x y z
SIZE 4 4 4
TYPE F F F
COUNT 1 1 1
WIDTH 1368
HEIGHT 1
VIEWPOINT 0 0 0 1 0 0 0
POINTS 1368
DATA ascii
-0.0055475459 0.044124555 0.12702128
-0.0052795047 0.044050641 0.12680851
-0.0050123325 0.043976735 0.12659575
-0.0047500227 0.043939773 0.12648936
-0.0044919252 0.043939773 0.12648936
-0.0042373892 0.043976735 0.12659575
-0.0039857621 0.044050641 0.12680851
-0.0037332673 0.044124555 0.12702128
-0.0034828132 0.044235416 0.12734042
-0.003231057 0.044346284 0.12765957
-0.0029779985 0.044457152 0.12797873
-0.0027213788 0.044531059 0.12819149
-0.0024598085 0.044531059 0.12819149
0.041823242 0.091759861 0.26414895
0.042362228 0.091759861 0.26414895
0.042918492 0.091796808 0.26425532
0.043475192 0.091833763 0.26436171
0.10104464 0.099668272 0.28691489
0.10159241 0.099631324 0.28680852
0.10210182 0.0995574 0.28659573
0.1026485 0.099520452 0.28648937
0.10323307 0.099520452 0.28648937
0.10385618 0.0995574 0.28659573
0.10444098 0.0995574 0.28659573
0.10576648 0.10025956 0.28861701
0.10729625 0.10114648 0.29117021
0.078597143 0.069475845 0.2
0.079005234 0.069475845 0.2
0.079497807 0.069549754 0.20021276
0.079948798 0.069586717 0.20031916
0.080442891 0.069660619 0.20053191
0.080937847 0.069734529 0.20074467
0.081390575 0.069771491 0.20085107
0.081713751 0.069697574 0.20063829
0.081992522 0.069586717 0.20031916
0.082138695 0.06936498 0.19968085
0.082282275 0.069143251 0.19904256
0.082511634 0.068995431 0.19861703
0.12558295 0.079010293 0.22744681
0.12616496 0.079084203 0.22765957
0.126807 0.079195075 0.22797872
0.12750976 0.079342894 0.22840425
0.12815462 0.079453759 0.22872341
0.12868115 0.079490714 0.22882979
0.12920812 0.079527669 0.22893617
0.12973551 0.079564624 0.22904256
0.13020286 0.079564624 0.22904256
0.13054883 0.079490714 0.22882979
0.13089393 0.079416804 0.22861703
0.13117704 0.079305939 0.22829787
0.13158153 0.079268984 0.22819149
0.13204715 0.079268984 0.22819149
-0.08294937 0.11062478 0.31659573
-0.082386337 0.1107363 0.31691489
-0.081876874 0.11092217 0.3174468
-0.081392467 0.1111452 0.3180851
-0.080932453 0.1114054 0.31882977
-0.049718548 0.080775425 0.23117021
-0.049269516 0.080812596 0.2312766
-0.048842497 0.080886938 0.23148936
-0.048370149 0.080886938 0.23148936
-0.047787745 0.080701083 0.23095745
-0.047098532 0.080329351 0.22989361
-0.046413668 0.079957634 0.22882979
-0.017504057 0.066018023 0.18893617
-0.017070346 0.06583216 0.18840426
-0.01661996 0.065571949 0.18765958
-0.016191022 0.065386094 0.18712766
-0.015782233 0.065274574 0.18680851
-0.015383515 0.065200225 0.18659574
-0.014985666 0.065125883 0.18638298
-0.014588684 0.065051533 0.18617021
-0.014200691 0.065014362 0.18606383
-0.013813131 0.064977191 0.18595745
-0.013418322 0.064902849 0.18574469
-0.013024379 0.064828508 0.18553191
-0.012631306 0.064754166 0.18531916
-0.0071740248 0.044829801 0.12829787
-0.0069065057 0.04479263 0.12819149
-0.0066339066 0.044718288 0.12797873
-0.0063568782 0.044606768 0.12765957
-0.0060862326 0.044532426 0.12744682
-0.005816455 0.04445808 0.12723404
-0.0055475459 0.044383738 0.12702128
-0.0052750758 0.044272218 0.12670213
-0.0050081201 0.044197872 0.12648936
-0.0047460278 0.044160701 0.12638298
-0.0044919252 0.044197872 0.12648936
-0.0042373892 0.044235047 0.12659575
-0.0039824187 0.044272218 0.12670213
-0.0037301402 0.04434656 0.12691489
-0.0034799036 0.04445808 0.12723404
-0.0032283645 0.044569597 0.12755319
-0.0029779985 0.044718288 0.12797873
-0.0027236373 0.044829801 0.12829787
-0.0024638912 0.044866975 0.12840426
0.041840084 0.092336014 0.26425532
0.042379286 0.092336014 0.26425532
0.042918492 0.092336014 0.26425532
0.043440204 0.092298843 0.26414895
0.10096971 0.10017937 0.28670213
0.10151703 0.1001422 0.28659573
0.10198813 0.10003068 0.28627661
0.10253415 0.099993505 0.28617021
0.10319474 0.10006785 0.28638297
0.10381764 0.10010502 0.28648937
0.10447975 0.10017937 0.28670213
0.10557156 0.10066261 0.2880851
0.10682583 0.10129454 0.28989363
0.07847172 0.069772422 0.19968085
0.078921184 0.069809593 0.19978723
0.079413325 0.069883943 0.2
0.079948798 0.069995455 0.20031916
0.080442891 0.070069797 0.20053191
0.080894955 0.070106968 0.20063829
0.081261247 0.070069797 0.20053191
0.081583776 0.069995455 0.20031916
0.081818342 0.069846772 0.19989362
0.082007416 0.069660902 0.1993617
0.082194313 0.06947504 0.19882978
0.08242324 0.069326356 0.19840425
0.12552422 0.079437226 0.22734043
0.12616496 0.079548739 0.22765957
0.12692536 0.079734601 0.22819149
0.12762854 0.079883292 0.22861703
0.12821423 0.079957634 0.22882979
0.12862132 0.079920463 0.22872341
0.12908803 0.079920463 0.22872341
0.12949447 0.079883292 0.22861703
0.12996097 0.079883292 0.22861703
0.13030607 0.079808943 0.22840425
0.1306503 0.079734601 0.22819149
0.13093254 0.079623081 0.22787234
0.1313975 0.079623081 0.22787234
0.13186246 0.079623081 0.22787234
0.13232744 0.079623081 0.22787234
0.13273041 0.07958591 0.22776596
-0.083144486 0.11153252 0.31734043
-0.082469299 0.11149512 0.31723404
-0.081849441 0.11153252 0.31734043
-0.081283584 0.11164469 0.31765959
-0.080824435 0.11190641 0.31840426
-0.050167147 0.081209727 0.23106383
-0.049718548 0.081247121 0.23117021
-0.049292181 0.081321903 0.23138298
-0.048820052 0.081321903 0.23138298
-0.048303463 0.081247121 0.23117021
-0.047655672 0.080948003 0.23031914
-0.046945974 0.080536723 0.22914894
-0.046284202 0.080200218 0.22819149
-0.017494202 0.066366151 0.18882979
-0.017051067 0.066141807 0.18819149
-0.016601115 0.065880083 0.1874468
-0.016163409 0.065655746 0.18680851
-0.01575527 0.065543577 0.18648936
-0.015357204 0.065468803 0.1862766
-0.014960005 0.065394022 0.18606383
-0.014572011 0.065356635 0.18595745
-0.014176333 0.065281861 0.18574469
-0.013789425 0.065244466 0.18563829
-0.013402951 0.065207079 0.18553191
-0.013016911 0.065169685 0.18542553
-0.0071680765 0.045054201 0.12819149
-0.006895043 0.044979423 0.12797873
-0.0066228774 0.044904642 0.12776595
-0.0063515808 0.044829868 0.12755319
-0.0060811518 0.044755086 0.12734042
-0.0058115916 0.044680309 0.12712766
-0.0055382531 0.04456814 0.12680851
-0.0052706469 0.044493362 0.12659575
-0.0050039082 0.044418581 0.12638298
-0.0047420328 0.044381194 0.1262766
-0.0044881478 0.044418581 0.12638298
-0.0042338283 0.044455968 0.12648936
-0.0039824187 0.044530749 0.12670213
-0.0037270137 0.04456814 0.12680851
-0.0034769941 0.044680309 0.12712766
-0.0032283645 0.044829868 0.12755319
-0.0029779985 0.044979423 0.12797873
-0.0027236373 0.045091588 0.12829787
0.041873772 0.092949994 0.26446807
0.04241341 0.092949994 0.26446807
0.04293577 0.092912607 0.26436171
0.043457694 0.092875212 0.26425532
0.10108211 0.10087655 0.28702128
0.10151703 0.10072698 0.28659573
0.10198813 0.10061482 0.28627661
0.10253415 0.10057743 0.28617021
0.10319474 0.1006522 0.28638297
0.10385618 0.10072698 0.28659573
0.10451852 0.10080177 0.28680852
0.10541563 0.10110088 0.28765959
0.10615939 0.10125043 0.2880851
0.078388102 0.070105083 0.19946809
0.078879163 0.070179865 0.19968085
0.079413325 0.070292033 0.2
0.079948798 0.070404202 0.20031916
0.080442891 0.070478976 0.20053191
0.080852069 0.070478976 0.20053191
0.081175029 0.070404202 0.20031916
0.081497118 0.07032942 0.20010638
0.081731252 0.070179865 0.19968085
0.081963651 0.070030302 0.19925532
0.082106367 0.069805972 0.19861703
0.082379051 0.069693804 0.19829787
0.12634183 0.080125436 0.22797872
0.12710287 0.080312386 0.22851063
0.12780671 0.080461942 0.22893617
0.12827384 0.080461942 0.22893617
0.12862132 0.080387168 0.22872341
0.12896794 0.080312386 0.22851063
0.12937395 0.080274992 0.22840425
0.12971906 0.080200218 0.22819149
0.1300633 0.080125436 0.22797872
0.13034575 0.080013268 0.22765957
0.1306269 0.079901107 0.22734043
0.13096809 0.079826325 0.22712766
0.13143153 0.079826325 0.22712766
0.13195676 0.079863712 0.22723404
0.13248242 0.079901107 0.22734043
-0.084072903 0.11255611 0.31840426
-0.083311714 0.11240567 0.31797871
-0.082552269 0.11225525 0.31755319
-0.081822 0.11214243 0.31723404
-0.081174694 0.11214243 0.31723404
-0.080662407 0.11233046 0.31776595
-0.080335468 0.11278175 0.31904256
-0.05014405 0.081643604 0.23095745
-0.049718548 0.08171881 0.23117021
-0.049292181 0.081794031 0.23138298
-0.048842497 0.081831634 0.23148936
-0.048281234 0.081681207 0.23106383
-0.04761165 0.081342749 0.23010638
-0.046902381 0.080929078 0.22893617
-0.046284202 0.080665834 0.22819149
-0.017889574 0.066789053 0.18893617
-0.017464632 0.066638626 0.18851064
-0.01701251 0.066375382 0.18776596
-0.016563429 0.066112138 0.18702127
-0.016144998 0.065961711 0.18659574
-0.015737295 0.065848894 0.1862766
-0.015339661 0.065773681 0.18606383
-0.014942898 0.065698467 0.18585107
-0.014547003 0.065623254 0.18563829
-0.014151976 0.06554804 0.18542553
-0.013765719 0.065510437 0.18531916
-0.013379895 0.065472826 0.18521276
-0.012994507 0.065435223 0.18510638
-0.0074296468 0.045315769 0.12819149
-0.0071561793 0.045240559 0.12797873
-0.0068835798 0.045165345 0.12776595
-0.0066063348 0.045052528 0.12744682
-0.0063409857 0.045014918 0.12734042
-0.0060709915 0.044939708 0.12712766
-0.0058018649 0.044864491 0.12691489
-0.0055289613 0.044751678 0.12659575
-0.0052617881 0.04467646 0.12638298
-0.0049996963 0.044638857 0.1262766
-0.0047420328 0.044638857 0.1262766
-0.0044881478 0.04467646 0.12638298
-0.0042338283 0.044714067 0.12648936
-0.0039790748 0.044751678 0.12659575
-0.0037270137 0.044826888 0.12680851
-0.0034769941 0.044939708 0.12712766
-0.0032256721 0.045052528 0.12744682
-0.002975523 0.045202956 0.12787235
-0.0027213788 0.045315769 0.12819149
0.041890614 0.093527243 0.26457447
0.04241341 0.093489632 0.26446807
0.042918492 0.093414418 0.26425532
0.043440204 0.093376815 0.26414895
0.10083168 0.10180065 0.28797871
0.10119451 0.10157502 0.28734043
0.10155471 0.10134938 0.28670213
0.10202602 0.10123656 0.28638297
0.10257227 0.10119896 0.28627661
0.10319474 0.10123656 0.28638297
0.10385618 0.10131177 0.28659573
0.10455728 0.10142459 0.28691489
0.1052207 0.10149981 0.28712767
0.078388102 0.070512094 0.19946809
0.078837134 0.070549697 0.19957447
0.079413325 0.070700124 0.2
0.07990633 0.070775338 0.20021276
0.080400214 0.070850551 0.20042554
0.080809176 0.070850551 0.20042554
0.081131913 0.070775338 0.20021276
0.081497118 0.070737734 0.20010638
0.081774794 0.07062491 0.19978723
0.082007416 0.070474483 0.1993617
0.08215034 0.07024885 0.19872341
0.082334854 0.070060819 0.19819149
0.12663661 0.080778651 0.22851063
0.12733956 0.080929078 0.22893617
0.12798487 0.081041895 0.22925532
0.12839305 0.081004292 0.22914894
0.12868115 0.080891475 0.22882979
0.1289079 0.080741048 0.22840425
0.12925345 0.080665834 0.22819149
0.12953764 0.080553018 0.22787234
0.12982053 0.080440193 0.22755319
0.1299803 0.080252163 0.22702128
0.13013789 0.080064133 0.22648937
0.13041601 0.079951309 0.22617021
0.13087749 0.079951309 0.22617021
0.1315861 0.080101736 0.22659574
-0.084100999 0.11324362 0.31851065
-0.083367467 0.11313015 0.3181915
-0.082579926 0.11294103 0.31765959
-0.081794553 0.11275191 0.31712765
-0.081093028 0.11267626 0.31691489
-0.080554396 0.11282756 0.31734043
-0.080228314 0.11328144 0.31861702
-0.050568681 0.082039215 0.23074467
-0.05014405 0.08211486 0.23095745
-0.049741428 0.082228333 0.2312766
-0.049314842 0.082303979 0.23148936
-0.048842497 0.082303979 0.23148936
-0.048281234 0.082152687 0.23106383
-0.047633659 0.081850097 0.23021276
-0.046924178 0.081434041 0.22904256
-0.046327356 0.081207097 0.22840425
-0.017829135 0.066947632 0.18829787
-0.017415354 0.066834159 0.18797873
-0.016983595 0.066645041 0.1874468
-0.016544586 0.066418104 0.18680851
-0.01612659 0.066266805 0.18638298
-0.015719319 0.066153333 0.18606383
-0.015322122 0.066077694 0.18585107
-0.014925791 0.066002041 0.18563829
-0.01453033 0.065926395 0.18542553
-0.014135736 0.06585075 0.18521276
-0.013742012 0.065775104 0.185
-0.013364526 0.065775104 0.185
-0.0074234814 0.045539517 0.12808511
-0.0071502309 0.045463875 0.12787235
-0.0068663857 0.04531258 0.12744682
-0.0065897908 0.045199107 0.12712766
-0.0063197962 0.045123458 0.12691489
-0.0060506701 0.045047812 0.12670213
-0.0057872757 0.045009993 0.12659575
-0.0055196686 0.04493434 0.12638298
-0.0052573592 0.044896521 0.1262766
-0.0049954844 0.044858698 0.12617022
-0.0047420328 0.044896521 0.1262766
-0.0044881478 0.04493434 0.12638298
-0.0042338283 0.044972163 0.12648936
-0.0039790748 0.045009993 0.12659575
-0.003723887 0.045047812 0.12670213
-0.0034769941 0.045199107 0.12712766
-0.0032283645 0.045350403 0.12755319
-0.002975523 0.045463875 0.12787235
-0.0027191206 0.045539517 0.12808511
0.041823242 0.093915805 0.26414895
0.042345166 0.093877979 0.26404256
0.042866658 0.093840152 0.26393616
0.043387718 0.093802333 0.2638298
0.10090619 0.10246392 0.2881915
0.10126944 0.10223698 0.28755319
0.10163008 0.10201003 0.28691489
0.10202602 0.10182092 0.28638297
0.10253415 0.10174527 0.28617021
0.1031564 0.1017831 0.28627661
0.10385618 0.10189656 0.28659573
0.10455728 0.10201003 0.28691489
0.1052207 0.10208569 0.28712767
0.078346297 0.070881277 0.1993617
0.078837134 0.070956923 0.19957447
0.079371087 0.071070395 0.19989362
0.079863876 0.071146041 0.20010638
0.08031486 0.07118386 0.20021276
0.080766283 0.071221694 0.20031916
0.081131913 0.07118386 0.20021276
0.081540443 0.07118386 0.20021276
0.081861883 0.071108222 0.2
0.082094938 0.070956923 0.19957447
0.08215034 0.07065434 0.19872341
0.082202271 0.07035175 0.19787234
0.12681347 0.081358396 0.22882979
0.12739874 0.081434041 0.22904256
0.12804426 0.081547506 0.2293617
0.12851226 0.081547506 0.2293617
0.12880081 0.081434041 0.22904256
0.12902799 0.08128275 0.22861703
0.12925345 0.081131451 0.22819149
0.12953764 0.081017978 0.22787234
0.12963845 0.080791034 0.22723404
0.12961484 0.080488451 0.22638299
0.12964888 0.080223687 0.2256383
0.12992525 0.080110215 0.22531915
0.13044657 0.080148041 0.22542553
-0.084637672 0.11374137 0.3180851
-0.084016725 0.11377941 0.3181915
-0.083339587 0.11374137 0.3180851
-0.082607582 0.11362724 0.31776595
-0.081822 0.11343704 0.31723404
-0.081120253 0.11336096 0.31702128
-0.080527388 0.11343704 0.31723404
-0.080174744 0.11385549 0.31840426
-0.050945383 0.082357876 0.23031914
-0.050522052 0.082433961 0.23053192
-0.050120953 0.082548082 0.23085107
-0.049718548 0.082662202 0.23117021
-0.049292181 0.082738288 0.23138298
-0.048842497 0.082776323 0.23148936
-0.048303463 0.082662202 0.23117021
-0.047699697 0.082433961 0.23053192
-0.047054946 0.082129635 0.22968085
-0.017758626 0.067065567 0.1875532
-0.017356217 0.066989481 0.18734042
-0.01694504 0.066875353 0.18702127
-0.016535165 0.06676124 0.18670213
-0.01612659 0.066647112 0.18638298
-0.015719319 0.066532992 0.18606383
-0.015313352 0.066418871 0.18574469
-0.014917238 0.066342793 0.18553191
-0.014513656 0.066228665 0.18521276
-0.014119498 0.066152588 0.185
-0.013726206 0.066076502 0.18478723
-0.013349155 0.066076502 0.18478723
-0.0074234814 0.045800872 0.12808511
-0.0071442816 0.045686748 0.12776595
-0.006854922 0.045496546 0.12723404
-0.0065732473 0.045344383 0.12680851
-0.0062986063 0.045230262 0.12648936
-0.006035429 0.045192223 0.12638298
-0.0057726856 0.045154184 0.1262766
-0.0055103763 0.045116141 0.12617022
-0.0052529303 0.045116141 0.12617022
-0.0049996963 0.045154184 0.1262766
-0.0047460278 0.045192223 0.12638298
-0.0044919252 0.045230262 0.12648936
-0.0042338283 0.045230262 0.12648936
-0.0039790748 0.045268305 0.12659575
-0.0037270137 0.045344383 0.12680851
-0.0034769941 0.045458507 0.12712766
-0.0032283645 0.04561067 0.12755319
-0.002975523 0.045724794 0.12787235
-0.0027191206 0.045800872 0.12808511
0.041705333 0.094188504 0.26340425
0.042259865 0.094226547 0.26351064
0.042780269 0.094188504 0.26340425
0.043300245 0.094150469 0.26329789
0.10042924 0.10316609 0.28851065
0.10090619 0.10305197 0.2881915
0.10126944 0.10282372 0.28755319
0.10159241 0.10255744 0.28680852
0.10198813 0.10236724 0.28627661
0.10245792 0.10225311 0.28595746
0.1030414 0.10225311 0.28595746
0.10374054 0.10236724 0.28627661
0.10444098 0.10248135 0.28659573
0.10510375 0.10255744 0.28680852
0.078346297 0.071288064 0.1993617
0.078837134 0.071364149 0.19957447
0.079328842 0.071440227 0.19978723
0.079821423 0.071516313 0.2
0.08027219 0.071554355 0.20010638
0.08072339 0.071592391 0.20021276
0.081131913 0.071592391 0.20021276
0.081583776 0.071630433 0.20031916
0.081905425 0.071554355 0.20010638
0.082094938 0.071364149 0.19957447
0.082106367 0.071021788 0.19861703
0.082025491 0.070603341 0.19744681
0.082161903 0.070375092 0.19680852
0.12675452 0.081787273 0.22872341
0.12739874 0.081901394 0.22904256
0.12804426 0.082015514 0.2293617
0.12857188 0.082053557 0.22946809
0.12892045 0.081977472 0.22925532
0.12920812 0.081863351 0.22893617
0.12949447 0.081749231 0.22861703
0.12965858 0.081559025 0.2280851
0.12957776 0.081216663 0.22712766
0.12937121 0.080798216 0.22595745
0.12940438 0.080531932 0.22521277
0.12961854 0.080379769 0.22478724
-0.084411219 0.11408435 0.31723404
-0.08382009 0.11416086 0.3174468
-0.083255969 0.11427563 0.31776595
-0.082607582 0.11427563 0.31776595
-0.081876874 0.11416086 0.3174468
-0.08114747 0.11404608 0.31712765
-0.080527388 0.11408435 0.31723404
-0.080094382 0.11439041 0.3180851
-0.05092185 0.082789578 0.23021276
-0.050498739 0.082866095 0.23042554
-0.050074756 0.082942612 0.2306383
-0.04967279 0.083057389 0.23095745
-0.049246851 0.083133899 0.23117021
-0.048820052 0.083210416 0.23138298
-0.048325695 0.083172157 0.2312766
-0.047787745 0.083057389 0.23095745
-0.047207512 0.082866095 0.23042554
-0.017667968 0.067103937 0.18659574
-0.017297084 0.067142196 0.18670213
-0.016906483 0.067103937 0.18659574
-0.01651632 0.067065679 0.18648936
-0.016117387 0.066989169 0.1862766
-0.015719319 0.066912651 0.18606383
-0.015313352 0.066797882 0.18574469
-0.014917238 0.066721365 0.18553191
-0.014513656 0.066606589 0.18521276
-0.014119498 0.066530079 0.185
-0.013718305 0.066415302 0.18468085
-0.013333784 0.066377044 0.18457447
-0.0074173156 0.046023969 0.12797873
-0.0071323849 0.045870937 0.12755319
-0.0068434593 0.045679651 0.12702128
-0.0065567037 0.045488358 0.12648936
-0.0062827147 0.045373589 0.12617022
-0.0060201879 0.045335326 0.12606382
-0.0057629589 0.045335326 0.12606382
-0.0055057299 0.045335326 0.12606382
-0.0052529303 0.045373589 0.12617022
-0.0049996963 0.045411844 0.1262766
-0.0047460278 0.045450103 0.12638298
-0.0044957036 0.04552662 0.12659575
-0.0042373892 0.04552662 0.12659575
-0.0039824187 0.045564875 0.12670213
-0.0037301402 0.045641389 0.12691489
-0.0034799036 0.045756165 0.12723404
-0.0032283645 0.045870937 0.12755319
-0.002975523 0.045985714 0.12787235
0.041671645 0.094649456 0.26319149
0.042208679 0.094649456 0.26319149
0.042728432 0.094611198 0.2630851
0.04326525 0.094611198 0.2630851
0.10031814 0.10364001 0.2881915
0.10083168 0.10356349 0.28797871
0.10123197 0.1033722 0.2874468
0.10155471 0.1031044 0.28670213
0.10187443 0.1028366 0.28595746
0.10230544 0.10268356 0.28553191
0.10288806 0.10268356 0.28553191
0.10358633 0.10279834 0.28585106
0.10432468 0.10295137 0.28627661
0.10498679 0.10302789 0.28648937
0.078346297 0.071694858 0.1993617
0.078795113 0.071733117 0.19946809
0.079286598 0.071809635 0.19968085
0.079778962 0.071886152 0.19989362
0.080229513 0.071924403 0.2
0.080680497 0.071962662 0.20010638
0.081131913 0.072000921 0.20021276
0.081583776 0.07203918 0.20031916
0.081905425 0.071962662 0.20010638
0.08205118 0.071733117 0.19946809
0.082018405 0.071350537 0.19840425
0.081981294 0.070967965 0.19734043
0.12663661 0.082177453 0.22851063
0.12733956 0.082330488 0.22893617
0.12798487 0.082445264 0.22925532
0.12857188 0.082521781 0.22946809
0.12898026 0.082483515 0.2293617
0.12944828 0.082483515 0.2293617
0.12979577 0.082407005 0.22914894
0.12990049 0.082177453 0.22851063
0.12969914 0.081756629 0.22734043
0.12949301 0.08133579 0.22617021
0.12934326 0.080953218 0.22510639
-0.084184766 0.11442386 0.31638297
-0.083651558 0.11457776 0.31680852
-0.083200224 0.11484708 0.31755319
-0.082607582 0.11492403 0.31776595
-0.081931755 0.11488555 0.31765959
-0.081174694 0.11473165 0.31723404
-0.080500379 0.11469317 0.31712765
-0.079960443 0.11484708 0.31755319
-0.079525054 0.11515488 0.31840426
-0.051367845 0.083220847 0.23010638
-0.050898321 0.083220847 0.23010638
-0.050475422 0.083297797 0.23031914
-0.050051659 0.083374746 0.23053192
-0.049627028 0.083451696 0.23074467
-0.049201526 0.083528645 0.23095745
-0.048797604 0.08364407 0.2312766
-0.04834792 0.083682545 0.23138298
-0.047875792 0.083682545 0.23138298
-0.04738187 0.08364407 0.2312766
-0.017587386 0.067176886 0.18574469
-0.017237946 0.06729231 0.18606383
-0.016867928 0.067330778 0.18617021
-0.016488055 0.067330778 0.18617021
-0.016098976 0.06729231 0.18606383
-0.015710331 0.067253835 0.18595745
-0.015313352 0.067176886 0.18574469
-0.014917238 0.067099936 0.18553191
-0.014513656 0.066984512 0.18521276
-0.014111379 0.066869088 0.18489362
-0.013718305 0.066792138 0.18468085
-0.0133261 0.066715188 0.18446809
-0.0076848348 0.046323579 0.12808511
-0.0074111503 0.046246633 0.12787235
-0.0071264366 0.046092734 0.12744682
-0.006837727 0.045900356 0.12691489
-0.0065511893 0.045707982 0.12638298
-0.0062721195 0.045554083 0.12595744
-0.0060100276 0.045515608 0.12585106
-0.0057532326 0.045515608 0.12585106
-0.0055010836 0.045554083 0.12595744
-0.005248501 0.045592558 0.12606382
-0.0049954844 0.045631036 0.12617022
-0.0047460278 0.045707982 0.12638298
-0.0044919252 0.045746457 0.12648936
-0.0042409501 0.045823406 0.12670213
-0.0039857621 0.045861881 0.12680851
-0.0037332673 0.045938835 0.12702128
-0.0034799036 0.04601578 0.12723404
-0.0032283645 0.046131205 0.12755319
-0.0029730473 0.046208154 0.12776595
0.041134611 0.095186487 0.26319149
0.041671645 0.095186487 0.26319149
0.042208679 0.095186487 0.26319149
0.042745713 0.095186487 0.26319149
0.04326525 0.095148012 0.2630851
0.10020705 0.10411263 0.28787234
0.10075719 0.10407415 0.28776595
0.10115704 0.10388178 0.28723404
0.10144167 0.10357398 0.28638297
0.10172282 0.10326618 0.28553191
0.10207674 0.10303533 0.2848936
0.10265806 0.10303533 0.2848936
0.10339358 0.10318924 0.28531915
0.10420837 0.10342009 0.28595746
0.10490882 0.10353551 0.28627661
0.078304492 0.072063178 0.19925532
0.078753084 0.072101645 0.1993617
0.07924436 0.072178602 0.19957447
0.079736501 0.072255544 0.19978723
0.080186836 0.072294027 0.19989362
0.080680497 0.072370976 0.20010638
0.081131913 0.072409444 0.20021276
0.081540443 0.072409444 0.20021276
0.081861883 0.072332501 0.2
0.08205118 0.072140127 0.19946809
0.082106367 0.071832329 0.19861703
0.082113884 0.071486056 0.19765958
0.12599413 0.082528308 0.22819149
0.12657765 0.08260525 0.22840425
0.12722123 0.082720675 0.22872341
0.1278661 0.082836099 0.22904256
0.12845266 0.082913049 0.22925532
0.12892045 0.082913049 0.22925532
0.12950832 0.082989998 0.22946809
0.12991628 0.082951523 0.2293617
0.13020286 0.082836099 0.22904256
0.1300026 0.082412876 0.22787234
-0.083986618 0.11479858 0.3156383
-0.083539195 0.11506943 0.31638297
-0.083116606 0.11537896 0.31723404
-0.082579926 0.11553373 0.31765959
-0.081904314 0.11549503 0.31755319
-0.08114747 0.11534026 0.31712765
-0.080419369 0.1152242 0.31680852
-0.079772934 0.1152242 0.31680852
-0.079285912 0.11545634 0.3174468
-0.07882265 0.11572719 0.3181915
-0.051813405 0.083651684 0.23
-0.051367845 0.083690375 0.23010638
-0.05092185 0.083729066 0.23021276
-0.050475422 0.083767757 0.23031914
-0.050028563 0.083806448 0.23042554
-0.049581267 0.083845139 0.23053192
-0.049178865 0.083961219 0.23085107
-0.048797604 0.084115982 0.2312766
-0.048370149 0.084193364 0.23148936
-0.047919814 0.084232055 0.23159574
-0.017997261 0.067671962 0.18606383
-0.01753702 0.067362428 0.18521276
-0.017188668 0.067478508 0.18553191
-0.016839013 0.06759458 0.18585107
-0.016459789 0.06759458 0.18585107
-0.016080568 0.06759458 0.18585107
-0.015701344 0.06759458 0.18585107
-0.015304579 0.067517199 0.18563829
-0.014917238 0.067478508 0.18553191
-0.014513656 0.067362428 0.18521276
-0.014119498 0.067285046 0.185
-0.013718305 0.067168973 0.18468085
-0.0076784519 0.046546243 0.12797873
-0.0074111503 0.046507552 0.12787235
-0.0071204873 0.046314087 0.12734042
-0.0068319957 0.046120629 0.12680851
-0.006545675 0.045927171 0.1262766
-0.0062721195 0.045811094 0.12595744
-0.0060049472 0.045733713 0.12574469
-0.0057483697 0.045733713 0.12574469
-0.0054917918 0.045733713 0.12574469
-0.0052396427 0.045772403 0.12585106
-0.004991272 0.045849785 0.12606382
-0.0047420328 0.045927171 0.1262766
-0.0044919252 0.046004552 0.12648936
-0.0042409501 0.046081938 0.12670213
-0.0039857621 0.046120629 0.12680851
-0.0037363938 0.046236705 0.12712766
-0.0034828132 0.046314087 0.12734042
-0.003231057 0.046430163 0.12765957
-0.0029730473 0.046468854 0.12776595
0.04115124 0.095762223 0.26329789
0.041705333 0.095800906 0.26340425
0.042242799 0.095800906 0.26340425
0.042780269 0.095800906 0.26340425
0.043300245 0.095762223 0.26329789
0.10068269 0.10458395 0.28755319
0.10108211 0.10439049 0.28702128
0.1013663 0.10408095 0.28617021
0.10160913 0.10373272 0.28521276
0.10192428 0.10346188 0.28446808
0.10246639 0.10342319 0.28436169
0.10323937 0.10361665 0.2848936
0.10409207 0.1038875 0.2856383
0.10479186 0.10400357 0.28595746
0.078220874 0.072392367 0.19904256
0.078669041 0.072431058 0.19914894
0.079202123 0.072547138 0.19946809
0.07969404 0.072624512 0.19968085
0.080186836 0.072701901 0.19989362
0.080680497 0.072779283 0.20010638
0.081131913 0.072817974 0.20021276
0.081497118 0.072779283 0.20010638
0.081818342 0.072701901 0.19989362
0.08205118 0.072547138 0.19946809
0.082238294 0.072353669 0.19893616
0.12599413 0.082993925 0.22819149
0.12657765 0.083071299 0.22840425
0.12716205 0.083148688 0.22861703
0.12774731 0.08322607 0.22882979
0.12827384 0.083264761 0.22893617
0.12874098 0.083264761 0.22893617
0.12932819 0.08334215 0.22914894
0.12985602 0.083380841 0.22925532
0.13032381 0.083380841 0.22925532
-0.083873384 0.11528699 0.31521276
-0.083454922 0.11559826 0.31606382
-0.083060861 0.11594845 0.31702128
-0.082496963 0.11606517 0.31734043
-0.081822 0.11602626 0.31723404
-0.081038587 0.11583172 0.31670213
-0.080311351 0.11571499 0.31638297
-0.07961221 0.11563718 0.31617022
-0.079073355 0.11579281 0.31659573
-0.052210163 0.084004261 0.22968085
-0.051789436 0.084082074 0.22989361
-0.051367845 0.084159896 0.23010638
-0.050945383 0.08423771 0.23031914
-0.050498739 0.084276624 0.23042554
-0.050028563 0.084276624 0.23042554
-0.049581267 0.084315531 0.23053192
-0.0491562 0.084393345 0.23074467
-0.048775159 0.08454898 0.23117021
-0.048392378 0.084704615 0.23159574
-0.047963839 0.084782436 0.23180851
-0.018110452 0.06847962 0.18723404
-0.017496727 0.067584716 0.18478723
-0.017168956 0.067779265 0.18531916
-0.016810097 0.067857079 0.18553191
-0.016440947 0.067895986 0.18563829
-0.016062157 0.067895986 0.18563829
-0.015674381 0.067857079 0.18553191
-0.015295809 0.067857079 0.18553191
-0.014908684 0.067818172 0.18542553
-0.014521994 0.067779265 0.18531916
-0.014127617 0.067701444 0.18510638
-0.01373411 0.06762363 0.18489362
-0.0076784519 0.046807379 0.12797873
-0.0074111503 0.046768472 0.12787235
-0.0071204873 0.046573922 0.12734042
-0.0068319957 0.04637938 0.12680851
-0.0065511893 0.046223741 0.12638298
-0.0062774168 0.046107013 0.12606382
-0.0060100276 0.046029199 0.12585106
-0.0057435059 0.045951378 0.12563829
-0.0054871449 0.045951378 0.12563829
-0.0052352138 0.045990292 0.12574469
-0.0049828482 0.046029199 0.12585106
-0.0047340426 0.046107013 0.12606382
-0.0044881478 0.046223741 0.12638298
-0.0042373892 0.046301562 0.12659575
-0.0039857621 0.04637938 0.12680851
-0.0037332673 0.046457198 0.12702128
-0.0034828132 0.046573922 0.12734042
-0.003231057 0.04669065 0.12765957
-0.002975523 0.046768472 0.12787235
0.041134611 0.096260555 0.26319149
0.041705333 0.096338369 0.26340425
0.042259865 0.096377283 0.26351064
0.042797547 0.096377283 0.26351064
0.043335233 0.096377283 0.26351064
0.1005337 0.10501506 0.28712767
0.10096971 0.10485942 0.28670213
0.10129094 0.10458706 0.28595746
0.10149542 0.10419796 0.2848936
0.10177182 0.1038867 0.28404257
0.10227472 0.10380887 0.28382978
0.10304662 0.10400341 0.28436169
0.10389823 0.10427579 0.28510639
0.077970035 0.072565049 0.19840425
0.078584991 0.072759591 0.19893616
0.079159878 0.072915226 0.1993617
0.07969404 0.073031954 0.19968085
0.080186836 0.073109776 0.19989362
0.080637604 0.073148683 0.2
0.081045702 0.073148683 0.2
0.081410468 0.073109776 0.19989362
0.081731252 0.073031954 0.19968085
0.082007416 0.072915226 0.1993617
0.082326248 0.072837412 0.19914894
0.12599413 0.083459541 0.22819149
0.12657765 0.083537355 0.22840425
0.12716205 0.083615176 0.22861703
0.12768793 0.083654083 0.22872341
0.12815462 0.083654083 0.22872341
0.12856151 0.083615176 0.22861703
0.12908803 0.083654083 0.22872341
0.12961499 0.08369299 0.22882979
-0.084402472 0.11577368 0.31478724
-0.083873384 0.11593018 0.31521276
-0.083426841 0.11620406 0.31595746
-0.08294937 0.11643881 0.31659573
-0.082358681 0.11651707 0.31680852
-0.081657365 0.11643881 0.31659573
-0.080875255 0.11624318 0.31606382
-0.080176331 0.11616493 0.31585106
-0.079478271 0.11608668 0.3156383
-0.052703217 0.08451204 0.22978723
-0.052210163 0.084472917 0.22968085
-0.051765472 0.08451204 0.22978723
-0.051344097 0.084590293 0.23
-0.05092185 0.084668547 0.23021276
-0.050475422 0.08470767 0.23031914
-0.050005466 0.08470767 0.23031914
-0.04955839 0.0847468 0.23042554
-0.049133539 0.084825046 0.2306383
-0.04875271 0.084981553 0.23106383
-0.048370149 0.08513806 0.23148936
-0.018244222 0.0693703 0.18861702
-0.017496727 0.067961767 0.18478723
-0.017168956 0.068157397 0.18531916
-0.016810097 0.068235651 0.18553191
-0.016431523 0.068235651 0.18553191
-0.016043749 0.068196528 0.18542553
-0.015656406 0.068157397 0.18531916
-0.015269497 0.068118267 0.18521276
-0.014891577 0.068118267 0.18521276
-0.014513656 0.068118267 0.18521276
-0.014127617 0.068079144 0.18510638
-0.013749913 0.068079144 0.18510638
-0.0076912171 0.047146764 0.12819149
-0.007404984 0.04699026 0.12776595
-0.0071204873 0.046833754 0.12734042
-0.0068319957 0.046638127 0.12680851
-0.0065511893 0.046481624 0.12638298
-0.0062774168 0.046364244 0.12606382
-0.0060100276 0.046285994 0.12585106
-0.0057483697 0.046246871 0.12574469
-0.0054871449 0.046207741 0.12563829
-0.0052307844 0.046207741 0.12563829
-0.0049786363 0.046246871 0.12574469
-0.0047300481 0.046325117 0.12595744
-0.004480592 0.046403375 0.12617022
-0.0042338283 0.046520747 0.12648936
-0.0039824187 0.046599001 0.12670213
-0.0037301402 0.04667725 0.12691489
-0.0034799036 0.046794631 0.12723404
-0.0032283645 0.046912011 0.12755319
0.040564761 0.096719339 0.26297873
0.041117985 0.096758462 0.2630851
0.041688491 0.096836723 0.26329789
0.042242799 0.096875839 0.26340425
0.042797547 0.096914969 0.26351064
0.10031021 0.10536617 0.28648937
0.10078239 0.10524879 0.28617021
0.10114021 0.10501403 0.28553191
0.10134383 0.10462278 0.28446808
0.10161934 0.10430977 0.28361702
0.10212139 0.10423152 0.28340426
0.10281532 0.1043489 0.28372341
0.10366562 0.10462278 0.28446808
0.077844612 0.072852507 0.1980851
0.07845892 0.073048145 0.19861703
0.079075396 0.073243774 0.19914894
0.079651587 0.073400274 0.19957447
0.080101483 0.073439397 0.19968085
0.080551818 0.073478527 0.19978723
0.080959477 0.073478527 0.19978723
0.08132381 0.073439397 0.19968085
0.08164417 0.073361151 0.19946809
0.081876136 0.073204644 0.19904256
0.082194313 0.073126391 0.19882978
0.12593538 0.083886027 0.2280851
0.1265187 0.083964281 0.22829787
0.12716205 0.084081657 0.22861703
0.12762854 0.084081657 0.22861703
0.12803541 0.084042527 0.22851063
0.12832221 0.083925158 0.22819149
0.12872778 0.083886027 0.2280851
-0.084545091 0.1166127 0.31531915
-0.083986618 0.11673073 0.3156383
-0.083426841 0.11684877 0.31595746
-0.08283788 0.11692744 0.31617022
-0.082165085 0.1168881 0.31606382
-0.081437856 0.11677007 0.31574467
-0.080711931 0.11665205 0.31542554
-0.080068313 0.11665205 0.31542554
-0.053369027 0.085295662 0.2306383
-0.052752018 0.085059606 0.23
-0.052234344 0.084980913 0.22978723
-0.051741507 0.084941573 0.22968085
-0.051320348 0.085020259 0.22989361
-0.050874788 0.085059606 0.23
-0.050428797 0.085098945 0.23010638
-0.049982369 0.085138284 0.23021276
-0.049512625 0.085138284 0.23021276
-0.049088214 0.085216977 0.23042554
-0.04870782 0.085374348 0.23085107
-0.048303463 0.085492373 0.23117021
-0.018264802 0.06983386 0.18882979
-0.017516876 0.068417504 0.185
-0.017178813 0.068574876 0.18542553
-0.016810097 0.068614222 0.18553191
-0.016422102 0.068574876 0.18542553
-0.016025338 0.06849619 0.18521276
-0.015629442 0.068417504 0.185
-0.015251957 0.068417504 0.185
-0.01487447 0.068417504 0.185
-0.014496984 0.068417504 0.185
-0.014111379 0.068378165 0.18489362
-0.01373411 0.068378165 0.18489362
-0.0076848348 0.047368992 0.12808511
-0.0073988186 0.047211621 0.12765957
-0.0071085906 0.047014907 0.12712766
-0.0068262648 0.046857532 0.12670213
-0.0065511893 0.046739504 0.12638298
-0.0062827147 0.046660818 0.12617022
-0.0060151075 0.046582133 0.12595744
-0.0057532326 0.04654279 0.12585106
-0.0054917918 0.046503447 0.12574469
-0.0052307844 0.0464641 0.12563829
-0.0049786363 0.046503447 0.12574469
-0.0047260532 0.04654279 0.12585106
-0.0044768136 0.046621472 0.12606382
-0.004223146 0.046660818 0.12617022
-0.0039723869 0.046739504 0.12638298
-0.003723887 0.046857532 0.12670213
-0.0034740847 0.046975564 0.12702128
-0.0032229794 0.047093589 0.12734042
0.040548351 0.097216591 0.26287234
0.041101359 0.097255938 0.26297873
0.041671645 0.097334623 0.26319149
0.042242799 0.097413309 0.26340425
0.042797547 0.097452655 0.26351064
0.10004947 0.10567534 0.28574467
0.10055759 0.10559665 0.28553191
0.10091411 0.10536059 0.2848936
0.10115433 0.10500652 0.28393617
0.10146688 0.10473111 0.2831915
0.10189138 0.10457373 0.28276595
0.10254546 0.10465242 0.28297871
0.077232473 0.073059984 0.19755319
0.077761002 0.073178008 0.19787234
0.078416891 0.073414065 0.19851063
0.079033159 0.073610783 0.19904256
0.079566665 0.073728815 0.1993617
0.080016136 0.073768161 0.19946809
0.080423146 0.073768161 0.19946809
0.080830157 0.073768161 0.19946809
0.081193827 0.073728815 0.1993617
0.081513539 0.073650129 0.19914894
0.081788607 0.073532097 0.19882978
0.08215034 0.073492758 0.19872341
0.12587665 0.084312081 0.22797872
0.12645975 0.084390774 0.22819149
0.12710287 0.084508799 0.22851063
0.12756914 0.084508799 0.22851063
0.1279162 0.084430113 0.22829787
0.12814274 0.084272742 0.22787234
0.12842758 0.08415471 0.22755319
-0.08468771 0.1174539 0.31585106
-0.084071539 0.11749347 0.31595746
-0.083426841 0.11749347 0.31595746
-0.082726389 0.11741433 0.31574467
-0.081971504 0.1172561 0.31531915
-0.081273228 0.11717698 0.31510639
-0.080603041 0.11713742 0.315
-0.079960294 0.11713742 0.315
-0.054410446 0.085924506 0.23106383
-0.053963803 0.085964069 0.23117021
-0.05341826 0.085845388 0.23085107
-0.052825216 0.08564759 0.23031914
-0.052258525 0.085489348 0.22989361
-0.051765472 0.085449785 0.22978723
-0.05127285 0.08541023 0.22968085
-0.050827727 0.085449785 0.22978723
-0.050382167 0.085489348 0.22989361
-0.049913075 0.085489348 0.22989361
-0.049466867 0.08552891 0.23
-0.049042884 0.085608028 0.23021276
-0.048662927 0.085766271 0.2306383
-0.048281234 0.085924506 0.23106383
-0.018151611 0.069783993 0.18765958
-0.017547093 0.068913676 0.18531916
-0.017188668 0.068992794 0.18553191
-0.016810097 0.068992794 0.18553191
-0.016412681 0.068913676 0.18531916
-0.01600693 0.068794996 0.185
-0.015611468 0.06871587 0.18478723
-0.015225645 0.068676308 0.18468085
-0.014840256 0.068636753 0.18457447
-0.014455303 0.068597198 0.18446809
-0.014062663 0.068518072 0.18425532
-0.013686696 0.068518072 0.18425532
-0.0079527879 0.047669902 0.12819149
-0.0076720696 0.04755123 0.12787235
-0.0073803212 0.047353424 0.12734042
-0.0070847962 0.047116064 0.12670213
-0.0068090698 0.046997383 0.12638298
-0.006545675 0.046957824 0.1262766
-0.0062827147 0.046918266 0.12617022
-0.0060201879 0.046878703 0.12606382
-0.0057580955 0.046839144 0.12595744
-0.0054964377 0.046799585 0.12585106
-0.0052352138 0.046760026 0.12574469
-0.0049786363 0.046760026 0.12574469
-0.0047260532 0.046799585 0.12585106
-0.0044730362 0.046839144 0.12595744
-0.0042195846 0.046878703 0.12606382
-0.0039690435 0.046957824 0.1262766
-0.0037176334 0.047036942 0.12648936
-0.0034682651 0.047155622 0.12680851
-0.003214902 0.047234748 0.12702128
0.040531937 0.097713411 0.26276594
0.041084733 0.097752973 0.26287234
0.041671645 0.097871654 0.26319149
0.042259865 0.097990341 0.26351064
0.042814821 0.098029889 0.26361701
0.099863224 0.10606059 0.28521276
0.10033279 0.10594191 0.2848936
0.10068802 0.10570455 0.28425533
0.10096484 0.10538808 0.28340426
0.10131441 0.10515071 0.28276595
0.10177638 0.10503203 0.2824468
0.10231416 0.10499248 0.28234044
0.077315658 0.073542207 0.19776596
0.077844612 0.07366088 0.1980851
0.07845892 0.073858686 0.19861703
0.078990914 0.073977359 0.19893616
0.079481751 0.074056484 0.19914894
0.079888113 0.074056484 0.19914894
0.080294468 0.074056484 0.19914894
0.080700822 0.074056484 0.19914894
0.081063859 0.074016929 0.19904256
0.081426449 0.073977359 0.19893616
0.081788607 0.073937804 0.19882978
0.08215034 0.073898241 0.19872341
0.12541147 0.084777266 0.22797872
0.12587665 0.084777266 0.22797872
0.12640078 0.084816828 0.2280851
0.12698454 0.084895946 0.22829787
0.12750976 0.084935509 0.22840425
0.12779698 0.084816828 0.2280851
0.12802309 0.084658585 0.22765957
0.12830751 0.084539905 0.22734043
-0.084744759 0.11817794 0.31606382
-0.084071539 0.11813816 0.31595746
-0.083370656 0.1180586 0.31574467
-0.082614899 0.1178995 0.31531915
-0.081833221 0.11770061 0.31478724
-0.081136033 0.11762106 0.31457448
-0.080521375 0.11766084 0.31468084
-0.054945644 0.08575955 0.2293617
-0.054654516 0.086037993 0.23010638
-0.054335296 0.086276658 0.23074467
-0.053914137 0.086356215 0.23095745
-0.05339364 0.086276658 0.23074467
-0.052849617 0.086157329 0.23042554
-0.052282713 0.085998215 0.23
-0.051741507 0.085878886 0.22968085
-0.051249102 0.085839108 0.22957447
-0.050780665 0.085839108 0.22957447
-0.050335538 0.085878886 0.22968085
-0.049889978 0.085918657 0.22978723
-0.049443986 0.085958436 0.22989361
-0.049020223 0.086037993 0.23010638
-0.048640482 0.086197101 0.23053192
-0.048325695 0.086475544 0.2312766
-0.048051886 0.086833537 0.23223405
-0.01800755 0.069610022 0.18617021
-0.017557167 0.069331586 0.18542553
-0.017188668 0.069371365 0.18553191
-0.016800458 0.069331586 0.18542553
-0.01640326 0.069252029 0.18521276
-0.015997725 0.069132701 0.18489362
-0.015602481 0.069053143 0.18468085
-0.015199333 0.068933815 0.1843617
-0.014806043 0.068854265 0.18414894
-0.014413619 0.068774708 0.18393616
-0.014013947 0.068655379 0.18361703
-0.013631379 0.068615593 0.18351063
-0.0079197884 0.047732592 0.12765957
-0.007640155 0.047613256 0.12734042
-0.007349493 0.047414374 0.12680851
-0.0070610014 0.047215488 0.1262766
-0.0067918748 0.047135931 0.12606382
-0.0065346458 0.047135931 0.12606382
-0.0062721195 0.047096156 0.12595744
-0.0060151075 0.047096156 0.12595744
-0.0057532326 0.047056381 0.12585106
-0.0054917918 0.047016602 0.12574469
-0.0052352138 0.047016602 0.12574469
-0.0049786363 0.047016602 0.12574469
-0.0047220583 0.047016602 0.12574469
-0.0044692582 0.047056381 0.12585106
-0.0042160242 0.047096156 0.12595744
-0.0039657 0.047175713 0.12617022
-0.0037176334 0.047295038 0.12648936
-0.0034682651 0.047414374 0.12680851
-0.0032122091 0.047454149 0.12691489
0.040515531 0.098209806 0.26265958
0.041084733 0.098289356 0.26287234
0.041671645 0.098408692 0.26319149
0.042259865 0.098528028 0.26351064
0.099788725 0.10656301 0.285
0.1002204 0.1064039 0.28457448
0.10053729 0.10612546 0.28382978
0.10085113 0.10584702 0.28308511
0.10123818 0.10564814 0.2825532
0.10177638 0.10560835 0.2824468
0.10231416 0.10556858 0.28234044
0.077482015 0.074104846 0.19819149
0.077970035 0.074184403 0.19840425
0.078542963 0.07434351 0.19882978
0.079033159 0.074423067 0.19904256
0.079439297 0.074423067 0.19904256
0.079802759 0.074383281 0.19893616
0.080165789 0.07434351 0.19882978
0.080571495 0.07434351 0.19882978
0.080933876 0.074303731 0.19872341
0.081295818 0.07426396 0.19861703
0.08161357 0.074184403 0.19840425
0.082018405 0.074184403 0.19840425
0.12552851 0.085322008 0.22819149
0.12587665 0.08524245 0.22797872
0.12640078 0.085282229 0.2280851
0.12692536 0.085322008 0.22819149
0.12739098 0.085322008 0.22819149
0.12773737 0.08524245 0.22797872
0.12802309 0.085123114 0.22765957
0.12836754 0.085043564 0.22744681
-0.084659189 0.11870287 0.31574467
-0.083986618 0.11866288 0.3156383
-0.08328639 0.1185829 0.31542554
-0.082559153 0.11846291 0.31510639
-0.081805564 0.11830293 0.31468084
-0.081108592 0.11822294 0.31446809
-0.080466934 0.11822294 0.31446809
-0.05515663 0.085827619 0.22829787
-0.054792736 0.085987598 0.22872341
-0.054477639 0.086227559 0.2293617
-0.054134887 0.086427525 0.22989361
-0.0537403 0.086547509 0.23021276
-0.05327056 0.086547509 0.23021276
-0.052752018 0.086467527 0.23
-0.052210163 0.086347543 0.22968085
-0.051693577 0.086267553 0.22946809
-0.051177856 0.086187564 0.22925532
-0.0507336 0.086227559 0.2293617
-0.050288912 0.086267553 0.22946809
-0.049843784 0.086307548 0.22957447
-0.049421106 0.086387537 0.22978723
-0.048997559 0.086467527 0.23
-0.048662927 0.086707488 0.2306383
-0.048392378 0.087067433 0.23159574
-0.048161946 0.087507375 0.23276596
-0.047904942 0.087907314 0.23382978
-0.018250832 0.069469973 0.18478723
-0.01790465 0.069589958 0.18510638
-0.017547093 0.069669947 0.18531916
-0.017178813 0.069709942 0.18542553
-0.016790818 0.069669947 0.18531916
-0.016393837 0.069589958 0.18510638
-0.015988519 0.069469973 0.18478723
-0.015593492 0.069389991 0.18457447
-0.015199333 0.069309995 0.1843617
-0.01479749 0.069190018 0.18404256
-0.014388612 0.069030039 0.18361703
-0.013989589 0.068910055 0.18329787
-0.0078867897 0.047793105 0.12712766
-0.0076082414 0.047673121 0.12680851
-0.0073248302 0.047513142 0.12638298
-0.0070431554 0.047353167 0.12595744
-0.006780412 0.047313172 0.12585106
-0.0065236171 0.047313172 0.12585106
-0.0062668226 0.047313172 0.12585106
-0.0060100276 0.047313172 0.12585106
-0.0057483697 0.047273181 0.12574469
-0.0054917918 0.047273181 0.12574469
-0.0052352138 0.047273181 0.12574469
-0.0049786363 0.047273181 0.12574469
-0.0047220583 0.047273181 0.12574469
-0.0044692582 0.047313172 0.12585106
-0.0042160242 0.047353167 0.12595744
-0.0039690435 0.047473151 0.1262766
-0.0037207606 0.047593135 0.12659575
-0.0034682651 0.047673121 0.12680851
0.040499121 0.098705754 0.26255319
0.041068103 0.098785743 0.26276594
0.041654799 0.098905727 0.2630851
0.042242799 0.099025711 0.26340425
0.099788725 0.10714454 0.285
0.1002204 0.10698457 0.28457448
0.10046192 0.10662462 0.28361702
0.10077534 0.10634466 0.28287235
0.10123818 0.10622468 0.2825532
0.10189138 0.10630466 0.28276595
0.10262257 0.10646465 0.2831915
0.077606782 0.074629232 0.19851063
0.078137264 0.074749216 0.19882978
0.07862702 0.074829206 0.19904256
0.079075396 0.074869201 0.19914894
0.079439297 0.074829206 0.19904256
0.079802759 0.074789204 0.19893616
0.080165789 0.074749216 0.19882978
0.080485277 0.074669227 0.19861703
0.080803894 0.074589238 0.19840425
0.081121646 0.074509248 0.19819149
0.081394769 0.074389264 0.19787234
0.081754543 0.074349277 0.19776596
0.12552851 0.085787624 0.22819149
0.12593538 0.085747622 0.2280851
0.12634183 0.085707635 0.22797872
0.12686618 0.085747622 0.2280851
0.12733158 0.085747622 0.2280851
0.12773737 0.085707635 0.22797872
0.12814274 0.08566764 0.22787234
0.12848762 0.085587651 0.22765957
-0.084545091 0.1191863 0.31531915
-0.083901696 0.1191863 0.31531915
-0.083230205 0.11914608 0.31521276
-0.082531281 0.11906566 0.315
-0.081777915 0.11890482 0.31457448
-0.081081152 0.11882439 0.31436169
-0.055053823 0.086132608 0.22787234
-0.054639824 0.086213022 0.2280851
-0.054275494 0.086373873 0.22851063
-0.053909432 0.086534716 0.22893617
-0.053491965 0.086615145 0.22914894
-0.053049009 0.086655349 0.22925532
-0.052581221 0.086655349 0.22925532
-0.052065071 0.086574934 0.22904256
-0.051549781 0.086494505 0.22882979
-0.051082864 0.086494505 0.22882979
-0.050639473 0.086534716 0.22893617
-0.05021897 0.086615145 0.22914894
-0.049797591 0.086695559 0.2293617
-0.049375348 0.086775988 0.22957447
-0.048974894 0.086896621 0.22989361
-0.048618037 0.087097675 0.23042554
-0.048370149 0.08749979 0.23148936
-0.048183959 0.088022538 0.23287234
-0.047926739 0.088424653 0.23393618
-0.047578864 0.088665918 0.23457447
-0.018208804 0.069686182 0.1843617
-0.017863492 0.069806814 0.18468085
-0.017506802 0.069887243 0.18489362
-0.017139388 0.069927454 0.185
-0.016761903 0.069927454 0.185
-0.016365571 0.069847025 0.18478723
-0.015979316 0.069806814 0.18468085
-0.015593492 0.069766603 0.18457447
-0.015199333 0.069686182 0.1843617
-0.014806043 0.06960576 0.18414894
-0.014396948 0.069444917 0.18372341
-0.014005827 0.069364488 0.18351063
-0.0081393728 0.048012294 0.12702128
-0.0078735892 0.047972079 0.12691489
-0.0075890929 0.047811233 0.12648936
-0.0073124995 0.047690604 0.12617022
-0.007037207 0.047569968 0.12585106
-0.0067746807 0.047529757 0.12574469
-0.0065125879 0.047489543 0.12563829
-0.0062615252 0.047529757 0.12574469
-0.0059998664 0.047489543 0.12563829
-0.0057435059 0.047489543 0.12563829
-0.0054871449 0.047489543 0.12563829
-0.0052307844 0.047489543 0.12563829
-0.0049744234 0.047489543 0.12563829
-0.0047180629 0.047489543 0.12563829
-0.0044654803 0.047529757 0.12574469
-0.0042160242 0.047610179 0.12595744
-0.0039690435 0.047730815 0.1262766
-0.003723887 0.047891658 0.12670213
-0.0034711747 0.047972079 0.12691489
0.040482711 0.099201284 0.26244682
0.041068103 0.099321909 0.26276594
0.041654799 0.099442542 0.2630851
0.042225741 0.099522971 0.26329789
0.099788725 0.10772607 0.285
0.10018294 0.10752501 0.28446808
0.10038656 0.10712291 0.28340426
0.10069953 0.10684142 0.28265956
0.10127629 0.10684142 0.28265956
0.10204472 0.10704248 0.2831915
0.10289242 0.10732396 0.28393617
0.077243105 0.075074501 0.19861703
0.077689968 0.075114712 0.19872341
0.078220874 0.075235344 0.19904256
0.078711063 0.075315766 0.19925532
0.079117633 0.075315766 0.19925532
0.079481751 0.075275555 0.19914894
0.079802759 0.075195126 0.19893616
0.080165789 0.075154923 0.19882978
0.08044216 0.075034283 0.19851063
0.080760568 0.074953862 0.19829787
0.080991015 0.074793018 0.19787234
0.081263483 0.074672386 0.19755319
0.12546998 0.086213022 0.2280851
0.12587665 0.086172819 0.22797872
0.12634183 0.086172819 0.22797872
0.126807 0.086172819 0.22797872
0.12733158 0.086213022 0.2280851
0.12773737 0.086172819 0.22797872
0.12820256 0.086172819 0.22797872
-0.085217237 0.11987013 0.31542554
-0.084545091 0.11982969 0.31531915
-0.083873384 0.11978926 0.31521276
-0.083230205 0.11978926 0.31521276
-0.082503401 0.11966798 0.3148936
-0.081777915 0.1195467 0.31457448
-0.081081152 0.11946584 0.31436169
-0.054976713 0.086476281 0.22755319
-0.0545124 0.086476281 0.22755319
-0.054098621 0.086557142 0.22776596
-0.053658925 0.086597569 0.22787234
-0.053243622 0.086678423 0.2280851
-0.052802842 0.086718857 0.22819149
-0.052337226 0.086718857 0.22819149
-0.051847424 0.086678423 0.2280851
-0.051382024 0.086678423 0.2280851
-0.050940376 0.086718857 0.22819149
-0.050521817 0.086799711 0.22840425
-0.050125711 0.086920999 0.22872341
-0.0497052 0.087001853 0.22893617
-0.049306706 0.087123141 0.22925532
-0.048884246 0.087204002 0.22946809
-0.048550699 0.08744657 0.23010638
-0.048281234 0.087810419 0.23106383
-0.048073899 0.088295564 0.23234043
-0.047817763 0.088699847 0.23340425
-0.047427818 0.088861555 0.23382978
-0.046886619 0.088740274 0.23351064
-0.018531367 0.069860227 0.18382978
-0.018166775 0.069900654 0.18393616
-0.017822331 0.070021935 0.18425532
-0.01746651 0.070102796 0.18446809
-0.017099965 0.070143223 0.18457447
-0.016723348 0.070143223 0.18457447
-0.016337307 0.070102796 0.18446809
-0.015960906 0.070102796 0.18446809
-0.015584505 0.070102796 0.18446809
-0.015199333 0.070062362 0.1843617
-0.014814596 0.070021935 0.18425532
-0.014413619 0.069900654 0.18393616
-0.0081325555 0.048231047 0.12691489
-0.0078603905 0.048150189 0.12670213
-0.0075827106 0.048028905 0.12638298
-0.0073063327 0.047907617 0.12606382
