# .PCD v0.7 - Point Cloud Data file format
VERSION 0.7
FIELDS x y z
SIZE 4 4 4
TYPE F F F
COUNT 1 1 1
WIDTH 1330
HEIGHT 1
VIEWPOINT 0 0 0 1 0 0 0
POINTS 1330
DATA ascii
0.15430422 -0.0469524 0.30717483
0.15446669 -0.047108758 0.30661371
0.15467981 -0.047377151 0.3060357
0.15482864 -0.047581296 0.30562446
0.15498222 -0.047757141 0.30509144
0.15527362 -0.048101328 0.30419907
0.1550851 -0.047197539 0.30295533
0.15524606 -0.047341362 0.30245826
0.15556705 -0.047968186 0.30221972
0.16235431 -0.040891588 0.26806167
0.16241498 -0.041078985 0.26810923
0.16249238 -0.041314241 0.26817241
0.1625798 -0.041601658 0.26826286
0.16265766 -0.041842371 0.26833627
-0.11939351 -0.031768635 0.19354711
-0.11937786 -0.031840876 0.19358103
-0.11936587 -0.03189734 0.19360071
-0.11935261 -0.031952318 0.19362345
-0.11935262 -0.031952314 0.19362344
-0.1193432 -0.031989347 0.1936391
-0.11934572 -0.031913221 0.19361132
-0.11939178 -0.031511847 0.19346076
-0.11942697 -0.030562265 0.1930837
-0.11941851 -0.029663526 0.19272345
-0.14776453 -0.040314928 0.25629717
-0.14757709 -0.04041164 0.25638083
-0.14737844 -0.040537808 0.25642174
-0.14716385 -0.040714733 0.25653416
-0.14696777 -0.040769074 0.25658157
-0.14676547 -0.040884785 0.25663427
-0.14653222 -0.041018713 0.25678074
-0.14634758 -0.041173141 0.25699109
-0.1462744 -0.041401036 0.25719804
-0.14626566 -0.041585166 0.25758463
-0.14633073 -0.04153841 0.25794822
-0.14629595 -0.041579168 0.25815126
-0.14610891 -0.041608531 0.25825867
-0.14584553 -0.041650627 0.25827706
-0.14556579 -0.04174884 0.25820816
-0.1451789 -0.041780118 0.25819054
-0.14491619 -0.041847751 0.25812492
-0.1447074 -0.041840501 0.25812554
-0.14447053 -0.041821394 0.25818604
-0.14418507 -0.041814595 0.25830525
-0.14386736 -0.041718788 0.2584796
-0.14355913 -0.041743703 0.25870061
-0.14331216 -0.041750629 0.25890413
-0.14288594 -0.04168433 0.2590827
-0.14244993 -0.041622382 0.25914058
-0.14186093 -0.041558523 0.25915602
-0.14133298 -0.041467696 0.25919515
-0.14093722 -0.041378502 0.25928342
-0.14054334 -0.041302886 0.25943464
-0.14003144 -0.041201599 0.25951397
-0.1395715 -0.041103747 0.25954649
-0.1388877 -0.040882546 0.25955841
-0.13801764 -0.040511232 0.25957635
-0.1368589 -0.040009707 0.25951722
-0.1359158 -0.039625764 0.25948977
-0.13528389 -0.03937329 0.2595278
-0.13453966 -0.039148081 0.25948653
-0.13379319 -0.038982056 0.25935635
-0.13307378 -0.038778566 0.25932053
-0.1324856 -0.038608596 0.2593427
-0.13207197 -0.038490202 0.25939402
-0.13173199 -0.038389478 0.25940773
-0.13152471 -0.038324434 0.25944573
-0.13118622 -0.038219292 0.25944832
-0.13060373 -0.038052958 0.25946236
-0.12968539 -0.037840087 0.25940979
-0.12877631 -0.037599463 0.25934899
-0.12792781 -0.037308738 0.25930995
-0.052691363 -0.033376619 0.20527393
-0.052318286 -0.033261217 0.20531726
-0.05187453 -0.033132281 0.20536402
-0.051426791 -0.032997653 0.20540565
-0.050955113 -0.032877319 0.20544821
-0.050636515 -0.032776251 0.20547773
-0.050307456 -0.032695867 0.20551521
-0.049992379 -0.032618687 0.20555149
-0.049664795 -0.032532491 0.20558944
-0.049305663 -0.03244495 0.20562479
-0.048934504 -0.032341849 0.20565854
-0.048519649 -0.032230455 0.20569691
-0.048076678 -0.032100733 0.20573813
-0.04770254 -0.031994861 0.20577557
-0.047335863 -0.031914953 0.20582035
-0.047031034 -0.031833332 0.20585327
-0.046710435 -0.031755205 0.20589213
-0.046421308 -0.031674635 0.2059311
-0.046075512 -0.031576827 0.2059795
-0.045714244 -0.031480171 0.20603211
-0.04535022 -0.031386711 0.20608221
-0.044973422 -0.031282462 0.20613249
-0.04457764 -0.031181619 0.20618053
-0.044199076 -0.031071903 0.20622355
-0.043817401 -0.030973593 0.20626442
-0.043390751 -0.030863009 0.20630011
-0.04298535 -0.030734649 0.20632592
-0.042600092 -0.030630318 0.20635243
-0.042169351 -0.030513147 0.20637815
-0.041793697 -0.030421579 0.20640692
-0.041389111 -0.030320916 0.20644252
-0.041000199 -0.030221887 0.20647794
-0.04059599 -0.030121351 0.20651129
-0.040219042 -0.030029327 0.20654051
-0.039841346 -0.029935069 0.20656826
-0.039511021 -0.029850196 0.20659363
-0.039165296 -0.029761346 0.20662534
-0.038806334 -0.029667012 0.20666471
-0.03838994 -0.029545745 0.20671593
-0.037940964 -0.029422211 0.20677209
-0.037481636 -0.029275637 0.20681345
-0.037041925 -0.029163489 0.20686057
-0.036612976 -0.029063953 0.20690149
-0.036230143 -0.028977659 0.20693246
-0.035802085 -0.028865658 0.20696078
-0.035419449 -0.028768623 0.20698701
-0.035096731 -0.028689187 0.20700528
-0.034770332 -0.028616179 0.20702547
-0.034406085 -0.028521165 0.20704955
-0.033990819 -0.02841256 0.20707108
-0.016827922 -0.039777718 0.26850808
-0.016796395 -0.039914034 0.2685661
-0.016777053 -0.040006936 0.26860672
-0.016746482 -0.04009752 0.26864427
-0.016746482 -0.040097516 0.2686443
-0.016746482 -0.040097512 0.26864427
-0.016746482 -0.040097516 0.26864433
-0.016746482 -0.040097516 0.26864424
-0.016683411 -0.040272832 0.26873395
0.0081683472 -0.031096229 0.21215442
0.0082949866 -0.031400315 0.21225132
0.0085153133 -0.031929664 0.21243113
0.0087526143 -0.032465827 0.21259111
0.0089953486 -0.033020947 0.21276288
0.0092476755 -0.033539817 0.21292996
0.0094567249 -0.033882704 0.21301667
0.009468561 -0.033846196 0.21297826
0.0093562836 -0.033478979 0.21278335
0.0091469381 -0.032871466 0.21256618
0.0089383796 -0.031762928 0.21202101
0.010671726 -0.024474157 0.17577745
0.010980696 -0.025470227 0.17198965
0.011194875 -0.026061974 0.16904247
0.013298946 -0.025779415 0.15155612
0.013108528 -0.024886366 0.1508642
0.013064894 -0.024274355 0.15057145
0.013082085 -0.023877138 0.15042952
0.013086093 -0.023571379 0.15029646
0.013099681 -0.023340415 0.15020177
0.013129844 -0.023046223 0.15005964
0.013142757 -0.022884363 0.14998703
0.013174796 -0.022846207 0.14995998
0.013212469 -0.023029944 0.15004468
0.013259409 -0.023229299 0.15010232
0.013294382 -0.023361005 0.15015297
0.013349574 -0.023511549 0.15020983
0.013413662 -0.023826746 0.15034966
0.013517858 -0.024247251 0.15052125
0.013780951 -0.024814865 0.15082458
0.014002857 -0.025215156 0.15104011
0.014175853 -0.025478201 0.15118556
0.080275737 -0.046613358 0.31012583
0.080281809 -0.046651836 0.31014135
0.080264144 -0.046491623 0.31009415
0.080255128 -0.046450287 0.31008279
0.080255143 -0.046450283 0.31008282
0.080255121 -0.04645028 0.31008285
0.080251217 -0.04637723 0.3100518
0.080336139 -0.046599437 0.31012592
0.08041627 -0.046906192 0.31021333
0.080482669 -0.047135796 0.31027821
0.15363337 -0.046573065 0.31097764
0.1536427 -0.046454471 0.31050459
0.15367058 -0.046292175 0.30980214
0.15357797 -0.045789771 0.30889797
0.15360381 -0.045735832 0.30848777
0.15366359 -0.04571896 0.30788076
0.15375532 -0.045859896 0.30770305
0.15387598 -0.046097685 0.30754405
0.15392375 -0.046154555 0.30738464
0.15401568 -0.046268988 0.30703887
0.1541943 -0.046368856 0.3062962
0.15434398 -0.046605874 0.30602375
0.15451594 -0.046835136 0.30557102
0.15469539 -0.047083512 0.30512154
0.15475723 -0.04682697 0.30396369
0.15463378 -0.046340574 0.30319333
0.15478054 -0.046437699 0.30258116
0.16219422 -0.040280227 0.26791638
0.16224931 -0.04046753 0.26795748
0.16228409 -0.040559512 0.26797241
0.16235714 -0.040836412 0.26807305
-0.11940998 -0.031551838 0.19347259
-0.11940021 -0.031609703 0.19349319
-0.11938914 -0.031665966 0.19351695
-0.11937128 -0.031739451 0.19355233
-0.1193669 -0.031758867 0.19355859
-0.11936691 -0.031758867 0.19355856
-0.11937107 -0.031700443 0.19354071
-0.11942907 -0.031140177 0.19331174
-0.11944131 -0.030197615 0.19292548
-0.1193883 -0.029498147 0.19265974
-0.14807741 -0.039834462 0.25611797
-0.14791358 -0.039982434 0.2562761
-0.14773132 -0.040109899 0.25638479
-0.14754033 -0.040233158 0.25650865
-0.14735581 -0.04034536 0.2565681
-0.14714946 -0.040459629 0.256585
-0.14693318 -0.040584534 0.25667298
-0.14670914 -0.040758979 0.25687814
-0.14661159 -0.0409979 0.25706851
-0.14657593 -0.041223802 0.25750372
-0.14675736 -0.041119672 0.25799134
-0.14690188 -0.04071901 0.25858527
-0.14694662 -0.040502224 0.25902408
-0.14671358 -0.040583987 0.25926834
-0.14636342 -0.040793475 0.25915471
-0.1459171 -0.041165434 0.2587809
-0.14551882 -0.041325789 0.25866494
-0.14512633 -0.04138634 0.2586123
-0.14485659 -0.04142854 0.25868064
-0.1446058 -0.041484807 0.25878599
-0.14438066 -0.04146497 0.25894827
-0.14404924 -0.041451178 0.25915092
-0.14366287 -0.041399296 0.25949109
-0.14338444 -0.04132371 0.25986621
-0.14308992 -0.041244529 0.26024652
-0.14272076 -0.041255146 0.2602441
-0.14235502 -0.04125721 0.26017609
-0.14200608 -0.041264053 0.25999287
-0.14147371 -0.041230481 0.25989255
-0.14084029 -0.041113283 0.25980759
-0.14037019 -0.041048884 0.25983348
-0.13979919 -0.040919859 0.25981003
-0.13899711 -0.040745407 0.25973928
-0.13825133 -0.040488943 0.25970569
-0.13749924 -0.040105674 0.25977552
-0.13676748 -0.03980675 0.2597428
-0.13555309 -0.039429884 0.25962436
-0.13475373 -0.039187059 0.25956652
-0.13383676 -0.038934257 0.25946096
-0.1330103 -0.038735799 0.25935447
-0.13243528 -0.038577188 0.25937852
-0.1320432 -0.038477406 0.25940716
-0.13182595 -0.038386915 0.25948206
-0.13147335 -0.038295772 0.25948748
-0.13092279 -0.03812423 0.25951803
-0.13034633 -0.03797454 0.25952363
-0.12946902 -0.037755795 0.25946578
-0.12855606 -0.037499297 0.25940305
-0.12761645 -0.037212636 0.25929162
-0.12717229 -0.037104115 0.25924399
-0.12664057 -0.036967389 0.25919208
-0.1261389 -0.036829934 0.25922978
-0.12564884 -0.03668756 0.25925225
-0.051769976 -0.033079252 0.20537069
-0.051195461 -0.032915417 0.20542349
-0.050785787 -0.032797102 0.20546393
-0.05040063 -0.032698728 0.2055034
-0.050113469 -0.032631204 0.20553413
-0.049882948 -0.032576475 0.20556156
-0.049666461 -0.032523636 0.20558882
-0.049268011 -0.032415163 0.20562857
-0.048885114 -0.032302208 0.20566015
-0.048427053 -0.032181296 0.20570116
-0.048021711 -0.032072537 0.20574224
-0.047644652 -0.031975042 0.20578289
-0.047281589 -0.031885803 0.20582654
-0.046976399 -0.031808529 0.20586297
-0.046642769 -0.031723335 0.20590462
-0.046311073 -0.031631541 0.20595171
-0.045994677 -0.031542353 0.20599799
-0.045616172 -0.031444095 0.20604986
-0.045252148 -0.03135002 0.20609885
-0.044889718 -0.031248122 0.20614563
-0.044492979 -0.031149928 0.20619158
-0.044114333 -0.031040387 0.20623375
-0.043720398 -0.030933762 0.20627077
-0.043294366 -0.030817527 0.20630747
-0.042930417 -0.030703479 0.20632556
-0.042512994 -0.030596854 0.20635563
-0.042109881 -0.030491484 0.20638204
-0.041676726 -0.030379247 0.20640965
-0.041259132 -0.030267267 0.2064455
-0.040898416 -0.030181874 0.20648254
-0.040507406 -0.03008903 0.20651662
-0.040086012 -0.029985035 0.2065486
-0.039679561 -0.029878503 0.20657969
-0.039364617 -0.029794583 0.20660605
-0.039018732 -0.029699013 0.20663878
-0.038645737 -0.029598575 0.20668352
-0.038243622 -0.029483851 0.2067336
-0.037824575 -0.029370649 0.20678452
-0.037389133 -0.02925352 0.20683202
-0.036964145 -0.029146042 0.20687415
-0.036523014 -0.02903395 0.20690805
-0.036111172 -0.028922634 0.20693435
-0.035712499 -0.02882768 0.20696348
-0.035314243 -0.028724166 0.20698971
-0.034991812 -0.028645584 0.20701276
-0.034623347 -0.028551092 0.20703076
-0.034270417 -0.028465593 0.20705168
-0.033872962 -0.028359678 0.20707111
-0.033412039 -0.028231816 0.20708531
-0.033013958 -0.028117241 0.20709807
-0.032612909 -0.028002255 0.2070986
-0.016869823 -0.039600007 0.26843271
-0.016836675 -0.039732337 0.26848859
-0.016796395 -0.039914042 0.26856607
-0.016788132 -0.039960735 0.26858652
-0.016788134 -0.039960735 0.26858652
-0.016796395 -0.039914042 0.2685661
-0.016801817 -0.03986695 0.26854607
-0.016801819 -0.039866954 0.26854607
-0.016801815 -0.039866958 0.26854604
0.0080096843 -0.030774688 0.21207325
0.0081350561 -0.031012643 0.21212786
0.0082931938 -0.031378206 0.21224406
0.0085164625 -0.03188384 0.21241194
0.008673192 -0.032229565 0.21252245
0.0088692196 -0.032660924 0.2126513
0.0090136211 -0.032912966 0.21269928
0.009087041 -0.032974981 0.2126801
0.0090402309 -0.032777894 0.21260828
0.0088964729 -0.032128215 0.21229804
0.0087781819 -0.031259071 0.21179083
0.010297136 -0.023560682 0.17961341
0.010737918 -0.024737395 0.17497899
0.011025771 -0.025549488 0.17152368
0.011252493 -0.026237844 0.16804217
0.013249028 -0.025426749 0.15139841
0.013082755 -0.024412422 0.1507442
0.013056405 -0.023797486 0.15044904
0.013051541 -0.023387404 0.15028906
0.013060443 -0.023081226 0.15014979
0.013069954 -0.022891477 0.15006036
0.013081641 -0.022653868 0.14994282
0.013108676 -0.022473751 0.14985713
0.013131327 -0.022443254 0.14984517
0.013162055 -0.022450173 0.14984426
0.013207853 -0.022585697 0.14987724
0.013252196 -0.022767231 0.14994712
0.013286393 -0.022910621 0.15000413
0.013342002 -0.023227708 0.1501331
0.013440311 -0.023755932 0.15036236
0.013665866 -0.024437444 0.15070465
0.013935285 -0.024939036 0.15099266
0.080094971 -0.04604166 0.30994508
0.080094986 -0.046041664 0.30994511
0.08008153 -0.045881025 0.30989286
0.080081522 -0.045881025 0.30989286
0.080104418 -0.045917857 0.30990762
0.080123998 -0.045950413 0.30992043
0.080157422 -0.046024758 0.30994427
0.080242254 -0.046296895 0.31002784
0.080350354 -0.046638709 0.3101348
0.080408387 -0.046833839 0.31018409
0.15321763 -0.04560151 0.310624
0.15328652 -0.045719273 0.31055903
0.15341447 -0.045878701 0.3101694
0.1534178 -0.045624457 0.30932775
0.15338054 -0.045347188 0.30884317
0.15342182 -0.04530903 0.30835542
0.15340252 -0.045115635 0.30778131
0.15346068 -0.045154463 0.30751768
0.15356261 -0.045294981 0.30728012
0.15367219 -0.045453049 0.30697232
0.15377797 -0.0455417 0.30661559
0.15397517 -0.045820616 0.30618376
0.15413207 -0.046078824 0.30588451
0.15421818 -0.046168365 0.3056066
0.1542955 -0.04618771 0.30514058
0.15433556 -0.045949355 0.30407688
0.15414818 -0.04541086 0.30327752
0.16208492 -0.039904825 0.26784474
0.1620618 -0.039815709 0.26781538
0.162047 -0.039723936 0.26778206
0.16211961 -0.039950795 0.26783389
-0.11943582 -0.031301472 0.193367
-0.11942155 -0.031374276 0.1934088
-0.11941114 -0.031432003 0.1934323
-0.11940725 -0.031510774 0.19346176
-0.11939399 -0.031586904 0.19349313
-0.11938766 -0.031585995 0.19349478
-0.11940765 -0.031411957 0.19342631
-0.11943328 -0.030919943 0.19322853
-0.11944133 -0.030197617 0.1929255
-0.14816561 -0.039412964 0.25590751
-0.14799745 -0.039610188 0.2561183
-0.14788166 -0.039732262 0.25623932
-0.14768976 -0.039900277 0.25638127
-0.14752054 -0.040058501 0.25648099
-0.14730534 -0.040186092 0.25659606
-0.14710136 -0.040278032 0.25668085
-0.146908 -0.040466078 0.25685522
-0.14687371 -0.040714886 0.25709835
-0.14711124 -0.040521327 0.25806788
-0.14763631 -0.040013269 0.25925317
-0.1480545 -0.039686985 0.26074123
-0.14809002 -0.039523769 0.26202017
-0.14784326 -0.039505746 0.2622917
-0.14754952 -0.039720945 0.26125151
-0.14678581 -0.040232975 0.26013151
-0.14605154 -0.040631883 0.25949964
-0.14563285 -0.04077927 0.25932625
-0.14535438 -0.040789194 0.25957677
-0.14516671 -0.040729534 0.25994694
-0.14479318 -0.040635698 0.26061407
-0.14451501 -0.040592425 0.26102796
-0.1445542 -0.040401608 0.26174638
-0.14475814 -0.039890934 0.26280355
-0.14520428 -0.03928227 0.26437697
-0.1453107 -0.038973439 0.26514649
-0.14468788 -0.039274141 0.26439688
-0.14372726 -0.040065777 0.2627641
-0.14274423 -0.040476691 0.26173058
-0.14183976 -0.040756389 0.26106694
-0.14121261 -0.040815849 0.26062837
-0.14029877 -0.040782895 0.26028395
-0.13954313 -0.040618274 0.26016736
-0.13896033 -0.040517904 0.26008472
-0.13821299 -0.04030405 0.25997579
-0.13754685 -0.040000737 0.25997433
-0.13669023 -0.039676491 0.25992474
-0.13518518 -0.039252829 0.2597377
-0.13422899 -0.038989488 0.25961795
-0.13331553 -0.038767669 0.25953931
-0.1327319 -0.038597632 0.25953451
-0.13221446 -0.038468651 0.2595444
-0.13193767 -0.038386498 0.25955316
-0.13154761 -0.038287126 0.25955549
-0.13094586 -0.038114373 0.25957277
-0.13028665 -0.0379471 0.25954714
-0.12941815 -0.037728962 0.25950721
-0.12823084 -0.03738128 0.25940964
-0.12756947 -0.037188794 0.2593312
-0.12693451 -0.037020564 0.25925726
-0.12641321 -0.036891196 0.25924218
-0.12590042 -0.036758829 0.2592195
-0.12560354 -0.036667664 0.25926673
-0.12539063 -0.036631037 0.25929531
-0.12491333 -0.036483094 0.25937957
-0.12417848 -0.036319554 0.25930285
-0.12360875 -0.03621899 0.25919425
-0.050175648 -0.032622211 0.20552573
-0.049974319 -0.032575704 0.20554577
-0.049868464 -0.032568846 0.20556451
-0.049558599 -0.032479662 0.20560126
-0.049204405 -0.03238209 0.205632
-0.04883267 -0.032277588 0.20566562
-0.048402496 -0.032156534 0.20570374
-0.047970124 -0.032043919 0.20574665
-0.047603473 -0.031959303 0.20578967
-0.047228187 -0.031857535 0.20583449
-0.046924759 -0.031781111 0.20587467
-0.046589561 -0.031698532 0.2059184
-0.046243671 -0.031599652 0.20596665
-0.045867439 -0.031497061 0.20601846
-0.045503315 -0.031402387 0.20606703
-0.045139126 -0.031307761 0.20611432
-0.044761542 -0.031202421 0.2061609
-0.044426363 -0.031107903 0.20619984
-0.044061728 -0.031005679 0.20623748
-0.04366906 -0.030895812 0.20627458
-0.043230437 -0.0307693 0.20630366
-0.042830218 -0.030664301 0.20633167
-0.042414133 -0.030552121 0.20635599
-0.041994438 -0.030445319 0.20638491
-0.04157193 -0.030348111 0.20641683
-0.041199598 -0.030244885 0.20644833
-0.040825803 -0.030150991 0.20648493
-0.040374294 -0.030047197 0.20652546
-0.039968286 -0.029940642 0.20655634
-0.039563812 -0.029827794 0.20658889
-0.039186947 -0.029735012 0.20662056
-0.038889434 -0.02964473 0.20665333
-0.038531251 -0.029540822 0.20669375
-0.038142893 -0.029433304 0.20674175
-0.03770873 -0.029323312 0.206798
-0.037286822 -0.029214319 0.20684296
-0.036846314 -0.029101439 0.20688353
-0.036419611 -0.02899342 0.20691399
-0.036007591 -0.02888195 0.20693904
-0.035593119 -0.028781053 0.20696874
-0.035179634 -0.028677132 0.20699619
-0.034781292 -0.02857352 0.20701918
-0.034442529 -0.028488137 0.20703988
-0.034103252 -0.028401865 0.20705105
-0.033740513 -0.028295465 0.2070666
-0.033326067 -0.028186556 0.20707838
-0.032894377 -0.028067559 0.20708007
-0.032509048 -0.027954828 0.20708607
-0.032226562 -0.0278905 0.20709893
-0.031816367 -0.027790679 0.20710981
-0.016901145 -0.039469965 0.26837793
-0.016869824 -0.039600011 0.26843271
-0.016836679 -0.039732341 0.26848862
-0.016827928 -0.03977773 0.26850817
-0.016816299 -0.039822631 0.26852751
-0.016827926 -0.039777733 0.26850817
-0.016827926 -0.039777737 0.26850814
-0.016801815 -0.039866958 0.26854602
-0.016801815 -0.039866958 0.26854607
0.0078170151 -0.030362384 0.2119579
0.0079388022 -0.030577159 0.21199663
0.0080409115 -0.030808538 0.21207899
0.0081921732 -0.031128652 0.21217147
0.0083878366 -0.031530272 0.21228611
0.0085789785 -0.031979878 0.21244118
0.0087433849 -0.032285623 0.21252361
0.0088044824 -0.03234173 0.21252318
0.0088126715 -0.032186076 0.21241751
0.0087533444 -0.031773418 0.21217446
0.010550481 -0.024135627 0.17710346
0.010877362 -0.025131095 0.17336029
0.011069028 -0.025619781 0.17106698
0.011361047 -0.026358811 0.16677655
0.013214212 -0.024960356 0.151187
0.013077737 -0.023916611 0.15057117
0.013024459 -0.023235131 0.15028568
0.013021081 -0.022890961 0.15013005
0.013037169 -0.022643881 0.15000576
0.01305013 -0.022408227 0.14989807
0.013061293 -0.022236886 0.14982459
0.013073001 -0.021966621 0.14969638
0.013115948 -0.021792974 0.14959989
0.013142648 -0.021813981 0.14960155
0.013181467 -0.021821646 0.14959389
0.013218345 -0.022009227 0.14964399
0.013261344 -0.022191904 0.1497253
0.013302439 -0.022652933 0.14991762
0.013383389 -0.023260858 0.15018599
0.013517628 -0.023953198 0.15052101
0.013813031 -0.024532348 0.1508415
0.079895362 -0.045393273 0.30973813
0.079910658 -0.045466993 0.30976209
0.079938225 -0.045491502 0.30977044
0.07993719 -0.045373078 0.30972588
0.079955891 -0.045412064 0.3097378
0.079969406 -0.045412321 0.30974054
0.080007523 -0.04552459 0.30977288
0.080144063 -0.045902532 0.30990434
0.08029855 -0.046404824 0.3100622
0.080358572 -0.046603169 0.31011179
0.15280835 -0.04466901 0.31046674
0.15292735 -0.044887122 0.31041855
0.15303214 -0.045054916 0.31021902
0.15313591 -0.045130834 0.30967382
0.15317897 -0.045023616 0.3090778
0.15318458 -0.044909161 0.30876166
0.15316351 -0.044740822 0.308285
0.15315092 -0.044508636 0.30768043
0.15325798 -0.044661365 0.30736884
0.15333274 -0.044696089 0.30697909
0.15340878 -0.044716928 0.30654755
0.15352282 -0.04483138 0.30614471
0.15357742 -0.044889975 0.30594856
0.1536964 -0.045071524 0.30569527
0.16191295 -0.039261486 0.26766938
0.16188821 -0.039173264 0.26764068
0.16183028 -0.038909312 0.26751435
0.16183025 -0.038909309 0.26751438
-0.11944638 -0.031121226 0.19330008
-0.11944258 -0.03113986 0.19330995
-0.11943414 -0.0311973 0.19333741
-0.11943414 -0.0311973 0.19333743
-0.11942786 -0.031236909 0.19335414
-0.11943018 -0.031216677 0.19334666
-0.1194339 -0.031118311 0.19330576
-0.11943989 -0.03079774 0.1931819
-0.1194327 -0.030358499 0.1930007
-0.14849965 -0.038767263 0.25551611
-0.14830339 -0.038977213 0.25568846
-0.14813483 -0.039137665 0.25586823
-0.14794397 -0.039413497 0.25604296
-0.14780414 -0.039519619 0.2561661
-0.14761029 -0.039706223 0.25632489
-0.14745724 -0.039848074 0.25649345
-0.1486671 -0.038783316 0.26666918
-0.14917186 -0.038725644 0.26787892
-0.14867508 -0.038780227 0.26713711
-0.14815219 -0.038836382 0.26632681
-0.14720307 -0.039133865 0.26404384
-0.14675435 -0.039760847 0.26134387
-0.14617243 -0.040271074 0.26034969
-0.14589284 -0.039551869 0.26214781
-0.14663568 -0.038952723 0.26516569
-0.14721322 -0.038789768 0.26664716
-0.14706804 -0.038700793 0.26753399
-0.14697915 -0.038661845 0.26786101
-0.14705841 -0.038632687 0.26808885
-0.14690992 -0.038575251 0.26893169
-0.14682864 -0.038485967 0.27008995
-0.14694619 -0.038443241 0.27066317
-0.14410384 -0.038572576 0.26645514
-0.14203849 -0.039902523 0.26248351
-0.14071082 -0.04033171 0.26122043
-0.13986935 -0.040353801 0.26067421
-0.13899373 -0.040236793 0.26047137
-0.13845059 -0.040104553 0.26041377
-0.13765295 -0.039866116 0.2603294
-0.13651477 -0.039536595 0.26009658
-0.13497588 -0.039137099 0.25984091
-0.1341414 -0.038910039 0.25980467
-0.13344009 -0.03874445 0.25969017
-0.13275857 -0.03856425 0.25964209
-0.13210553 -0.038403187 0.25964665
-0.13160284 -0.038265474 0.2596741
-0.1311007 -0.038113322 0.25970596
-0.13053574 -0.037963323 0.25969779
-0.12957382 -0.037747946 0.25956127
-0.12837246 -0.037383609 0.25951988
-0.12760036 -0.037180968 0.25938684
-0.12685443 -0.036999259 0.25925136
-0.12630858 -0.036857076 0.25927356
-0.12593575 -0.036739163 0.25929907
-0.12562221 -0.036653407 0.25931913
-0.1253662 -0.036590841 0.2593874
-0.12482596 -0.036442675 0.25942761
-0.12409268 -0.03627627 0.25934711
-0.12354129 -0.036170434 0.25926009
-0.12285058 -0.036065903 0.25919473
-0.12244096 -0.03598379 0.25919297
-0.049092889 -0.032337006 0.20564198
-0.048695873 -0.032224618 0.20567666
-0.04829194 -0.032119263 0.20571564
-0.047914077 -0.032024551 0.20575555
-0.04752481 -0.03192294 0.20580223
-0.04716194 -0.031829413 0.20584869
-0.046854701 -0.031756137 0.20588863
-0.046538796 -0.031668767 0.20593293
-0.046162818 -0.031565469 0.20598443
-0.045786362 -0.03146261 0.20603505
-0.045422278 -0.031367131 0.20608239
-0.045058116 -0.031271689 0.20612828
-0.044665817 -0.031163491 0.2061774
-0.04430126 -0.031058546 0.20621772
-0.043951329 -0.030959476 0.20624772
-0.043541815 -0.030845128 0.20628557
-0.043131229 -0.030730192 0.20630912
-0.042717718 -0.030617526 0.20633489
-0.04232591 -0.030521423 0.20636214
-0.041909039 -0.030407762 0.20638461
-0.041472211 -0.030302344 0.20641759
-0.04108588 -0.030197391 0.20645262
-0.040694498 -0.030104108 0.20649333
-0.040257026 -0.030001571 0.20653377
-0.039850455 -0.029897541 0.20656659
-0.039459489 -0.029792642 0.20659672
-0.039044779 -0.029668184 0.20663188
-0.038655613 -0.029562492 0.20667394
-0.038314879 -0.029450767 0.20670798
-0.037969187 -0.029360944 0.20675564
-0.037564225 -0.029259874 0.20680571
-0.037123919 -0.029154764 0.20685327
-0.03669792 -0.029045003 0.20689055
-0.036301661 -0.028942594 0.20691778
-0.035888966 -0.028832586 0.20694277
-0.035460856 -0.028723886 0.20697196
-0.035047032 -0.028620323 0.20699893
-0.034646016 -0.028524399 0.20702197
-0.03431036 -0.028435431 0.20703892
-0.033928614 -0.028328922 0.20704971
-0.033556037 -0.028239036 0.20705996
-0.033174857 -0.028130027 0.20706983
-0.03277456 -0.028022008 0.2070722
-0.032404769 -0.027918452 0.20707868
-0.032092385 -0.027838018 0.20708902
-0.031651199 -0.027736351 0.20710184
-0.031246988 -0.027634656 0.20711562
-0.030845225 -0.02751183 0.20712334
-0.030405277 -0.027380679 0.20715053
-0.016947059 -0.039302405 0.26830864
-0.016913965 -0.039427932 0.26836044
-0.01690115 -0.039469969 0.26837796
-0.016869826 -0.039600015 0.26843274
-0.016857626 -0.039643534 0.26845118
-0.016842538 -0.039686583 0.26846942
-0.016842538 -0.039686583 0.26846942
-0.016842538 -0.039686583 0.26846936
-0.016801814 -0.03986695 0.26854604
0.0076630921 -0.029977325 0.21182238
0.0077334074 -0.030091183 0.21183477
0.0078287972 -0.030264724 0.21187147
0.007949736 -0.030533167 0.21196941
0.0081248423 -0.030919211 0.21210232
0.0083262073 -0.031322848 0.21221869
0.0084083527 -0.031461347 0.21224281
0.0085274559 -0.031617124 0.21226253
0.0085691912 -0.03158588 0.21222323
0.0086105578 -0.031429436 0.21204127
0.010428427 -0.023827912 0.17824794
0.010643288 -0.02435725 0.17613266
0.010907786 -0.025162721 0.17304453
0.011110227 -0.025762878 0.17048351
0.011409198 -0.026531702 0.16593464
0.01315933 -0.024286494 0.15088768
0.013028212 -0.023311539 0.15038206
0.013003002 -0.022686291 0.150113
0.012995992 -0.02240297 0.14997265
0.013012111 -0.022171158 0.14984426
0.013018496 -0.021965545 0.14975217
0.013034636 -0.021643111 0.14961147
0.013056827 -0.021400355 0.14948864
0.013097159 -0.021232825 0.1493912
0.013115642 -0.021179911 0.14935461
0.013148969 -0.021278059 0.14938897
0.013179856 -0.021439338 0.14943893
0.013215275 -0.021675805 0.14952788
0.013274775 -0.022088388 0.14970228
0.01331115 -0.022745559 0.14999567
0.013425049 -0.023386082 0.15030928
0.079735912 -0.044896077 0.30959004
0.079760492 -0.044918291 0.30959067
0.079774022 -0.04495294 0.30959857
0.079771407 -0.044911053 0.30958521
0.079789758 -0.044914283 0.30958119
0.079787269 -0.044842608 0.3095566
0.07987804 -0.045067936 0.30962387
0.080027603 -0.045524415 0.30977905
0.080184646 -0.045985632 0.30992815
0.15261826 -0.04428215 0.31054181
0.15273108 -0.04446803 0.31041247
0.15283777 -0.044577189 0.30991307
0.1529461 -0.044639412 0.30935279
0.15296511 -0.044538852 0.30899492
0.15301034 -0.044548485 0.30876333
0.15291864 -0.044172581 0.30823389
0.15293255 -0.044052389 0.3076565
0.15294686 -0.044004764 0.3072648
0.15302201 -0.043942355 0.30666
0.15307924 -0.043935489 0.30625167
0.1531114 -0.04393743 0.30598834
0.15319553 -0.044054292 0.30570942
0.16165267 -0.038308814 0.26733953
0.16170442 -0.03849151 0.26740241
0.16166705 -0.038362898 0.26732764
0.16159104 -0.038040895 0.26720762
0.16159104 -0.038040891 0.26720762
-0.11945804 -0.030942302 0.19322985
-0.11945429 -0.030960822 0.19324061
-0.11944684 -0.030997464 0.19326191
-0.11943824 -0.030956712 0.19324785
-0.1194476 -0.030879894 0.1932089
-0.1194434 -0.030817855 0.19318901
-0.1194399 -0.03079774 0.1931819
-0.11943582 -0.030678999 0.19313405
-0.14874046 -0.038118932 0.25524721
-0.14853191 -0.038393892 0.25542578
-0.14832504 -0.038629476 0.25560555
-0.14814284 -0.038855668 0.25575814
-0.14794227 -0.039133262 0.2559875
-0.14780264 -0.03926963 0.25606927
-0.15205319 -0.038508967 0.27236098
-0.15045814 -0.038629115 0.2700524
-0.1494341 -0.03869294 0.26838633
-0.1481522 -0.038836386 0.26632679
-0.14696454 -0.039080527 0.26428863
-0.14640148 -0.039318338 0.26252282
-0.14786431 -0.038724218 0.26758796
-0.14884305 -0.038464583 0.27232692
-0.14819065 -0.038478576 0.27137095
-0.14789788 -0.038454816 0.27147871
-0.14800982 -0.038301457 0.27401009
-0.14367631 -0.038358826 0.26861107
-0.14270194 -0.038445693 0.26662228
-0.14111367 -0.03870704 0.26495495
-0.13987558 -0.039364699 0.26273838
-0.13890763 -0.039789051 0.26118949
-0.13773276 -0.039686598 0.26065773
-0.13685511 -0.039517909 0.26044169
-0.13577922 -0.039240312 0.2602177
-0.13455862 -0.038955528 0.26001894
-0.13370682 -0.038736876 0.25993624
-0.13299015 -0.038549509 0.25992393
-0.13218376 -0.038347807 0.25988385
-0.13145047 -0.038165104 0.25983334
-0.13089347 -0.038034745 0.25975454
-0.12996241 -0.037785124 0.25973561
-0.12877052 -0.037489213 0.25959599
-0.12763347 -0.037171289 0.25945255
-0.12696584 -0.036996216 0.25931945
-0.12628199 -0.036841523 0.25930282
-0.12585559 -0.036723528 0.25929818
-0.12560761 -0.036635205 0.25938255
-0.12513891 -0.036511112 0.25946647
-0.1246397 -0.036373306 0.25945184
-0.12397724 -0.036244348 0.25936326
-0.12331986 -0.036105327 0.25926998
-0.12298878 -0.036073901 0.25923523
-0.12239297 -0.035947528 0.25924334
-0.12211318 -0.035864867 0.25927445
-0.12196656 -0.035805568 0.25939083
-0.12252917 -0.035841919 0.25973085
-0.048205309 -0.032092895 0.20572655
-0.047821034 -0.031988394 0.20577353
-0.047444522 -0.031892337 0.20581914
-0.047134608 -0.031820241 0.20585679
-0.04681965 -0.031732928 0.20590241
-0.046444453 -0.031631086 0.20595413
-0.046067964 -0.031528205 0.20600565
-0.045676809 -0.031421904 0.20605733
-0.045298383 -0.031321444 0.2061055
-0.044920761 -0.031219423 0.20615233
-0.044555929 -0.03112096 0.20619567
-0.044191621 -0.031014541 0.20622911
-0.043841217 -0.030915335 0.20626004
-0.043405879 -0.030784698 0.20628566
-0.043018598 -0.030686257 0.20631419
-0.042601846 -0.030576028 0.20634125
-0.04218423 -0.030463375 0.20636499
-0.041775707 -0.030366797 0.20639154
-0.041398499 -0.030275073 0.20642184
-0.041010384 -0.030176414 0.20645946
-0.040606659 -0.030077394 0.20649962
-0.040184435 -0.029970378 0.20653793
-0.039749492 -0.02985318 0.20657437
-0.039359204 -0.029748874 0.20660655
-0.038958378 -0.029631445 0.20663968
-0.038513187 -0.029501211 0.20668019
-0.03809635 -0.029377932 0.20672762
-0.037766024 -0.029281678 0.20677143
-0.037384909 -0.029203396 0.20681915
-0.036991678 -0.029094782 0.20685516
-0.036594637 -0.029001944 0.20689505
-0.036197804 -0.028899448 0.20692173
-0.035786878 -0.028781611 0.20694418
-0.035389449 -0.02867285 0.20696665
-0.034959503 -0.028569441 0.20699456
-0.03453093 -0.028465588 0.20701951
-0.034160588 -0.028381078 0.20703462
-0.03381053 -0.028278157 0.20704544
-0.033439122 -0.028188765 0.20705485
-0.03305991 -0.028077317 0.2070602
-0.032660201 -0.027966531 0.2070623
-0.032307431 -0.027861651 0.20706509
-0.031946715 -0.027780078 0.20707157
-0.031554244 -0.027692016 0.20708738
-0.031099159 -0.027560454 0.20709959
-0.030718585 -0.027454764 0.20712194
-0.030320536 -0.027345903 0.20715034
-0.029909475 -0.027208732 0.20715581
-0.029573627 -0.027114524 0.20717824
-0.016977459 -0.039224513 0.26827735
-0.016947059 -0.039302409 0.26830864
-0.016930595 -0.039342422 0.26832491
-0.016913965 -0.039427932 0.26836047
-0.016901148 -0.039469969 0.26837796
-0.016885394 -0.039511546 0.26839519
-0.016857622 -0.039643537 0.26845112
-0.016842537 -0.039686576 0.26846939
-0.016842537 -0.039686583 0.2684693
0.0074752374 -0.029538503 0.21168905
0.0075489217 -0.029643444 0.21168348
0.0076430133 -0.029780863 0.21168733
0.0077301846 -0.029932078 0.21171032
0.0078607537 -0.030212067 0.21179688
0.007983624 -0.030474834 0.21188751
0.0081147617 -0.030728871 0.21195945
0.0081738187 -0.030644018 0.21182746
0.0082644941 -0.030732052 0.21182103
0.010283634 -0.023467874 0.17969814
0.010539054 -0.024110405 0.17721154
0.010877362 -0.025131097 0.1733603
0.011110229 -0.025762884 0.17048353
0.013198663 -0.024762755 0.15159453
0.013056693 -0.023492308 0.15058698
0.012984917 -0.022634402 0.15015173
0.012957935 -0.022069858 0.14989682
0.012962846 -0.021867445 0.14977428
0.012962456 -0.021579951 0.14962716
0.012970711 -0.021296982 0.14950119
0.012986854 -0.021010311 0.14936462
0.013007796 -0.020847298 0.14926735
0.013023953 -0.020750105 0.14921799
0.013049877 -0.020831803 0.14925006
0.013098328 -0.020956768 0.14928932
0.013147136 -0.021161094 0.14934732
0.013180163 -0.02134487 0.14942366
0.013260065 -0.021851556 0.14962451
0.013306676 -0.02237149 0.1498592
0.013373346 -0.022844862 0.15007249
0.079591289 -0.044455241 0.30947742
0.079641059 -0.044549897 0.30949587
0.079638958 -0.04450883 0.30948266
0.079620861 -0.044427384 0.30945349
0.079649985 -0.044458229 0.30945799
0.079685681 -0.044531789 0.30947351
0.079726577 -0.044649057 0.30950308
0.079775222 -0.044764437 0.30953056
0.07992705 -0.045148108 0.30965289
0.080033146 -0.045458853 0.30975732
0.15245627 -0.043974537 0.31065887
0.15258758 -0.044174589 0.31038928
0.15267706 -0.044225734 0.30986884
0.15277684 -0.044255864 0.30929357
0.1527884 -0.044175468 0.30904588
0.15276384 -0.044004321 0.30871812
0.15271272 -0.043700818 0.30824247
0.15273261 -0.043633476 0.30766457
0.15269278 -0.043396451 0.30701509
0.15276231 -0.043407772 0.30658013
0.15273212 -0.04324213 0.30618063
0.15279894 -0.04329684 0.3059144
0.16138092 -0.03729539 0.26697481
0.16143623 -0.037477415 0.2670432
0.16141103 -0.037390143 0.26699704
0.16136672 -0.037253022 0.26694345
0.16130531 -0.03702604 0.26683885
-0.11946136 -0.030760145 0.19316117
-0.11945748 -0.030778479 0.1931725
-0.11945271 -0.030718874 0.19314617
-0.11945348 -0.030598221 0.19309723
-0.11944784 -0.030479439 0.19304529
-0.11944161 -0.030417562 0.19302405
-0.11943981 -0.030377066 0.1930071
-0.1194368 -0.03039757 0.1930166
-0.14894691 -0.037615314 0.25506687
-0.14875278 -0.037846312 0.25517553
-0.14858088 -0.038129427 0.25536406
-0.1483741 -0.038375575 0.25554135
-0.14815082 -0.038613614 0.25571921
-0.15559776 -0.038323786 0.27856073
-0.15284133 -0.038479242 0.27408406
-0.15054521 -0.038632605 0.27021921
-0.14936449 -0.038698949 0.26832858
-0.14842525 -0.038773082 0.26724452
-0.14792502 -0.038753998 0.26736921
-0.15492424 -0.038273506 0.2811366
-0.1543636 -0.038217507 0.28131491
-0.15079229 -0.038237061 0.27762628
-0.14945199 -0.038228661 0.27655491
-0.14190046 -0.038121827 0.26960048
-0.14068066 -0.038225453 0.26716608
-0.13871221 -0.03864583 0.2643463
-0.13716671 -0.038929123 0.26206526
-0.13606241 -0.039121583 0.26097575
-0.13556449 -0.039039984 0.26074755
-0.13461415 -0.038827088 0.26054171
-0.13346618 -0.038565129 0.2602523
-0.13258985 -0.038355794 0.26016185
-0.13164374 -0.03812436 0.26009187
-0.13062255 -0.037894771 0.25995365
-0.12944542 -0.037623703 0.25979254
-0.12814127 -0.037266783 0.25966287
-0.12712052 -0.037007533 0.25949532
-0.12659442 -0.03685214 0.25947905
-0.1259495 -0.036701251 0.25943711
-0.1256101 -0.036613248 0.25946951
-0.12500426 -0.036458451 0.25947079
-0.1246397 -0.03637331 0.2594519
-0.12393589 -0.036231156 0.2593601
-0.12337079 -0.036102794 0.25931698
-0.12316333 -0.036081266 0.25931266
-0.1227024 -0.035944298 0.25943863
-0.12212092 -0.035836246 0.25937369
-0.12115858 -0.035622448 0.25923246
-0.12039997 -0.035459898 0.25906426
-0.11973997 -0.035348427 0.25885728
-0.11937777 -0.035256498 0.25878152
-0.11973614 -0.035281278 0.25904313
-0.12050706 -0.035388913 0.25947952
-0.11656052 -0.03449199 0.25884134
-0.11422275 -0.033997882 0.25829658
-0.11270954 -0.033776507 0.25800902
-0.1123874 -0.033644039 0.25815633
-0.11255488 -0.033667039 0.25820369
-0.11269464 -0.03363141 0.25831473
-0.046694957 -0.031691507 0.20592828
-0.046349958 -0.031594642 0.20597546
-0.045946218 -0.031481422 0.20603029
-0.045568611 -0.031378709 0.20607929
-0.045175102 -0.031278826 0.20612779
-0.044757213 -0.031159356 0.20617169
-0.04437096 -0.031035719 0.2062099
-0.04401106 -0.030920301 0.20623417
-0.043651503 -0.030828765 0.2062666
-0.043267928 -0.030728031 0.20628908
-0.042906005 -0.030643126 0.20631731
-0.042460274 -0.030519731 0.20634547
-0.042022802 -0.030410035 0.20637193
-0.041659292 -0.030322831 0.20639598
-0.041254804 -0.030219808 0.20642771
-0.040866956 -0.030120835 0.20646757
-0.040475193 -0.030032242 0.20650938
-0.040098611 -0.029931622 0.20654523
-0.039706394 -0.029833524 0.20657745
-0.039278086 -0.029701557 0.20661128
-0.038818832 -0.029564708 0.20664649
-0.038413778 -0.029456418 0.20668757
-0.038022421 -0.029348619 0.20673703
-0.037647005 -0.029244034 0.2067824
-0.037282068 -0.029160982 0.20682515
-0.036915682 -0.029067818 0.20685977
-0.036462214 -0.028946389 0.206899
-0.036064904 -0.028843481 0.206926
-0.035667617 -0.028735343 0.20695008
-0.035284299 -0.02863807 0.20697328
-0.03487109 -0.028534453 0.20699805
-0.034442827 -0.028424835 0.20701869
-0.034059882 -0.028327858 0.20703112
-0.033631645 -0.028212653 0.2070317
-0.033309318 -0.028128639 0.20704591
-0.032897409 -0.028012309 0.20704688
-0.032558721 -0.027914934 0.20705031
-0.032186303 -0.027822001 0.20705138
-0.031799119 -0.027722802 0.20705895
-0.031356201 -0.027606869 0.2070733
-0.030999495 -0.027518129 0.20709848
-0.030618306 -0.027413366 0.20712185
-0.030264717 -0.027316121 0.20714831
-0.029823707 -0.027173869 0.20715909
-0.029469332 -0.027075458 0.20718278
-0.02922258 -0.027010432 0.20720083
-0.028978147 -0.026954437 0.20722917
-0.028689262 -0.026899163 0.207261
-0.028338704 -0.026814274 0.20728709
-0.027957026 -0.026693672 0.20729432
-0.017044866 -0.039032407 0.26819128
-0.016988119 -0.039183334 0.26826176
-0.016960567 -0.039262045 0.26829275
-0.016960569 -0.039262049 0.26829281
-0.016947059 -0.039302416 0.2683087
-0.016930597 -0.039342422 0.26832494
-0.016913965 -0.039427929 0.26836047
-0.016885394 -0.039511543 0.26839516
-0.016842538 -0.039686564 0.26846933
-0.016828211 -0.03972001 0.26850393
0.0072288243 -0.028949393 0.21148156
0.0073497249 -0.029151777 0.21152428
0.0074455133 -0.029318351 0.21155305
0.0075363298 -0.029463988 0.21157067
0.0076436731 -0.029672781 0.21161708
0.0077193226 -0.029779663 0.21162361
0.0077732773 -0.029806741 0.21159744
0.0078050452 -0.029658664 0.21141534
0.0078790318 -0.029588964 0.21130912
0.010176785 -0.023285862 0.18055907
0.010432671 -0.023793051 0.17823717
0.010860584 -0.025084248 0.17351055
0.011125453 -0.02578268 0.17034204
0.013160597 -0.023912525 0.15096062
0.012970288 -0.022665631 0.15024655
0.01291155 -0.021765148 0.14981031
0.012900623 -0.021304609 0.14957382
0.012904186 -0.021101996 0.14947407
0.012911603 -0.020841319 0.14933409
0.012928048 -0.020608518 0.14922011
0.012935085 -0.020423567 0.14912954
0.012940021 -0.020422153 0.14912701
0.012957538 -0.020477807 0.14914438
0.012991786 -0.020588793 0.1491762
0.013040247 -0.020755552 0.14922595
0.013107133 -0.021007206 0.14931682
0.013169683 -0.021343749 0.14944109
0.013227947 -0.02170459 0.14960404
0.013298199 -0.022055885 0.14974239
0.013337453 -0.022269115 0.14983442
0.07955128 -0.044297274 0.30943739
0.079541303 -0.044209275 0.30940408
0.079577118 -0.044270955 0.30941674
0.079558127 -0.044191465 0.30938217
0.079571836 -0.044225972 0.30938876
0.079621568 -0.04434054 0.30941418
0.079668261 -0.044454284 0.30944681
0.079726882 -0.04461452 0.30949533
0.079807661 -0.044732023 0.30953106
0.15228911 -0.043560956 0.31051466
0.15242963 -0.043816451 0.31033579
0.15249911 -0.043818779 0.30982724
0.15256059 -0.043774385 0.30926323
0.15260826 -0.043786485 0.30904511
0.1525764 -0.043644447 0.30881619
0.15252887 -0.043371242 0.30844536
0.15238056 -0.042870447 0.30754101
0.15239017 -0.042765986 0.30685091
0.15248145 -0.042853128 0.30657384
0.15250356 -0.042821053 0.30629382
0.15261744 -0.042997375 0.30610502
0.16101179 -0.036060601 0.26650834
0.16106957 -0.03625109 0.26659489
0.16122073 -0.036707904 0.26674014
0.1612263 -0.036698904 0.26673454
0.16111672 -0.036398128 0.26662067
0.16107181 -0.036203727 0.26655963
-0.1194702 -0.03056078 0.19307552
-0.11946613 -0.030579055 0.19308756
-0.11945861 -0.030519525 0.19305971
-0.11945058 -0.030296566 0.19296822
-0.11944916 -0.030196067 0.19292548
-0.11944944 -0.030092552 0.19288659
-0.1194457 -0.030071961 0.19288026
-0.1194457 -0.030071959 0.19288026
-0.14937025 -0.036892008 0.25480756
-0.14920774 -0.03710334 0.25487006
-0.14902896 -0.037367653 0.25500336
-0.1488568 -0.037542112 0.25510782
-0.14864589 -0.037841052 0.25531688
-0.14842467 -0.038117517 0.2555474
-0.15882945 -0.038045894 0.28436175
-0.1560531 -0.03828758 0.2796419
-0.15284133 -0.038479239 0.27408406
-0.15106906 -0.038564954 0.27153838
-0.15109827 -0.038555473 0.27166438
-0.15652843 -0.03819244 0.28275949
-0.15844473 -0.037931044 0.28578216
-0.15824634 -0.037921436 0.28625378
-0.15797941 -0.037920602 0.28599399
-0.16221753 -0.037521388 0.29584494
-0.14348328 -0.037579551 0.27836812
-0.14302883 -0.037649967 0.27747485
-0.14247578 -0.037714873 0.27599832
-0.14162315 -0.037884448 0.2730144
-0.14078195 -0.037927624 0.27102178
-0.1367529 -0.038254287 0.26432163
-0.13540542 -0.038485926 0.26236424
-0.1343109 -0.038478807 0.26143211
-0.13350871 -0.038362306 0.26100513
-0.13190605 -0.038076129 0.2604239
-0.13045897 -0.037792969 0.26013732
-0.12944388 -0.037549324 0.26001334
-0.12813021 -0.037202619 0.25986731
-0.1273797 -0.037006568 0.25977069
-0.12663016 -0.03681482 0.25969473
-0.12603179 -0.036663022 0.25971684
-0.12535587 -0.036509801 0.25964892
-0.12471732 -0.036348928 0.2596209
-0.12416138 -0.036250442 0.25947574
-0.12373707 -0.036142442 0.25946829
-0.12333775 -0.036065698 0.25943732
-0.122782 -0.035957895 0.25944388
-0.1222776 -0.03584668 0.25943503
-0.12132643 -0.035650924 0.25929415
-0.12048317 -0.035477601 0.25907758
-0.11999167 -0.035371501 0.25898683
-0.11944941 -0.035250448 0.25885841
-0.11919033 -0.035184074 0.25886223
-0.11873685 -0.035064597 0.25876251
-0.11838771 -0.034981139 0.25873017
-0.11799747 -0.034873627 0.25869918
-0.11753909 -0.034778599 0.25862646
-0.11726905 -0.034710299 0.25861719
-0.11692306 -0.034617443 0.25861228
-0.11633252 -0.034492023 0.25850132
-0.1153205 -0.034260206 0.25837371
-0.11374307 -0.033944007 0.25810793
-0.11290128 -0.033801168 0.25802711
-0.11222779 -0.033634908 0.25807926
-0.11200859 -0.033581536 0.25812277
-0.11210638 -0.033588581 0.25817704
-0.11192487 -0.033520386 0.25828561
-0.11117627 -0.0333593 0.25827506
-0.04543044 -0.031325672 0.20610121
-0.044917252 -0.03117056 0.20614411
-0.044447374 -0.031027082 0.20618847
-0.044066854 -0.030916855 0.2062203
-0.043725483 -0.030821536 0.20624682
-0.043503448 -0.0307664 0.20626819
-0.043168876 -0.030689491 0.2062961
-0.042751987 -0.030578101 0.2063223
-0.042313877 -0.030473048 0.20635234
-0.041906465 -0.030368406 0.20637685
-0.041500766 -0.030262347 0.20640345
-0.041112892 -0.030162074 0.20643516
-0.04079432 -0.030093275 0.20647171
-0.040416114 -0.03000791 0.20651364
-0.040072415 -0.029911976 0.20654424
-0.039667714 -0.029804725 0.206579
-0.039220363 -0.029676072 0.20661809
-0.038789388 -0.029551232 0.20665145
-0.038356181 -0.029428713 0.20669585
-0.037937835 -0.029305503 0.20674147
-0.037588418 -0.029220879 0.20678642
-0.037194442 -0.029116545 0.20682617
-0.036799699 -0.029015208 0.20686355
-0.036388911 -0.028914746 0.20690142
-0.035932291 -0.028788747 0.20692952
-0.035566024 -0.028689163 0.2069501
-0.035168305 -0.028584585 0.20697309
-0.034755323 -0.028480742 0.20699766
-0.034340471 -0.028380163 0.20701729
-0.033914715 -0.028261641 0.20702659
-0.033558082 -0.028176997 0.20702958
-0.03319294 -0.028069826 0.20702966
-0.032823816 -0.027966285 0.20703946
-0.032427385 -0.027851133 0.20703575
-0.032026682 -0.02775133 0.20703983
-0.031653609 -0.027667798 0.20705193
-0.031266686 -0.027572986 0.20707591
-0.030924352 -0.027493272 0.20710452
-0.030526374 -0.027387751 0.20713156
-0.03010037 -0.027243869 0.20713609
-0.029732063 -0.027145017 0.20716417
-0.029408352 -0.02705615 0.207187
-0.029130464 -0.026978398 0.2072037
-0.028883688 -0.026911331 0.20721787
-0.028622432 -0.026854247 0.20724741
-0.028283041 -0.026755771 0.20726617
-0.027705649 -0.02657463 0.20728108
-0.027253626 -0.026417457 0.20728354
-0.02677366 -0.026236752 0.20728914
-0.026313275 -0.026052967 0.20727576
-0.025958721 -0.025940854 0.20730747
-0.025613753 -0.02582173 0.20733738
-0.017089223 -0.038922753 0.26813579
-0.017027335 -0.039066471 0.26821265
-0.01699567 -0.03914167 0.268246
-0.016995674 -0.039141677 0.26824602
-0.01697107 -0.039221324 0.26827738
-0.016960567 -0.039262049 0.26829284
-0.016930593 -0.039342418 0.26832491
-0.016913965 -0.039427929 0.26836041
-0.016885392 -0.039511535 0.26839513
-0.016870985 -0.039544746 0.26843008
0.0069345036 -0.028335242 0.21129727
0.0071051 -0.028604826 0.21135069
0.0072148563 -0.028797304 0.21140595
0.0073506711 -0.029041726 0.2114512
0.0074425279 -0.029184831 0.21147037
0.0074613793 -0.029119054 0.21135545
0.0073974775 -0.028740741 0.21110877
0.0072785616 -0.027994905 0.21046403
0.010059009 -0.022939229 0.18156074
0.010145535 -0.023160988 0.18081395
0.010432671 -0.023793051 0.17823717
0.010860585 -0.02508425 0.17351057
0.013007867 -0.022997482 0.1505309
0.01288411 -0.021755168 0.14986369
0.012845082 -0.020914732 0.14944021
0.012834149 -0.020585554 0.14927475
0.012846175 -0.020464376 0.14920412
0.012853242 -0.020165004 0.14905506
0.01281939 -0.020011188 0.14899217
0.012818231 -0.019968502 0.14896765
0.012847432 -0.020030351 0.14898591
0.012887446 -0.020148749 0.14902966
0.012942482 -0.020377459 0.14910509
0.012999185 -0.020584891 0.14918178
0.013081234 -0.020902008 0.1492922
0.013143963 -0.021249538 0.14944372
0.013217679 -0.021677995 0.14962156
0.013280232 -0.021935474 0.14972875
0.013313791 -0.022008108 0.14974442
0.079447001 -0.04390033 0.30934617
0.079494752 -0.043994635 0.30935842
0.079494029 -0.043985613 0.30933759
0.079528898 -0.044088319 0.30935901
0.079556316 -0.044155829 0.3093707
0.07959681 -0.044307183 0.30941573
0.079678304 -0.044396725 0.30943948
0.079715721 -0.044475481 0.30945623
0.07980597 -0.044627104 0.30949959
0.15200995 -0.042922944 0.31044278
0.15213668 -0.043168731 0.31031269
0.15222843 -0.043274723 0.31000012
0.1523383 -0.043399788 0.30962852
0.15241218 -0.043406066 0.30919713
0.15241842 -0.043351762 0.30902979
0.15241149 -0.043298423 0.30889773
0.15212595 -0.042139761 0.30684364
0.15221827 -0.042318482 0.30663398
0.15230523 -0.042408645 0.30631185
0.16066433 -0.034998573 0.26613814
0.16083659 -0.035534713 0.26632771
0.16098899 -0.035938285 0.266473
0.16097371 -0.035893269 0.26644537
0.16092612 -0.03575924 0.26640964
0.16089606 -0.035653267 0.26636577
-0.11946969 -0.030358423 0.19299178
-0.11946548 -0.030376634 0.19300462
-0.11945824 -0.030297644 0.19296578
-0.11945697 -0.030173322 0.19292025
-0.11945191 -0.030032352 0.19286093
-0.11945035 -0.029871408 0.19280359
-0.11944613 -0.029851004 0.19279885
-0.14973271 -0.036144454 0.25441292
-0.14954244 -0.036427047 0.25455773
-0.14931723 -0.036684137 0.25471821
-0.14911522 -0.037030939 0.25493473
-0.14885031 -0.03741074 0.25520426
-0.14870255 -0.037566453 0.2553488
-0.16163753 -0.037404183 0.29094678
-0.16050363 -0.037712105 0.28768966
-0.15853932 -0.03803762 0.28416634
-0.15611656 -0.03827003 0.27980009
-0.15420605 -0.038422145 0.27658799
-0.15355194 -0.03845612 0.27630603
-0.15506104 -0.038320236 0.27963343
-0.15718676 -0.038046602 0.28379065
-0.15912825 -0.037788879 0.28692946
-0.15999591 -0.037694443 0.28838149
-0.16025883 -0.037746288 0.28967437
-0.16088307 -0.03760355 0.29090351
-0.16183905 -0.037516501 0.29414997
-0.16247915 -0.03743054 0.29852605
-0.16232651 -0.03714709 0.30150071
-0.16211535 -0.037287362 0.30074736
-0.16202086 -0.037479494 0.29931784
-0.16193491 -0.037495404 0.29830393
-0.14647564 -0.037348196 0.2833721
-0.14423168 -0.037253983 0.28231466
-0.14311217 -0.037183333 0.28156075
-0.14257352 -0.037220553 0.28068605
-0.14229946 -0.037300255 0.2795774
-0.14196207 -0.037342526 0.27870429
-0.14146498 -0.037422981 0.27740383
-0.14098132 -0.037461761 0.27639091
-0.13603792 -0.037400793 0.2670542
-0.13435334 -0.03779269 0.26383343
-0.13296904 -0.038075484 0.26153564
-0.13147449 -0.037805721 0.26087719
-0.13006857 -0.037540093 0.26052463
-0.12912509 -0.037344769 0.26033062
-0.12834759 -0.037155375 0.26021188
-0.12745693 -0.036937393 0.2600894
-0.12648244 -0.036709897 0.25990814
-0.12543438 -0.036476061 0.25985825
-0.12482326 -0.036322601 0.25981289
-0.12429737 -0.03621785 0.25972784
-0.12386243 -0.036107685 0.2596949
-0.12359868 -0.036032833 0.25971788
-0.12258573 -0.035878051 0.25959229
-0.12172942 -0.035707414 0.259431
-0.12085684 -0.035522576 0.25928327
-0.12021329 -0.03540295 0.25909951
-0.11985849 -0.035295758 0.25906739
-0.1195811 -0.035232835 0.25900856
-0.11895804 -0.03508988 0.25889677
