# .PCD v0.7 - Point Cloud Data file format
VERSION 0.7
FIELDS x y z
SIZE 4 4 4
TYPE F F F
COUNT 1 1 1
WIDTH 1346
HEIGHT 1
VIEWPOINT 0 0 0 1 0 0 0
POINTS 1346
DATA ascii
-0.063467689 -0.036401726 0.14508434
-0.063309245 -0.036299437 0.14510328
-0.063156396 -0.036186069 0.14511456
-0.062993079 -0.036105022 0.14514926
-0.06285724 -0.036137883 0.1452108
-0.062738739 -0.036243748 0.14530954
-0.062625431 -0.036359672 0.14540637
-0.062503844 -0.036453158 0.14549415
-0.062410656 -0.036635119 0.14560854
-0.0051472881 -0.070848987 0.26391223
-0.0051572872 -0.07037691 0.26376167
-0.0051315762 -0.070236005 0.26372084
-0.0051380829 -0.070169255 0.26369435
-0.0051385909 -0.070101686 0.26366973
-0.0051228255 -0.070167221 0.26369801
-0.0051287222 -0.070201464 0.26370832
-0.0051131337 -0.070372194 0.26377621
-0.0051131342 -0.070372194 0.26377615
0.032148942 -0.082368821 0.31505087
0.032148942 -0.082368806 0.31505087
0.032146908 -0.082321197 0.31504193
0.032146905 -0.082321197 0.31504193
0.032146908 -0.082321197 0.31504193
0.032160889 -0.082463905 0.31506303
0.083440349 -0.074091643 0.28702199
0.083597265 -0.074189901 0.28688347
0.083739214 -0.07418552 0.28671241
0.083933011 -0.074133769 0.28646022
0.084100135 -0.073831566 0.2860952
0.084331185 -0.073616244 0.28572446
0.084530123 -0.073435664 0.28542465
0.084734686 -0.073292799 0.28513008
0.084932402 -0.073131822 0.28483018
0.085151643 -0.073080175 0.28455895
0.085348971 -0.07287813 0.2842446
0.08560171 -0.072759159 0.28393286
0.08582662 -0.072636634 0.28364712
0.086034276 -0.072585098 0.2834065
0.086294696 -0.072607599 0.28315586
0.086521313 -0.072462671 0.28285664
0.086831674 -0.072190374 0.2824043
0.087281235 -0.072166041 0.28194875
0.087722883 -0.072052702 0.28144091
0.088131018 -0.072010964 0.28100762
0.088476494 -0.071939848 0.28062245
0.088785157 -0.07192222 0.28029683
0.089170553 -0.071945168 0.27988127
0.092675626 -0.071332663 0.27523589
0.092918128 -0.071292579 0.27489161
0.093283959 -0.071228817 0.27434635
0.093593903 -0.071144484 0.27386874
0.096842796 -0.069442861 0.267768
0.097056583 -0.069445819 0.26741341
0.098411947 -0.067664601 0.26328906
0.098580495 -0.067532152 0.26284504
0.098755531 -0.067359053 0.26237443
0.09890534 -0.06681633 0.26160491
0.099165268 -0.066070475 0.26038355
0.099478833 -0.065753125 0.25942951
0.099810742 -0.065286815 0.25835624
0.10021738 -0.06471578 0.25711936
0.10044517 -0.064638294 0.25665352
0.10067549 -0.064627245 0.25623408
0.10096279 -0.064371362 0.25551328
0.10150018 -0.063786283 0.25412786
0.1020105 -0.063212276 0.25291526
0.10251055 -0.062890567 0.2519407
0.10292965 -0.06238294 0.25101638
0.10318456 -0.06232807 0.25060606
0.10339603 -0.062391538 0.25033221
0.10362755 -0.062625423 0.25012404
0.10378712 -0.062748007 0.24996133
0.1040165 -0.06284456 0.24966979
0.10429581 -0.062725879 0.24919097
0.10464118 -0.062588915 0.2486176
0.10497165 -0.062512882 0.24811909
0.105276 -0.06244323 0.24764867
0.10562171 -0.062388979 0.24713333
0.10591451 -0.062359978 0.2467047
0.10614743 -0.062320583 0.24635467
0.10638769 -0.062336471 0.24600931
0.10666218 -0.062355336 0.24561307
0.1069027 -0.062354375 0.2452554
0.10713386 -0.062318329 0.24490511
0.10739931 -0.062226683 0.2444896
0.10766196 -0.062167674 0.24409907
0.10790314 -0.062145308 0.24375385
0.10819596 -0.062123835 0.24334207
0.10849635 -0.062012982 0.24288382
0.10879107 -0.061901022 0.2424282
0.10909608 -0.061752111 0.24192193
0.10940354 -0.0616167 0.24141279
0.10968205 -0.061470881 0.24095388
0.10995559 -0.06145804 0.24057132
0.11021309 -0.061375376 0.24018963
0.110466 -0.061306968 0.23981538
0.11074714 -0.061246753 0.23939568
0.11104356 -0.061171096 0.23894952
0.11135039 -0.061070181 0.2384873
0.1116401 -0.060959961 0.23806098
0.11190985 -0.06087213 0.23766591
0.11219732 -0.060692064 0.23720706
0.1125214 -0.060417082 0.23665297
0.11282925 -0.060221966 0.23616704
0.11317076 -0.059994467 0.23563369
0.11349434 -0.059854645 0.23517595
0.11381952 -0.059576686 0.23465277
0.11414984 -0.059318032 0.23412947
0.1144649 -0.059136372 0.23365651
0.11469047 -0.059117101 0.23337086
0.11498222 -0.059068058 0.23298675
0.11526076 -0.058928613 0.23256901
0.1155673 -0.058736514 0.23208621
0.11587033 -0.058463182 0.23155934
0.11616658 -0.05833384 0.23111893
0.11640693 -0.058358036 0.2308363
0.11668284 -0.058325928 0.23049766
0.11692588 -0.058313269 0.2302267
0.11718012 -0.058305103 0.22995327
0.11746508 -0.058160868 0.22957718
0.11770429 -0.058017027 0.22926888
0.11796038 -0.057894088 0.2289494
0.11817998 -0.057812408 0.22870964
0.11834388 -0.057819773 0.22854762
0.11855749 -0.057758778 0.22835569
0.11870958 -0.057765674 0.2282294
0.11886787 -0.057800267 0.22811179
0.11903099 -0.057763401 0.22794323
0.11920159 -0.057644911 0.22773533
0.1193647 -0.057544265 0.22756106
0.11952753 -0.057350446 0.22733262
0.11970903 -0.057109203 0.22706711
0.11986914 -0.056772944 0.2267893
0.12000244 -0.056566335 0.22658277
0.12015554 -0.056433696 0.22639446
0.12033163 -0.056224141 0.22615829
0.12048516 -0.055938579 0.22588755
0.12061667 -0.055632841 0.22560987
0.12073871 -0.05529217 0.22531731
0.12087714 -0.055229977 0.2251897
0.12103292 -0.055417545 0.22518919
0.12124178 -0.055974588 0.22541134
0.12161089 -0.056883994 0.22576469
0.12213702 -0.058080219 0.22622614
0.12329262 -0.059537444 0.22681567
0.12559079 -0.060396668 0.2280817
0.12868434 -0.060277767 0.2297336
0.14031908 -0.061272066 0.24140304
0.14229764 -0.061985359 0.24335435
0.14417231 -0.062345594 0.2450342
0.14504841 -0.062437046 0.24573848
0.14556104 -0.062471949 0.24613576
0.14619078 -0.062478665 0.24660018
0.14682788 -0.062616117 0.24710461
0.14749002 -0.062669337 0.24757224
0.14821669 -0.062764429 0.24808167
0.14932287 -0.062878571 0.24876076
0.15092391 -0.063014507 0.24947053
0.15201369 -0.063191362 0.24990197
0.15299504 -0.063445851 0.25028163
0.15372173 -0.063759059 0.25057781
0.15428737 -0.064103842 0.25086766
0.15474102 -0.064273097 0.25107917
0.1551314 -0.064359166 0.25123554
0.15542069 -0.06451638 0.2513898
0.15568583 -0.064596631 0.2514919
0.15593164 -0.064650148 0.25157869
0.1561639 -0.06477911 0.25167266
0.15634589 -0.064933583 0.25176874
0.15648922 -0.064907156 0.25179815
0.15659335 -0.064783663 0.25177339
0.15653574 -0.0644942 0.25165668
0.15653145 -0.064248167 0.25157231
0.15655334 -0.063956246 0.25148699
0.15657572 -0.06375768 0.25142929
0.15666388 -0.063664198 0.25141546
0.15680838 -0.063573346 0.25141197
0.15694018 -0.063562281 0.25143677
0.15715387 -0.063602425 0.25147298
-0.073017381 -0.037203465 0.13974239
-0.072779089 -0.037175469 0.13988349
-0.072544038 -0.03712032 0.14001244
-0.072292365 -0.037059821 0.14015138
-0.072047442 -0.03701343 0.14028363
-0.071790121 -0.036955569 0.14042236
-0.071545839 -0.036908828 0.14055093
-0.071317509 -0.036887437 0.14067462
-0.071074776 -0.036842659 0.14079839
-0.070832036 -0.036805239 0.14091888
-0.070581563 -0.03675238 0.14102674
-0.070303783 -0.036698233 0.14114542
-0.070041604 -0.03663468 0.14124605
-0.06975168 -0.036534987 0.14134948
-0.069485448 -0.036448658 0.14144447
-0.069231831 -0.036381241 0.14154363
-0.06899073 -0.036327053 0.14165239
-0.068726674 -0.036258955 0.14176437
-0.06849163 -0.03621079 0.14186561
-0.06825918 -0.036125235 0.14195347
-0.068035357 -0.036048599 0.14204474
-0.067804918 -0.035965052 0.14214228
-0.067622289 -0.035964143 0.14224495
-0.067446217 -0.03592512 0.1423319
-0.067268305 -0.035932008 0.14245215
-0.067086615 -0.035925243 0.14256294
-0.066913918 -0.035919882 0.14265731
-0.066748589 -0.035921466 0.14276266
-0.066598915 -0.035923436 0.14286333
-0.066444568 -0.035945453 0.14297178
-0.066329449 -0.035980396 0.14306697
-0.066177852 -0.035977501 0.14317301
-0.066014625 -0.035985354 0.1432948
-0.065860108 -0.03602602 0.1434442
-0.065700352 -0.036065225 0.14360696
-0.065558799 -0.03609537 0.14374046
-0.065447345 -0.036119841 0.14383569
-0.065350085 -0.036096156 0.14389858
-0.065273806 -0.036067534 0.14393945
-0.065202385 -0.03603531 0.14397542
-0.065122031 -0.036032338 0.14402904
-0.065033846 -0.036047488 0.14409254
-0.064963549 -0.036069501 0.14415357
-0.064879335 -0.036123466 0.1442294
-0.064796709 -0.036101881 0.14427155
-0.064710505 -0.036047257 0.14430034
-0.064640366 -0.036026523 0.14433298
-0.0645632 -0.035988975 0.14436379
-0.064481437 -0.035976205 0.14440492
-0.064404681 -0.035963599 0.14444484
-0.064333916 -0.035982814 0.14449884
-0.064266928 -0.036017753 0.14456162
-0.064191222 -0.036065653 0.14463301
-0.064109594 -0.036079895 0.14468797
-0.064019665 -0.036086217 0.14473286
-0.063919283 -0.036080047 0.14477748
-0.063826419 -0.036140304 0.14484867
-0.063727558 -0.036233768 0.1449305
-0.063617632 -0.036349609 0.14502124
-0.063495032 -0.036358558 0.14507253
-0.063362569 -0.036333084 0.1451159
-0.063212536 -0.036236972 0.14513642
-0.063055344 -0.036160748 0.14516273
-0.062914707 -0.036119387 0.14520423
-0.062771641 -0.036149111 0.14526966
-0.062639683 -0.036205988 0.14534779
-0.062524475 -0.036336925 0.14544889
-0.062410209 -0.036480971 0.14555511
-0.062332518 -0.036832258 0.14574094
-0.0051517091 -0.070341587 0.2637518
-0.0051419274 -0.070068352 0.26365533
-0.0051207752 -0.069963597 0.26362491
-0.0051177363 -0.069929205 0.26361182
-0.0051177368 -0.069929197 0.26361182
-0.0051177363 -0.069929205 0.26361182
-0.0051177363 -0.069929205 0.26361185
-0.005101704 -0.070099309 0.26368311
-0.005101704 -0.070099294 0.26368311
0.032140333 -0.082218073 0.31502703
0.032144349 -0.082184687 0.31502765
0.032147918 -0.082088642 0.31500283
0.032140408 -0.082039468 0.31499499
0.032147918 -0.082088634 0.31500283
0.083356664 -0.07362809 0.28685322
0.083521463 -0.073672034 0.28668362
0.083692379 -0.07358323 0.28642479
0.083848417 -0.073386937 0.28613672
0.084032893 -0.073115386 0.28577587
0.084228814 -0.072886899 0.2854442
0.08442878 -0.072753258 0.28516743
0.084608175 -0.072765626 0.28498152
0.084799401 -0.072662137 0.2847189
0.08500883 -0.072616972 0.28447947
0.085236579 -0.072385021 0.28411761
0.085468054 -0.072201185 0.28378928
0.085690975 -0.072190501 0.28356245
0.085906073 -0.07213404 0.28333199
0.086140208 -0.072073467 0.28306144
0.086371213 -0.071955584 0.28277233
0.086682253 -0.071868241 0.28241277
0.087042585 -0.07167837 0.28196177
0.087577574 -0.071536161 0.2813648
0.088004127 -0.071490213 0.28091887
0.08832489 -0.071431138 0.28057557
0.088694997 -0.071369387 0.28016534
0.08906351 -0.071442068 0.2797839
0.092491709 -0.070855267 0.27529189
0.092869639 -0.070726544 0.2746954
0.093219973 -0.070559986 0.27413112
0.09350244 -0.070469782 0.27369058
0.096604221 -0.068850733 0.26780042
0.096861616 -0.068929769 0.26739594
0.098204367 -0.066303536 0.26255617
0.098392308 -0.06632255 0.26218981
0.098559484 -0.065980569 0.26155815
0.09876056 -0.065545067 0.26075163
0.099011756 -0.065230809 0.25993177
0.099343576 -0.064947113 0.259
0.099698223 -0.06448745 0.25792208
0.10009351 -0.063969649 0.25683111
0.10040852 -0.063492201 0.25592002
0.10079729 -0.063314974 0.25508502
0.10115074 -0.063095167 0.25430188
0.10155986 -0.062880434 0.25349006
0.10202331 -0.062485799 0.25249201
0.10243166 -0.062167536 0.25167423
0.10274332 -0.061918557 0.25105354
0.10301219 -0.061832771 0.25061399
0.10327023 -0.061939135 0.25029597
0.10351746 -0.062024895 0.24998687
0.10366849 -0.06215642 0.24984218
0.10390476 -0.062278103 0.24955766
0.10417686 -0.062208749 0.24912459
0.10449769 -0.062143914 0.24863474
0.10480064 -0.06208783 0.24818367
0.10514642 -0.062009335 0.2476543
0.10545084 -0.062003572 0.24722041
0.10575154 -0.0619311 0.24676597
0.10599125 -0.06197441 0.2464426
0.10619882 -0.062068585 0.24618305
0.1064477 -0.062052216 0.24581395
0.10669295 -0.062051665 0.24545047
0.10697015 -0.06199199 0.24502081
0.10729162 -0.061870962 0.24451913
0.10756322 -0.061747279 0.24409069
0.10783538 -0.06169406 0.24368194
0.10812579 -0.061651044 0.24325699
0.10837419 -0.061639875 0.24290138
0.10867782 -0.06150689 0.24241576
0.10899199 -0.061378542 0.24190688
0.10928836 -0.06125503 0.24142149
0.10957052 -0.061110433 0.24095468
0.10986689 -0.060983263 0.2404957
0.11014318 -0.060908236 0.2400784
0.11037323 -0.060847655 0.23972797
0.11070475 -0.060697522 0.2391879
0.11103301 -0.060549065 0.23866047
0.11134668 -0.060442045 0.23818876
0.11165102 -0.060270585 0.23770043
0.11191042 -0.060123552 0.23729166
0.1121918 -0.059955917 0.23684168
0.11247388 -0.059860811 0.23643593
0.11280786 -0.059584118 0.23587909
0.11313599 -0.059383899 0.23537658
0.11345591 -0.059257362 0.23492813
0.11379424 -0.058943652 0.23436838
0.11409831 -0.058732532 0.23389718
0.11438675 -0.058683272 0.2335203
0.11461897 -0.058642417 0.23321307
0.11489927 -0.058554109 0.2328236
0.11517531 -0.058356132 0.23237585
0.11546673 -0.058191665 0.23192732
0.11578064 -0.057992388 0.23143131
0.11607958 -0.057857174 0.23098326
0.11634478 -0.057804383 0.23062618
0.11660357 -0.05782247 0.23033428
0.11688207 -0.057742108 0.22997391
0.11717935 -0.057684723 0.22962891
0.11739446 -0.05760609 0.22936139
0.11764305 -0.057425547 0.22903207
0.11788461 -0.057426523 0.22879726
0.11806196 -0.05737751 0.22860739
0.11828373 -0.057368964 0.22839993
0.11847021 -0.05736633 0.22824576
0.11862089 -0.057321791 0.22808717
0.1188177 -0.057356518 0.22794226
0.1189804 -0.057219643 0.22773971
0.11912293 -0.057175077 0.2275915
0.11929318 -0.056993704 0.22735322
0.11946773 -0.056791991 0.2271176
0.11966523 -0.056539733 0.22684985
0.11982384 -0.056345873 0.22664526
0.1199668 -0.056145139 0.22643273
0.12010254 -0.056041908 0.22627503
0.1202488 -0.05575911 0.226009
0.12041313 -0.055503007 0.22575077
0.12054704 -0.055166863 0.22544719
0.12071614 -0.054970477 0.22521876
0.12081181 -0.054890037 0.22509322
0.12099304 -0.055067305 0.2250852
0.12117549 -0.05556405 0.22525424
0.12150779 -0.05634708 0.22556575
0.12203014 -0.057446647 0.22596619
0.12287999 -0.058716223 0.22643435
0.12455665 -0.059845347 0.22726588
0.1380351 -0.060413063 0.23900561
0.14011432 -0.060652763 0.2410156
0.14237334 -0.061529398 0.24327928
0.14423136 -0.062027495 0.24497671
0.14526056 -0.062160119 0.24582048
0.14567149 -0.062043127 0.2460895
0.14619364 -0.062169522 0.24650995
0.14682117 -0.06215246 0.2469587
0.14740576 -0.062198631 0.24737731
0.1481289 -0.062285613 0.24789093
0.14923048 -0.062374707 0.24857073
0.15068963 -0.062523998 0.24925888
0.15190706 -0.062659919 0.24971102
0.15277676 -0.062813774 0.25001734
0.15343659 -0.063074917 0.25029653
0.15395336 -0.063345075 0.25053522
0.15442428 -0.063537054 0.2507562
0.15488088 -0.063701667 0.25096071
0.15527108 -0.063919783 0.25116223
0.15559395 -0.064085044 0.25130922
0.15593038 -0.064305514 0.25148505
0.15615012 -0.064392939 0.25157037
0.15635377 -0.064515516 0.25165698
0.15648463 -0.064525336 0.25168213
0.15654033 -0.064369582 0.25163242
0.15648527 -0.06407959 0.25153968
0.156507 -0.063799895 0.25144625
0.15653487 -0.063586235 0.25137419
0.15660693 -0.063455075 0.25134477
0.15674353 -0.06334313 0.25133586
0.15682408 -0.063251927 0.251329
0.15700606 -0.063248612 0.25135395
0.1571347 -0.063190199 0.25134987
-0.072743513 -0.037135713 0.13990067
-0.072522618 -0.03709561 0.14002752
-0.072249509 -0.037026621 0.14017385
-0.071988933 -0.036962327 0.14031248
-0.071757965 -0.036900844 0.14043362
-0.071503252 -0.036855433 0.14056864
-0.071272314 -0.036807619 0.14068565
-0.071049057 -0.036772896 0.14080335
-0.070796691 -0.036735658 0.14092529
-0.070526093 -0.036684472 0.14105083
-0.070287421 -0.036634609 0.14114401
-0.070010886 -0.036564235 0.14125691
-0.06973432 -0.036475711 0.14135677
-0.069446526 -0.036385026 0.14145847
-0.069191925 -0.036302172 0.14155504
-0.068953477 -0.036241684 0.14165238
-0.068694279 -0.036183 0.14176577
-0.068440452 -0.036118381 0.14186977
-0.068188816 -0.036001064 0.1419595
-0.067986585 -0.035960499 0.14205216
-0.06775108 -0.035889111 0.14215204
-0.06757728 -0.035846259 0.14223722
-0.067384571 -0.035828888 0.1423481
-0.067206942 -0.035803881 0.14244534
-0.067032188 -0.035813347 0.14255559
-0.066880517 -0.035821229 0.14264625
-0.066721901 -0.035827611 0.14275418
-0.066571049 -0.03584915 0.14285627
-0.066420905 -0.035826355 0.14294088
-0.066294439 -0.035824347 0.14302269
-0.066135034 -0.035798367 0.14311303
-0.065987393 -0.035819381 0.14323854
-0.065854236 -0.035876043 0.14337975
-0.065714233 -0.035922553 0.14352897
-0.065562129 -0.035954937 0.14368002
-0.065437146 -0.035976488 0.14378764
-0.065340623 -0.035987563 0.14386252
-0.065262303 -0.035963718 0.14390972
-0.065177247 -0.035922397 0.14395146
-0.065100558 -0.035934038 0.14400689
-0.065024443 -0.035943337 0.14406435
-0.064940102 -0.035982277 0.14413805
-0.064870581 -0.035995606 0.14418532
-0.064777158 -0.035980061 0.14423569
-0.064697035 -0.035911482 0.14425565
-0.06462381 -0.035873376 0.14428349
-0.064543635 -0.035842136 0.14431635
-0.064467214 -0.035821386 0.1443492
-0.064397246 -0.035807848 0.14438657
-0.064317919 -0.035870191 0.14446731
-0.064248219 -0.035909876 0.14453059
-0.064175062 -0.035933066 0.14458781
-0.064099833 -0.035943076 0.14463805
-0.064015813 -0.035971776 0.14469507
-0.063935176 -0.036001876 0.14475147
-0.063836053 -0.036056295 0.14482218
-0.063744567 -0.036185987 0.14491707
-0.063634135 -0.036264118 0.14499949
-0.063516408 -0.036351282 0.14507914
-0.063389488 -0.036378566 0.14514597
-0.063262522 -0.036325403 0.14517355
-0.06311664 -0.036279719 0.14521115
-0.062965102 -0.036181364 0.14522572
-0.062825717 -0.036162447 0.14527158
-0.062668495 -0.036146708 0.14532214
-0.062540054 -0.036230788 0.14540896
-0.062429439 -0.036383159 0.14551601
-0.062320948 -0.036618218 0.14566153
-0.062212974 -0.036931548 0.1458528
-0.0051473645 -0.069836177 0.26357031
-0.0051473659 -0.069836177 0.26357031
-0.005141221 -0.069801107 0.26355979
-0.0051227217 -0.069664478 0.26352093
-0.0051227217 -0.069664471 0.26352096
-0.005105746 -0.069762707 0.26356202
-0.0050893757 -0.069828629 0.26358938
-0.0050893747 -0.069828629 0.26358941
0.032123499 -0.081848666 0.31498283
0.032123502 -0.081848659 0.31498283
0.032121245 -0.081799589 0.31497097
0.032125663 -0.081669636 0.31494334
0.083243802 -0.072645649 0.28640419
0.083376333 -0.07279551 0.28633338
0.083554149 -0.072774231 0.28612202
0.083727062 -0.072548047 0.28580615
0.0839177 -0.072312012 0.2854864
0.084151961 -0.072122246 0.28513995
0.084350176 -0.072106868 0.28493112
0.084529907 -0.072131962 0.28474891
0.084707871 -0.072083458 0.28453848
0.084890626 -0.071972296 0.2842854
0.085091703 -0.071797729 0.2839902
0.085361913 -0.071615823 0.28362343
0.085605435 -0.071559377 0.28335205
0.085833333 -0.071590312 0.2831431
0.086028181 -0.071588114 0.28294384
0.086218812 -0.071467251 0.28270122
0.086534329 -0.071414582 0.28236136
0.086899072 -0.071218796 0.28190759
0.087389603 -0.071134746 0.28138158
0.087861836 -0.071003132 0.28086624
0.088231869 -0.070902944 0.28045046
0.088615976 -0.070863016 0.28001985
0.088990912 -0.070746459 0.27955708
0.089424148 -0.07061591 0.27899453
0.090140082 -0.070261247 0.27794796
0.090772748 -0.069828436 0.27694038
0.092806913 -0.070020728 0.27443326
0.093113884 -0.069864728 0.27391759
0.093411446 -0.06979695 0.27349496
0.093625359 -0.069910817 0.27326921
0.096140571 -0.068289861 0.26823848
0.096412122 -0.068283468 0.26777747
0.096645981 -0.068473749 0.26752371
0.098045394 -0.06516546 0.26187789
0.098195173 -0.065001398 0.26142031
0.098364271 -0.064712472 0.26081038
0.098631851 -0.064434893 0.25999531
0.098966606 -0.064130619 0.2590661
0.099335 -0.063819259 0.25808918
0.099676169 -0.063519359 0.25726491
0.10003968 -0.06312947 0.25634921
0.10033695 -0.062757052 0.25555933
0.10073906 -0.062651739 0.25476852
0.1010549 -0.062455446 0.25408584
0.10144926 -0.062161941 0.25324708
0.10187664 -0.061921898 0.25241739
0.10227669 -0.061662979 0.2516461
0.10257056 -0.061581049 0.25115541
0.10284071 -0.06153477 0.2507287
0.10313766 -0.061510336 0.25028208
0.10337351 -0.061542489 0.24996495
0.10358673 -0.061606925 0.24969101
0.10379042 -0.061711304 0.24944973
0.10406902 -0.061723776 0.24905884
0.10435563 -0.061712779 0.24864796
0.10465281 -0.061660018 0.24821128
0.10496309 -0.061641179 0.24776646
0.10526222 -0.061573118 0.24731702
0.10554732 -0.061573971 0.24691713
0.10580299 -0.061629575 0.24657907
0.10603856 -0.061649762 0.24625163
0.10628574 -0.061660495 0.24589613
0.10654218 -0.061656557 0.24552226
0.10684388 -0.061626077 0.24506861
0.10715947 -0.061511386 0.24457313
0.1074399 -0.061370678 0.24411997
0.10773309 -0.061280221 0.24366929
0.10800113 -0.061178811 0.24324724
0.10826501 -0.061170232 0.24287067
0.10854526 -0.061113805 0.24244189
0.10887153 -0.060972344 0.24190858
0.10916654 -0.060825896 0.24141249
0.10944758 -0.060693726 0.24095173
0.10976417 -0.060540847 0.24044237
0.11000384 -0.060467683 0.24007563
0.11030214 -0.060322475 0.23957977
0.11064823 -0.060125779 0.23899078
0.11102879 -0.059829988 0.23831961
0.11134072 -0.059660584 0.23780274
0.11163025 -0.059497003 0.23733537
0.11188604 -0.059444681 0.23698044
0.11215054 -0.059385847 0.23660891
0.11241829 -0.059184194 0.23616578
0.1127638 -0.059063975 0.23567286
0.11307389 -0.058820475 0.23517366
0.113414 -0.058641661 0.23467365
0.11372256 -0.058363404 0.23416458
0.11403601 -0.058216162 0.23371038
0.11432882 -0.058069929 0.23327208
0.11456671 -0.058002379 0.23294203
0.11483335 -0.057878256 0.23254824
0.11512817 -0.057701156 0.23208918
0.11544 -0.057566516 0.23163779
0.11570968 -0.057433054 0.23122969
0.11594938 -0.057498433 0.23096459
0.11623045 -0.057437938 0.23058216
0.11648082 -0.057397652 0.23025887
0.11677346 -0.057271194 0.22985557
0.11708023 -0.05714228 0.2294617
0.11733712 -0.05702335 0.22912613
0.11757096 -0.056909345 0.22883731
0.11779473 -0.056942668 0.22865082
0.1179769 -0.056927457 0.22847359
0.11818245 -0.056922697 0.22827618
0.11839311 -0.056896605 0.22809173
0.11856566 -0.056958586 0.2279685
0.11874796 -0.056838565 0.22775717
0.11889639 -0.056759864 0.22758545
0.11906508 -0.056663625 0.22739866
0.11927988 -0.056513812 0.227165
0.11945745 -0.05624181 0.2268912
0.11961738 -0.056007572 0.22665803
0.11977419 -0.055796627 0.22642702
0.11990593 -0.055629205 0.22623445
0.12003803 -0.05543628 0.2260339
0.12018651 -0.055262614 0.22582592
0.12034714 -0.055010717 0.22555999
0.12048808 -0.054756463 0.22531028
0.12061407 -0.054549888 0.22508682
0.1207507 -0.054502435 0.22495933
0.12091307 -0.054678537 0.22494872
0.12106306 -0.055115089 0.22511092
0.12140572 -0.055784628 0.22536354
0.12187915 -0.056664914 0.22565682
0.12248573 -0.057792254 0.22598161
0.12378782 -0.0589596 0.22659963
0.13579516 -0.059806593 0.23659126
0.13667497 -0.059902698 0.23750038
0.13930029 -0.060186841 0.24010949
0.14203957 -0.061059687 0.24284522
0.14434002 -0.06159931 0.24493515
0.14547208 -0.06181737 0.24587581
0.14595118 -0.061788671 0.24621618
0.14641866 -0.061754193 0.24654765
0.14694168 -0.061778028 0.24693561
0.14741811 -0.061789647 0.24727163
0.14821422 -0.061908402 0.24783744
0.14931573 -0.061929569 0.24849543
0.15077269 -0.062073361 0.24919593
0.15184365 -0.062157623 0.24956533
0.15259048 -0.062222634 0.24979198
0.1531831 -0.062370565 0.25001445
0.15370183 -0.062581204 0.25024128
0.15410082 -0.062774487 0.25041655
0.15459663 -0.063006684 0.25066039
0.15521663 -0.063392855 0.25100067
0.15558122 -0.063711658 0.2512086
0.15595105 -0.063931681 0.25138363
0.15615633 -0.064009525 0.25145528
0.15636493 -0.064143799 0.25154832
0.1564558 -0.064098291 0.25155273
0.15650004 -0.063835368 0.25146902
0.15651816 -0.063715383 0.25143448
0.15652634 -0.063458607 0.25134954
0.15656859 -0.063284345 0.25130937
0.15668161 -0.063157231 0.25129437
0.15677325 -0.06313087 0.25130081
0.15688217 -0.063060038 0.25128919
0.1570354 -0.062979244 0.25128978
0.15716541 -0.062967904 0.2513001
-0.13604404 -0.057701129 0.25049475
-0.13602088 -0.057889231 0.25084111
-0.13603984 -0.058019385 0.25098622
-0.13603395 -0.058009099 0.25097895
-0.13602877 -0.057997603 0.25097296
-0.13605547 -0.058124203 0.25107521
-0.13612443 -0.058476847 0.2513814
-0.072219446 -0.036977917 0.14018808
-0.071980022 -0.036914092 0.14031249
-0.0717149 -0.036853343 0.14044891
-0.071458332 -0.036789522 0.14058027
-0.071215063 -0.036724776 0.14070293
-0.071002536 -0.0366951 0.14080825
-0.070735857 -0.036646731 0.14093629
-0.070471115 -0.036596436 0.14105025
-0.070229068 -0.036559869 0.14116524
-0.069961488 -0.03648315 0.14126526
-0.069690704 -0.036411945 0.14137216
-0.069414645 -0.036314286 0.14146823
-0.069167845 -0.036237802 0.14156419
-0.068893895 -0.036164109 0.14167206
-0.068648376 -0.036121976 0.14178129
-0.068393543 -0.036036566 0.14188188
-0.068165772 -0.035946347 0.14196485
-0.067921124 -0.035864253 0.14207383
-0.067735054 -0.035803482 0.14215119
-0.067547172 -0.0357529 0.14223781
-0.067351937 -0.03574454 0.14235686
-0.067178257 -0.035712633 0.14244403
-0.067008771 -0.035700604 0.14253697
-0.066853434 -0.03569112 0.14262263
-0.06669274 -0.035688654 0.14272776
-0.06653595 -0.035712767 0.14282851
-0.066399582 -0.035710078 0.14291418
-0.066248685 -0.035691742 0.14300287
-0.066100925 -0.035680119 0.14311031
-0.065968856 -0.035670534 0.14320001
-0.06584011 -0.035701893 0.14331731
-0.065704286 -0.035769019 0.14347529
-0.065557852 -0.035814837 0.14363115
-0.065431759 -0.035848156 0.14374164
-0.065320127 -0.035869703 0.14383599
-0.065237291 -0.035845779 0.14388727
-0.065159477 -0.0358257 0.14392954
-0.065080024 -0.035847273 0.14399503
-0.065011241 -0.035856269 0.1440461
-0.064932443 -0.035880201 0.14410666
-0.064848989 -0.035875086 0.14415444
-0.06476102 -0.035866387 0.14420244
-0.064684652 -0.035814367 0.14422722
-0.064602658 -0.035737149 0.14424545
-0.064521156 -0.035695817 0.14427245
-0.064437427 -0.035649065 0.14429906
-0.064364225 -0.03566815 0.14435175
-0.064298294 -0.035722841 0.14442024
-0.064227089 -0.035755109 0.14447743
-0.064153127 -0.03581021 0.14454992
-0.064076483 -0.035815634 0.14459664
-0.06400647 -0.035835516 0.14465061
-0.063923255 -0.035880208 0.14471447
-0.063834727 -0.03596057 0.14479621
-0.06374523 -0.036086354 0.14489208
-0.063633002 -0.036165904 0.14497443
-0.063509673 -0.036293048 0.14507771
-0.063387722 -0.036353607 0.14515628
-0.063263625 -0.036380533 0.14521697
-0.063127354 -0.036357019 0.14525904
-0.063003577 -0.036321156 0.14529109
-0.062861726 -0.036276542 0.14532596
-0.062716767 -0.036170516 0.14532988
-0.062567815 -0.036164429 0.14538157
-0.062429447 -0.036238153 0.14546098
-0.062316079 -0.036438879 0.14559354
-0.062206049 -0.036718052 0.14576365
-0.062070247 -0.036891133 0.14589614
-0.0051437807 -0.069569908 0.26348031
-0.0051437817 -0.069569908 0.26348028
-0.0051373499 -0.069535367 0.26347074
-0.005114058 -0.069467269 0.26345927
-0.005114058 -0.069467276 0.2634593
-0.0050897747 -0.069530226 0.26348886
-0.0050761756 -0.069563277 0.26350507
-0.0050761756 -0.06956327 0.26350498
0.032122359 -0.081575163 0.31498623
0.032126874 -0.081555948 0.31496856
0.032125305 -0.081525557 0.31497031
0.032132506 -0.081367441 0.3149581
0.083192624 -0.071724214 0.28597108
0.083348647 -0.071872205 0.28589663
0.083504707 -0.071827389 0.28570092
0.083688632 -0.071745999 0.28545949
0.083910108 -0.071647316 0.28516984
0.08413808 -0.071519934 0.28487182
0.084323429 -0.07145936 0.28465506
0.0844687 -0.071432471 0.28449467
0.084643468 -0.07142783 0.28430977
0.084793478 -0.07138145 0.28412807
0.085049778 -0.071257532 0.28379813
0.085265443 -0.071130775 0.28350824
0.085483648 -0.071010031 0.28322762
0.085676655 -0.071020454 0.28303775
0.085894935 -0.070953727 0.28278688
0.086109094 -0.070944116 0.2825709
0.086415887 -0.070816383 0.28220648
0.086779103 -0.070715189 0.28180572
0.087289371 -0.070516177 0.28120798
0.087776102 -0.070424542 0.28070426
0.088173553 -0.070300825 0.28024265
0.088558145 -0.070221849 0.27978876
0.088929392 -0.070079252 0.27931082
0.089354545 -0.070011094 0.27879152
0.089979991 -0.069654658 0.27783576
0.090563782 -0.069359362 0.27696237
0.091012605 -0.069304787 0.27638915
0.091446571 -0.06931226 0.27587402
0.092768766 -0.069104485 0.27399516
0.092955306 -0.069249675 0.27382314
0.093245916 -0.069296397 0.27347124
0.093481682 -0.069431208 0.27324799
0.095930502 -0.067814171 0.26829457
0.096142076 -0.067803875 0.26792154
0.096404031 -0.067856707 0.26752099
0.097684048 -0.064420529 0.2619285
0.097848088 -0.064312458 0.26149717
0.098028153 -0.064040966 0.26089144
0.098224558 -0.063790269 0.26026309
0.098595738 -0.063502997 0.25926578
0.098933391 -0.063183136 0.25833666
0.099286273 -0.062943503 0.25752634
0.099624559 -0.062696941 0.25675735
0.099952593 -0.062406007 0.25598791
0.10022113 -0.062175196 0.25538036
0.10060006 -0.061971661 0.25457725
0.10094065 -0.061816953 0.25389147
0.10127092 -0.061670382 0.2532624
0.1016909 -0.061431579 0.25244376
0.1021013 -0.061276194 0.25170842
0.10240442 -0.061160624 0.25119817
0.10265973 -0.061129317 0.2508094
0.10292951 -0.061069429 0.25037953
0.10318402 -0.061086368 0.25001597
0.10347814 -0.061115257 0.2496099
0.1036953 -0.061219104 0.24935509
0.10395101 -0.061229613 0.24900395
0.10422782 -0.061273955 0.248639
0.10451256 -0.061268035 0.24824867
0.10479129 -0.061197035 0.24781936
0.10510291 -0.061222978 0.24740098
0.10537221 -0.061235365 0.2470264
0.10562621 -0.06126602 0.24668562
0.10590249 -0.061313011 0.2463132
0.1061621 -0.061237793 0.24590711
0.10643039 -0.061227787 0.24551763
0.10671614 -0.061218183 0.24509852
0.10702554 -0.061118506 0.24461302
0.10731369 -0.061009288 0.24415852
0.1076341 -0.060814187 0.24363001
0.10789846 -0.06072719 0.24321778
0.10815812 -0.060733303 0.24284591
0.10844248 -0.060626987 0.24239348
0.10872315 -0.060547568 0.24194244
0.10906332 -0.060386658 0.24137634
0.10938044 -0.060218513 0.24085099
0.10966616 -0.060084388 0.24038179
0.10990918 -0.060045548 0.24001943
0.11019567 -0.059879944 0.23952541
0.11057016 -0.059622433 0.23886345
0.11094999 -0.059307598 0.23817438
0.11129951 -0.059023038 0.2375495
0.11160759 -0.058875479 0.23705912
0.11183803 -0.058845732 0.2367397
0.11206631 -0.058834039 0.23644382
0.11233498 -0.058713246 0.23604128
0.11263341 -0.058543812 0.2355798
0.11300858 -0.0583007 0.23499824
0.11335958 -0.058025885 0.2344303
0.11366194 -0.057749096 0.23391871
0.11396112 -0.057676733 0.23352015
0.11424792 -0.057525069 0.23308977
0.11452838 -0.057427321 0.23269135
0.11480166 -0.057280086 0.23227856
0.11511703 -0.057087403 0.23178966
0.11539074 -0.056978196 0.23139419
0.11561238 -0.057013556 0.23113918
0.11583626 -0.057082336 0.23089118
0.11608212 -0.057100687 0.23059557
0.11635245 -0.057056218 0.23024081
0.11666579 -0.056932833 0.22980836
0.11696843 -0.056720667 0.22937322
0.11725999 -0.05653986 0.2289696
0.11746684 -0.05648664 0.22873643
0.11770645 -0.056543708 0.22854175
0.1178994 -0.05655697 0.22837086
0.11811623 -0.056547932 0.22817655
0.118307 -0.056505781 0.227983
0.11847834 -0.056411713 0.22777647
0.11868235 -0.056371793 0.22759627
0.11882807 -0.056314591 0.22743922
0.11903825 -0.056196351 0.22722416
0.11922453 -0.055991054 0.22697107
0.11940136 -0.055751208 0.22671477
0.11954979 -0.055478711 0.22646248
0.11969993 -0.055258408 0.22622161
0.11984899 -0.055088248 0.22601655
0.11998563 -0.054934528 0.22582524
0.12013362 -0.054744575 0.22562061
0.12027642 -0.054463275 0.22534262
0.12039813 -0.054315083 0.22515459
0.12054902 -0.054224383 0.22498849
0.12069844 -0.05420664 0.22487608
0.12081046 -0.054331623 0.22486272
0.12097386 -0.054597955 0.22490452
0.12125713 -0.055164043 0.22509158
0.12171085 -0.055966545 0.22537993
0.12225415 -0.056973446 0.22566864
0.12296352 -0.0577031 0.22587791
0.13500375 -0.059545074 0.23572022
0.13583697 -0.059629515 0.23656346
0.13824253 -0.05987522 0.23900512
0.14121921 -0.060444262 0.24193324
0.14390622 -0.061164197 0.24444352
0.14539109 -0.06137269 0.24567825
0.14600632 -0.061378878 0.24614131
0.14660296 -0.061401643 0.2465881
0.14700022 -0.061409794 0.24687132
0.14757283 -0.061469506 0.2472908
0.14830074 -0.061481815 0.24777424
0.14937147 -0.061452754 0.24838133
0.15070817 -0.061618436 0.24906623
0.15180491 -0.061700959 0.2494379
0.15254383 -0.061746404 0.24965149
0.15292861 -0.061760183 0.24974585
0.153428 -0.061879758 0.24995902
0.15385537 -0.062081814 0.25015014
0.15444048 -0.062442034 0.2504496
0.15512832 -0.06286367 0.25081784
0.15560903 -0.063269548 0.25109199
0.15588222 -0.063552752 0.25125951
0.15617271 -0.063686855 0.25137764
0.15629402 -0.063648246 0.25138181
0.15640299 -0.063554719 0.25138474
0.15642564 -0.063406453 0.25133216
0.15647417 -0.063219182 0.25127718
0.15654589 -0.063123599 0.25126475
0.15666935 -0.063007399 0.25125128
0.15673339 -0.062922798 0.25123477
0.15684256 -0.062857203 0.25123116
0.15694144 -0.062720187 0.2511999
0.15703341 -0.062633306 0.25118455
0.15720603 -0.062637798 0.25120905
-0.13608918 -0.057152372 0.24971987
-0.13605341 -0.057209138 0.24991544
-0.13601029 -0.05735223 0.25024658
-0.13596597 -0.05745215 0.25050747
-0.13596608 -0.05755911 0.25066754
-0.13597751 -0.057610903 0.25072148
-0.13597542 -0.057690088 0.25076944
-0.1360053 -0.057825834 0.25088775
-0.13605167 -0.058110014 0.25107485
-0.13607921 -0.058343939 0.2512798
-0.13608468 -0.05840933 0.25138143
-0.071677536 -0.036789607 0.14046097
-0.071397766 -0.036697984 0.14059462
-0.071171202 -0.036658842 0.14071144
-0.070930108 -0.036609773 0.14083657
-0.070683002 -0.036557358 0.14094752
-0.07041923 -0.036502726 0.14106371
-0.070191726 -0.03647146 0.14116459
-0.069933295 -0.036428675 0.14127736
-0.06968078 -0.036347669 0.14137125
-0.069402009 -0.036269866 0.14148103
-0.069137208 -0.036170848 0.14157483
-0.068872221 -0.036107924 0.14167921
-0.068605796 -0.036039531 0.14179391
-0.068378396 -0.035986979 0.14189325
-0.068132505 -0.035892665 0.14198507
-0.067904092 -0.035814624 0.14208029
-0.067693256 -0.035736516 0.14217305
-0.067514747 -0.03569898 0.14225647
-0.067313977 -0.035659757 0.14236026
-0.067137174 -0.035600297 0.14243747
-0.066976413 -0.035593692 0.14252633
-0.066803835 -0.03556801 0.14261504
-0.066656031 -0.035586081 0.14271943
-0.066515721 -0.035598882 0.14280631
-0.066358402 -0.035594177 0.14290284
-0.066209845 -0.035578012 0.14300278
-0.066067621 -0.03557276 0.1431009
-0.065923594 -0.035566907 0.14320631
-0.065807134 -0.035595484 0.14331184
-0.065683968 -0.035618782 0.14344037
-0.065531999 -0.035679035 0.14360371
-0.065399379 -0.035702929 0.14371495
-0.065300398 -0.035742559 0.14380401
-0.06521479 -0.035781786 0.14388171
-0.065141201 -0.035789613 0.14393729
-0.065066367 -0.035768092 0.1439797
-0.064986065 -0.035769183 0.14403124
-0.064908586 -0.035779964 0.14408241
-0.064821757 -0.035766196 0.14413117
-0.064754128 -0.035741366 0.14416283
-0.064671718 -0.035683233 0.14418875
-0.064591587 -0.035632327 0.14421278
-0.064502873 -0.035553906 0.14423035
-0.064426623 -0.035531968 0.14426245
-0.064341784 -0.035498459 0.1442991
-0.064257942 -0.03549752 0.14434557
-0.064187989 -0.035566367 0.14442046
-0.06413018 -0.035602678 0.14447273
-0.06405396 -0.035618316 0.14452389
-0.063976601 -0.035654858 0.14458878
-0.06390319 -0.035750248 0.14467645
-0.063821636 -0.03584297 0.14475706
-0.063743807 -0.035970375 0.14485328
-0.063635834 -0.036058068 0.14494163
-0.063510627 -0.036174297 0.14504898
-0.0633929 -0.036276642 0.14513636
-0.063267216 -0.036355168 0.14521824
-0.063135289 -0.036417618 0.1452913
-0.063016981 -0.03640864 0.14533253
-0.062874399 -0.036346357 0.14536597
-0.062729247 -0.036235206 0.14536862
-0.062582709 -0.036141619 0.14537901
-0.062437709 -0.03615275 0.14543645
-0.062318396 -0.036267977 0.14552996
-0.062191017 -0.036497962 0.14568016
-0.062062133 -0.036702428 0.14582084
-0.061932519 -0.036866978 0.14594264
-0.0051560169 -0.069213718 0.26336089
-0.0051313853 -0.069143951 0.26334715
-0.0051313848 -0.069143943 0.26334718
-0.0051164017 -0.069171451 0.2633664
-0.0050906003 -0.069234483 0.2633976
-0.0050869039 -0.069269292 0.26340756
0.032063127 -0.080914073 0.31493309
0.032089848 -0.080966882 0.3149294
0.032104649 -0.081024311 0.31492531
0.032129098 -0.080919132 0.3149007
0.032208141 -0.080739759 0.31488439
0.083120167 -0.070879981 0.28562248
0.08327762 -0.071038589 0.28555161
0.083472297 -0.071189709 0.28543079
0.08363238 -0.071083158 0.28521124
0.083854467 -0.071097255 0.28498542
0.084077574 -0.070964992 0.2846947
0.084302083 -0.070858404 0.28441492
0.084469438 -0.070839144 0.28423324
0.084609799 -0.070881777 0.28411248
0.084769048 -0.070868395 0.28393689
0.084954768 -0.070833057 0.28371456
0.085183203 -0.070699692 0.28341526
0.085413076 -0.070588253 0.2831246
0.085612111 -0.0704621 0.28285557
0.085772775 -0.070433661 0.28267646
0.085997067 -0.070367366 0.28243321
0.086327299 -0.070200972 0.28201091
0.086741425 -0.070046596 0.28153378
0.087207444 -0.069911189 0.28103456
0.087688692 -0.06979049 0.28050649
0.08807943 -0.069652505 0.28004071
0.088486962 -0.06953609 0.27953714
0.088838637 -0.069460481 0.27911121
0.089288346 -0.069303222 0.27850515
0.089750886 -0.069125682 0.27784234
0.09026356 -0.06890326 0.27709746
0.090802506 -0.068756089 0.27635679
0.091240659 -0.068752721 0.27584103
0.091664627 -0.068623886 0.27520013
0.092029959 -0.068392955 0.2745927
0.092344292 -0.068275869 0.27408633
0.092612401 -0.06842149 0.27382922
0.092812948 -0.068580747 0.27367431
0.093076967 -0.068711311 0.27341184
0.093346179 -0.068793297 0.27310255
0.095575243 -0.067264132 0.26847765
0.095727943 -0.067267708 0.26824385
0.095972888 -0.067162544 0.26772991
0.096211649 -0.066975698 0.26713496
0.096453026 -0.06664139 0.26638985
0.096876562 -0.065375075 0.264456
0.097259112 -0.064155847 0.26253524
0.097492374 -0.063856483 0.26179081
0.097724445 -0.063643359 0.26112723
0.097906992 -0.06329076 0.26045433
0.098229073 -0.063072108 0.2596226
0.098571531 -0.062701605 0.25865355
0.098867565 -0.062485825 0.25792468
0.09920872 -0.062227082 0.25715423
0.099517345 -0.062044002 0.25648659
0.099800505 -0.061810911 0.25583979
0.10011248 -0.061516192 0.25513378
0.10044999 -0.061305862 0.25444388
0.1007477 -0.061264589 0.25389737
0.10109582 -0.061088517 0.25321701
0.10149093 -0.061009735 0.25253162
0.10189008 -0.060837209 0.25181672
0.10220372 -0.060719419 0.25128245
0.1025132 -0.06061608 0.25077266
0.10280937 -0.060613688 0.25033805
0.1030518 -0.060637146 0.25000301
0.10335371 -0.060666293 0.24958023
0.10359261 -0.060772255 0.24929267
0.10380951 -0.060826529 0.24901314
0.10409687 -0.060838327 0.24862655
0.10437963 -0.06082486 0.24822484
0.10465855 -0.060845178 0.2478497
0.10495379 -0.060795199 0.24742429
0.10525266 -0.060842134 0.24703231
0.10555582 -0.060815074 0.24659704
0.10582425 -0.060831558 0.24622582
0.10610936 -0.060715821 0.2457713
0.10638449 -0.060687128 0.24535757
0.10668134 -0.060693134 0.2449296
0.10693439 -0.060684513 0.24456212
0.107195 -0.060566291 0.24414307
0.10753588 -0.0603978 0.24359773
0.10782695 -0.060233768 0.24312803
0.10810746 -0.060150132 0.24268734
0.10837615 -0.060117599 0.24227771
0.10866813 -0.060033571 0.24181052
0.10898578 -0.059826717 0.24125598
0.10929275 -0.059701085 0.24075608
0.10955636 -0.059631146 0.24033892
0.1098081 -0.059477706 0.23990534
0.11009082 -0.059404504 0.23945452
0.11048745 -0.059134133 0.23875004
0.11085842 -0.058769241 0.23803934
0.11124454 -0.058483019 0.23736213
0.11152776 -0.058304038 0.23689157
0.1117634 -0.058342706 0.23659503
0.11200392 -0.058350667 0.23629159
0.11225811 -0.058194425 0.23588723
0.11256785 -0.057977144 0.23538381
0.11293037 -0.05773744 0.23481059
0.11327933 -0.057448912 0.23423271
0.11357835 -0.057245281 0.23376256
0.11387193 -0.057100467 0.23332979
0.11415572 -0.056978412 0.23291788
0.11443818 -0.056910899 0.23253447
0.11474539 -0.056739427 0.2320666
0.11503802 -0.056549091 0.23160854
0.11530323 -0.05650235 0.23125948
0.11552553 -0.056544311 0.23100422
0.11572455 -0.056653988 0.23081332
0.11595024 -0.056720521 0.23056236
0.11621991 -0.056664869 0.23020238
0.11650391 -0.056622285 0.22983916
0.116859 -0.056409903 0.22933923
0.11712538 -0.05628692 0.22900328
0.11734824 -0.056220282 0.22873165
0.11760283 -0.056172349 0.22846803
0.11778577 -0.056151997 0.22828679
0.11801215 -0.056120154 0.22807574
0.11822811 -0.056037895 0.22783068
0.11838797 -0.055970594 0.2276428
0.11857132 -0.055916574 0.22747248
0.11877757 -0.055789787 0.22724658
0.11897749 -0.055630453 0.22701478
0.11916435 -0.05547693 0.22678937
0.11932634 -0.055185564 0.22650683
0.1194567 -0.054904114 0.22625457
0.11961506 -0.054750469 0.22605427
0.11976531 -0.05459914 0.22585034
0.11990011 -0.054452907 0.22565988
0.12005325 -0.054243226 0.22541738
0.1201869 -0.054014336 0.22519261
0.12034781 -0.053897366 0.22500513
0.12048317 -0.053779032 0.22483191
0.12063213 -0.053796761 0.22473246
0.12074342 -0.053824659 0.22465417
0.12089229 -0.053985838 0.2246298
0.12112963 -0.054540467 0.22482318
0.12153497 -0.055314884 0.22514473
0.12212657 -0.056319147 0.22540499
0.12279785 -0.05713081 0.22563249
0.13472807 -0.059426069 0.23540804
0.13524091 -0.059495479 0.23592572
0.1370109 -0.059642892 0.23771483
0.14042532 -0.059837438 0.24101695
0.14316379 -0.060686219 0.24370147
0.14502318 -0.060871147 0.24524407
0.14590427 -0.060874674 0.24592145
0.14663652 -0.060967389 0.24648459
0.1471246 -0.061059657 0.24685255
0.147609 -0.061014753 0.24718657
0.14822929 -0.061007008 0.24759302
0.14913759 -0.060960017 0.24811363
0.15018234 -0.061027039 0.24868484
0.15160818 -0.061198004 0.24924213
0.15245156 -0.061249465 0.24948445
0.15290277 -0.061285861 0.24960385
0.15324914 -0.061343603 0.24973689
0.15373582 -0.061539922 0.24995564
0.1543534 -0.061877046 0.25027353
0.15496942 -0.062255166 0.25059721
0.15550695 -0.062743969 0.25090834
0.15587851 -0.063053854 0.25111756
0.15603951 -0.063117392 0.25117266
0.15621707 -0.063051075 0.25119418
0.15631998 -0.063011825 0.25119963
0.1563514 -0.062888205 0.25117099
0.15644169 -0.0627831 0.25115454
0.15655465 -0.062714435 0.25115615
0.15667234 -0.062662706 0.25116783
0.15673169 -0.062600322 0.25115341
0.15682986 -0.062438272 0.25111777
0.15691988 -0.062323462 0.25109851
0.15698278 -0.062172107 0.25105098
0.15713586 -0.062174033 0.25106189
-0.13609701 -0.057169426 0.24976635
-0.13607249 -0.057048988 0.24973494
-0.13605399 -0.056951027 0.24969913
-0.13603252 -0.056939896 0.2497637
-0.13599768 -0.05706618 0.2499942
-0.13596569 -0.057104837 0.25018746
-0.13593248 -0.057179034 0.25039276
-0.13593079 -0.057252649 0.25045869
-0.13593143 -0.057312753 0.25053546
-0.13595583 -0.05749945 0.25067234
-0.1359802 -0.05769746 0.25082031
-0.13599278 -0.057872545 0.25092226
-0.13601576 -0.058018327 0.25102761
-0.13603808 -0.058246255 0.25124252
-0.13511463 -0.058801781 0.25295976
-0.070371315 -0.036421109 0.14107086
-0.070132703 -0.036374897 0.14117675
-0.069915734 -0.036346097 0.14127184
-0.069667213 -0.036297675 0.14138219
-0.069383226 -0.036206629 0.14148621
-0.069127358 -0.036124356 0.14158596
-0.068861656 -0.036055718 0.14168529
-0.068596698 -0.035978556 0.14179352
-0.068351157 -0.035941247 0.14191274
-0.068095408 -0.035848562 0.14201285
-0.067889735 -0.035764713 0.1420937
-0.067682855 -0.035709407 0.14218812
-0.067475259 -0.035643838 0.14227803
-0.067281425 -0.035571851 0.14235961
-0.067102663 -0.035559438 0.14245036
-0.066934586 -0.035519 0.14253448
-0.066781722 -0.035485696 0.14262019
-0.06662976 -0.035484996 0.14269939
-0.066474035 -0.035483159 0.14279024
-0.066326417 -0.035496343 0.14289342
-0.066181555 -0.035478316 0.14299755
-0.066033483 -0.035497427 0.14310595
-0.065903999 -0.035492014 0.14320366
-0.06577678 -0.03549381 0.14330719
-0.065634847 -0.035512414 0.14344998
-0.065510817 -0.035558399 0.14357771
-0.065384611 -0.035613529 0.14369544
-0.065279745 -0.035657734 0.14379452
-0.065194577 -0.035703935 0.14387298
-0.065118879 -0.035708565 0.1439292
-0.065044999 -0.035693958 0.14396966
-0.064968802 -0.035684768 0.14401114
-0.064884879 -0.035644758 0.14404695
-0.064805724 -0.035617627 0.14408669
-0.064724572 -0.03561572 0.14414072
-0.064652875 -0.035587046 0.14417244
-0.064562984 -0.035535093 0.14419946
-0.064482823 -0.035463199 0.14420989
-0.064398833 -0.03537726 0.14422321
-0.064315222 -0.035345562 0.14425433
-0.06423261 -0.035359379 0.14430852
-0.064162925 -0.035360791 0.14435129
-0.064095005 -0.035399884 0.14440875
-0.064023599 -0.035460088 0.14447699
-0.063952208 -0.03555103 0.14456315
-0.063891202 -0.035653215 0.14464529
-0.063816957 -0.035776906 0.14474292
-0.06373398 -0.035864536 0.14482749
-0.063608199 -0.035925932 0.14491566
-0.063504651 -0.036027707 0.14500172
-0.063383162 -0.036118031 0.1450924
-0.063259356 -0.036229711 0.14518426
-0.063132629 -0.036289163 0.14525379
-0.062985033 -0.036417868 0.145364
-0.062867075 -0.036401611 0.14540365
-0.062744237 -0.036312412 0.14541072
-0.062582657 -0.036117803 0.14538272
-0.062450428 -0.036092959 0.14541905
-0.062317993 -0.036166053 0.14549911
-0.062187627 -0.036382332 0.14564194
-0.062041793 -0.036613923 0.14579983
-0.06190528 -0.036770392 0.14591821
-0.0051561291 -0.068784729 0.26322672
-0.0051475614 -0.068817832 0.26323661
-0.0051150061 -0.068910912 0.26328155
0.031978391 -0.080316432 0.31484893
0.032067921 -0.08026091 0.31483662
0.032106206 -0.080286026 0.3148433
0.032211546 -0.080092862 0.31482026
0.032306388 -0.079959564 0.31478819
0.083052114 -0.070342302 0.28542048
0.083194546 -0.07048142 0.28536472
0.083372898 -0.070579186 0.28523645
0.083555296 -0.07058838 0.28506503
0.083796889 -0.07044483 0.28474826
0.083997615 -0.070433572 0.2845358
0.084237084 -0.070237443 0.28420481
0.084422298 -0.070288673 0.28404433
0.08454065 -0.070329107 0.28393963
0.084676377 -0.070448928 0.28385243
0.084891997 -0.070412554 0.28360677
0.085059501 -0.07034409 0.28339469
0.085290544 -0.070198528 0.28307617
0.08547096 -0.070155941 0.28286558
0.08674401 -0.069263756 0.28117651
0.087183505 -0.06916932 0.28072199
0.087608285 -0.069098853 0.28026298
0.08797814 -0.069009297 0.27982852
0.088380933 -0.068958037 0.27937201
0.088713646 -0.068872891 0.27896103
0.089102797 -0.068718709 0.27843297
0.089503229 -0.068692498 0.27793169
0.090041526 -0.068479076 0.27715933
0.090531901 -0.068350799 0.27649325
0.091056235 -0.068235546 0.27578464
0.091492787 -0.06790667 0.27502042
0.091879889 -0.067644693 0.27436176
0.09220814 -0.067637831 0.27390647
0.092478208 -0.067772701 0.27364078
0.092691667 -0.067893058 0.27345362
0.092967227 -0.068123683 0.27322847
0.093189515 -0.068179198 0.27299264
0.095400676 -0.066349782 0.26803091
0.095590077 -0.066391692 0.26777354
0.095828742 -0.066288702 0.26727325
0.096065573 -0.066010661 0.26659769
0.096294463 -0.065408759 0.26565394
0.096694089 -0.064513162 0.26402569
0.0970442 -0.063619725 0.26246303
0.097335167 -0.063223198 0.26152188
0.09757448 -0.06281928 0.26068199
0.097836368 -0.062481008 0.25989339
0.098187394 -0.062201578 0.25895503
0.098508395 -0.06195309 0.25815156
0.098792337 -0.061752006 0.25749984
0.099122562 -0.061607182 0.25682509
0.099437997 -0.061444513 0.25621232
0.099713378 -0.061197788 0.25559324
0.10003264 -0.06087238 0.25485316
0.1003493 -0.060705826 0.25423822
0.10066432 -0.06059349 0.25363317
0.10099734 -0.06054721 0.2530624
0.10133406 -0.060498871 0.25250486
0.10173804 -0.060294218 0.25177297
0.10209337 -0.060210221 0.2511979
0.10241327 -0.060131542 0.25069243
0.10270497 -0.060106292 0.25025395
0.10294753 -0.060172003 0.24993229
0.10322712 -0.060283989 0.24958169
0.1034301 -0.060326885 0.24932508
0.10367183 -0.060389102 0.24901085
0.10396198 -0.060432967 0.2486313
0.10425912 -0.06044044 0.24821649
0.10456476 -0.060414623 0.24779092
0.10485999 -0.060359705 0.24735932
0.10514684 -0.06040033 0.24698739
0.10545079 -0.060364343 0.24655113
0.10576239 -0.060296733 0.24608159
0.10607357 -0.060141392 0.24557105
0.10634661 -0.060148209 0.245175
0.10662666 -0.060144037 0.24476561
0.10688099 -0.060134802 0.24440396
0.1071755 -0.059972722 0.24392577
0.10749261 -0.059838928 0.24343249
0.10780809 -0.059702847 0.24292934
0.10808223 -0.0595925 0.24249108
0.10834798 -0.059507266 0.24206257
0.10861204 -0.059468366 0.24165863
0.10894159 -0.059306581 0.24109946
0.10922936 -0.059190843 0.24061988
0.10948271 -0.059098247 0.24020436
0.10973834 -0.058989938 0.23977871
0.1100191 -0.058853991 0.23930193
0.11039886 -0.0586496 0.23864648
0.11072978 -0.058419321 0.23805785
0.11108734 -0.058113798 0.2374049
0.11138122 -0.057954896 0.23691775
0.11165115 -0.057870466 0.23651607
0.11190495 -0.057779085 0.23613834
0.11220667 -0.057577536 0.23564385
0.11252742 -0.057369921 0.23512678
0.11287723 -0.057118479 0.234556
0.1131816 -0.05693854 0.23408653
0.11348648 -0.056759033 0.23362565
