# .PCD v0.7 - Point Cloud Data file format
VERSION 0.7
FIELDS x y z
SIZE 4 4 4
TYPE F F F
COUNT 1 1 1
WIDTH 1362
HEIGHT 1
VIEWPOINT 0 0 0 1 0 0 0
POINTS 1362
DATA ascii
0.064115219 0.02125394 0.21953256
0.06418594 0.021152219 0.21957004
0.064193234 0.021206686 0.21954396
0.064192995 0.021236368 0.2195237
0.064207688 0.021263333 0.21948791
-0.15753275 0.025477219 0.30044991
-0.15693715 0.025558406 0.30052844
-0.15634361 0.025597334 0.30054435
-0.15563698 0.025688881 0.30060253
-0.15511769 0.025871076 0.30078289
-0.15478085 0.026110345 0.30106351
-0.15440837 0.026346995 0.30131167
-0.15396003 0.026561715 0.30154487
-0.15348391 0.026709147 0.30172265
-0.15300933 0.026805867 0.3018603
-0.15247706 0.026957683 0.30207062
-0.15186532 0.026993027 0.30210531
-0.15116796 0.027001636 0.30211377
-0.15056255 0.027035799 0.30214286
-0.15006825 0.027165875 0.30229005
-0.14964543 0.02739948 0.30251861
-0.1493962 0.027833382 0.30301908
-0.14898664 0.028062085 0.30326945
-0.14862555 0.028272085 0.30347085
-0.14820226 0.02849686 0.30370048
-0.14766988 0.028693501 0.30392042
-0.14715458 0.028894307 0.30412561
-0.14675981 0.02906543 0.30430809
-0.14623252 0.02928175 0.30453399
-0.14577062 0.029412391 0.3046703
-0.145254 0.029470928 0.30473259
-0.14478612 0.02948954 0.3047705
-0.14426044 0.029610341 0.30487591
-0.14374094 0.029693784 0.30493432
-0.14307061 0.029626746 0.30485359
-0.14236125 0.029469129 0.3047089
-0.14169027 0.029358706 0.30461207
-0.14104103 0.029332522 0.30455968
-0.14043668 0.029400162 0.3045724
-0.13973002 0.029402362 0.3045398
-0.13895014 0.029334068 0.30448326
-0.13810545 0.029179014 0.30431715
-0.13716662 0.028997205 0.3040894
-0.13652062 0.0290004 0.30404246
-0.13603334 0.02914224 0.30414572
-0.13556711 0.029345483 0.30429465
-0.13502218 0.029462861 0.30435705
-0.13427311 0.029297231 0.30418447
-0.13325202 0.028952526 0.30373046
-0.13247652 0.028615488 0.30335402
-0.13183616 0.028621875 0.30326051
-0.13139196 0.028751152 0.30334318
-0.13091721 0.028936824 0.30349892
-0.13043463 0.02910086 0.30362752
-0.13005133 0.029236682 0.30373394
-0.12954992 0.02937253 0.30382714
-0.12900881 0.029410135 0.30382597
-0.12840921 0.029478703 0.30383238
-0.1280226 0.029657528 0.30402926
-0.12761161 0.029892059 0.30426702
-0.12725408 0.030130064 0.30452541
-0.1267201 0.030307155 0.30470285
-0.12600119 0.030217763 0.30451119
-0.1253224 0.030213185 0.30441558
-0.12463941 0.03026861 0.30438474
-0.12405065 0.030273307 0.30429313
-0.1233714 0.030337552 0.30430114
-0.12276087 0.030363398 0.30423319
-0.12223825 0.030408245 0.30421513
-0.12157433 0.030397302 0.30401421
-0.12072025 0.030313658 0.30369976
-0.1193185 0.029594431 0.30213043
-0.11650543 0.028088905 0.29792196
-0.11431707 0.02754643 0.29510385
-0.11299484 0.027096251 0.29315519
-0.11201242 0.026992505 0.29231074
-0.11125214 0.026934054 0.29173556
-0.11050361 0.027070455 0.29160741
-0.10995846 0.027185269 0.29157555
-0.10922487 0.027260829 0.29134259
-0.1086841 0.027307695 0.2911641
-0.10798672 0.02728981 0.29076719
-0.10701736 0.027143007 0.28997594
-0.10609374 0.026984012 0.2893109
-0.10513175 0.026805855 0.28870979
-0.1044334 0.026587863 0.28818068
-0.10348831 0.026308727 0.28752261
-0.10259222 0.026033187 0.28703532
-0.10193501 0.025973327 0.28680113
-0.10127625 0.025918515 0.28663561
-0.10081849 0.02583907 0.28648889
-0.1003378 0.025755858 0.28628671
-0.099862523 0.025743384 0.28620023
-0.099468015 0.025821846 0.28624728
-0.099036746 0.026002094 0.28647
-0.098694332 0.026159605 0.28664216
-0.098297596 0.026303813 0.28676459
-0.097839184 0.026362233 0.2867744
-0.097457975 0.026456967 0.28684014
-0.097010843 0.026616251 0.28698498
-0.096403196 0.026887402 0.28723279
-0.095796622 0.027145902 0.28743735
-0.095260762 0.027463106 0.28768957
-0.09492851 0.027695933 0.28790617
-0.094602957 0.027978394 0.28824714
-0.09424635 0.028237045 0.28847918
-0.094032429 0.02834996 0.28856498
-0.093704157 0.028581934 0.2888062
-0.09346813 0.028825613 0.28909016
-0.09319602 0.029197004 0.28961396
-0.09298452 0.029613947 0.29031909
-0.093037553 0.030117942 0.29139429
-0.093088895 0.030906154 0.29301065
-0.067667671 0.021569094 0.24475907
-0.064552851 0.021204012 0.24114476
-0.064320721 0.020526858 0.24107556
-0.06390661 0.020245748 0.24105172
-0.063682087 0.020464398 0.2409883
-0.063517541 0.020604491 0.24094738
-0.063341595 0.020758744 0.24095525
-0.063169025 0.020803835 0.24096398
-0.06294433 0.020783059 0.24108629
-0.062688008 0.020699216 0.24125095
-0.062441804 0.020672379 0.24138404
-0.06212312 0.020646287 0.24154149
-0.061785512 0.020580547 0.24173164
-0.061438199 0.020457886 0.24198593
-0.061100949 0.020332092 0.24222748
-0.060766637 0.020269811 0.24244209
-0.060401745 0.020287583 0.24259837
-0.059983086 0.020291599 0.24273144
-0.059481338 0.020181682 0.2430162
-0.059043184 0.020208469 0.24320731
-0.058700338 0.020267172 0.24333084
-0.058334839 0.020281546 0.24343859
-0.058015022 0.020312361 0.24351981
-0.057615273 0.020330075 0.24368086
-0.054250829 0.020903943 0.245465
-0.054063808 0.020966863 0.24552901
-0.053729668 0.021116644 0.24566418
-0.053324401 0.021284899 0.24584833
-0.052896287 0.0214616 0.24602719
-0.052394904 0.021686198 0.24620855
-0.051825482 0.021898244 0.24639599
-0.051321037 0.022046018 0.24654494
-0.050820302 0.022205826 0.24670121
-0.050492164 0.022303984 0.24681252
-0.050163742 0.022391349 0.24691546
-0.049823973 0.022493975 0.247022
-0.049534522 0.022582827 0.24710403
-0.04924031 0.022687469 0.24719223
-0.048941135 0.022792039 0.24728914
-0.04859326 0.022911474 0.24741787
-0.048301257 0.023057334 0.24754566
-0.048110388 0.023148362 0.24763182
-0.047953665 0.023208218 0.24769139
-0.047776464 0.023279732 0.24775389
-0.047557581 0.02337873 0.24782966
-0.047266316 0.02348219 0.24792635
-0.047028258 0.02359806 0.24801993
-0.046831764 0.023677411 0.24809982
-0.046632778 0.023753144 0.24817476
-0.046384189 0.023832707 0.24823917
-0.027950341 0.017924326 0.19316743
-0.027920853 0.017924035 0.1931382
-0.027905826 0.0179669 0.19309703
-0.027860668 0.017925575 0.1930664
-0.027833996 0.017934432 0.19303258
-0.027813315 0.017929392 0.19301201
-0.027794871 0.017972335 0.19297048
-0.02777214 0.01791051 0.19298576
-0.027755685 0.017894 0.1929812
-0.027730035 0.017873919 0.19297281
-0.027713746 0.01789926 0.19294314
-0.027752548 0.018356347 0.19271921
-0.013885375 0.012030231 0.13034579
-0.013969391 0.012554234 0.13006085
-0.013987427 0.012655074 0.13000433
-0.013998916 0.012731034 0.12996173
-0.013997303 0.012773959 0.12994006
-0.014001936 0.012802236 0.12992531
-0.013998847 0.012786937 0.12993161
-0.013995011 0.012808587 0.12992027
-0.01397234 0.012710264 0.12996979
-0.013951173 0.012633846 0.1300111
-0.013932324 0.01257901 0.13003886
-0.013903346 0.012487589 0.13007694
-0.013874783 0.012373239 0.13013259
-0.013850689 0.012275549 0.13018389
-0.013817042 0.012164427 0.13023591
-0.013801566 0.01210819 0.13026296
-0.013764269 0.0119741 0.13032112
-0.01374614 0.011926257 0.1303433
0.015474835 0.017098643 0.20716837
0.015871238 0.01721835 0.20724693
0.016232295 0.017320456 0.20731817
0.016721673 0.017454151 0.2074268
0.017224679 0.017597776 0.2075322
0.017634168 0.017721502 0.20760621
0.018130312 0.01787371 0.20769696
0.018523287 0.017996162 0.20777269
0.018954862 0.018120419 0.20785263
0.019295458 0.018230861 0.2079066
0.019581534 0.018323109 0.2079379
0.019936798 0.018442776 0.20797199
0.020368183 0.018569546 0.20802046
0.020873902 0.01870973 0.20808931
0.021343453 0.01885118 0.20815451
0.021741662 0.018976253 0.20821133
0.022088524 0.019082434 0.2082653
0.022399979 0.01917471 0.20830791
0.02269082 0.019278536 0.20833881
0.023060264 0.019383064 0.20838547
0.023446238 0.01950489 0.20843367
0.023904614 0.019656662 0.20849437
0.024363989 0.0198148 0.20856911
0.024961939 0.020002877 0.20868126
0.025403185 0.020123769 0.20875806
0.02573113 0.020216078 0.20881028
0.025940239 0.020295829 0.20884258
0.026251037 0.020381803 0.20888726
0.026618704 0.020483844 0.20894013
0.026985798 0.020593287 0.20899099
0.027415996 0.020722568 0.20904626
0.027900856 0.020864589 0.20910363
0.028288348 0.020978548 0.2091507
0.028616272 0.021080233 0.20918687
0.028943142 0.021193525 0.20922731
0.029200807 0.021273721 0.20925947
0.029454073 0.021358009 0.20930289
0.029726144 0.021447167 0.20934086
0.063387245 0.022876771 0.2186622
0.063478462 0.022678999 0.21877573
0.063684963 0.022234749 0.21902302
0.063818365 0.021961791 0.21917109
0.063904107 0.021807199 0.21924731
0.063938119 0.02178066 0.21925612
0.063928746 0.021850077 0.21920347
0.063940205 0.021894267 0.21917336
0.064009711 0.021778092 0.21921997
-0.15609336 0.025796186 0.30067286
-0.15546721 0.025931146 0.30081561
-0.15502849 0.026075501 0.30096939
-0.15464787 0.02634242 0.30125749
-0.15427867 0.026549544 0.30149949
-0.15389885 0.026748853 0.30173129
-0.15338698 0.026903173 0.3019222
-0.15289696 0.027033146 0.30210623
-0.15243034 0.027183242 0.30231065
-0.15190946 0.027323844 0.30249551
-0.15122278 0.027422134 0.30257997
-0.15069579 0.027519586 0.30267033
-0.15020527 0.027669286 0.30281672
-0.14976956 0.027819054 0.3029823
-0.14932643 0.028005902 0.30316219
-0.14890604 0.028248349 0.30341613
-0.14851077 0.028476521 0.30364621
-0.14811791 0.028756635 0.30392385
-0.14759901 0.028960595 0.30414036
-0.14713949 0.029185586 0.30437416
-0.14666751 0.029401539 0.30459291
-0.14620003 0.029595984 0.30479932
-0.14577298 0.029740904 0.30496132
-0.14529727 0.029881036 0.30509281
-0.14480814 0.030044187 0.30524451
-0.14442971 0.0302213 0.30540907
-0.14399289 0.030362472 0.30552992
-0.14335823 0.030394666 0.30552995
-0.14273858 0.030268429 0.30540723
-0.14204243 0.030087419 0.30523276
-0.14143577 0.030001124 0.30513254
-0.14094557 0.030071011 0.30516294
-0.14028302 0.030112544 0.30514657
-0.13961284 0.03008806 0.30508935
-0.13871987 0.029991278 0.30499634
-0.13796958 0.02995264 0.30492961
-0.13731439 0.029960196 0.30488676
-0.13672538 0.030059479 0.30495241
-0.13611592 0.030160023 0.30500987
-0.1354899 0.030210145 0.30501702
-0.13469814 0.029996736 0.30478287
-0.13383874 0.029814079 0.30458155
-0.1328674 0.029560292 0.30426416
-0.13225372 0.029479453 0.30414584
-0.13166656 0.029492844 0.30412477
-0.13099556 0.029393489 0.30397931
-0.13040866 0.029359162 0.30387229
-0.12996039 0.029537084 0.30403963
-0.12946196 0.029605649 0.30406719
-0.12891835 0.029684778 0.30411175
-0.12835531 0.029728808 0.30411184
-0.12802616 0.029876238 0.30426991
-0.12776256 0.030324765 0.30476782
-0.12740916 0.030673048 0.30514935
-0.12692077 0.030841803 0.30532482
-0.12631291 0.030817432 0.30526784
-0.12557329 0.030819317 0.30519426
-0.1249959 0.030812271 0.30513802
-0.1243461 0.030862087 0.30513054
-0.12368474 0.030850992 0.30501014
-0.12330712 0.03093927 0.30508694
-0.12270461 0.031075478 0.30523476
-0.12216191 0.031155 0.30526188
-0.12151058 0.031185737 0.30521169
-0.12077505 0.031009473 0.30480087
-0.12001529 0.030740162 0.30415237
-0.11816644 0.030108036 0.30264229
-0.11565206 0.028821234 0.29911497
-0.11402724 0.028374448 0.2969788
-0.11276463 0.028150963 0.29556298
-0.11199113 0.027948134 0.29457524
-0.11093662 0.028004663 0.29405227
-0.11016693 0.028178154 0.29399797
-0.10932969 0.028075252 0.29324141
-0.10845135 0.027997766 0.29254484
-0.1077732 0.027933225 0.29203618
-0.10700481 0.027853344 0.29144442
-0.1063475 0.027912654 0.29122934
-0.10559422 0.027912842 0.29083699
-0.10482887 0.027831173 0.290346
-0.10374882 0.02742102 0.28928661
-0.10268237 0.02692553 0.28821442
-0.10155773 0.026655924 0.28771049
-0.10086239 0.026484909 0.28740793
-0.10020129 0.026419228 0.28728151
-0.099768795 0.026422415 0.2872231
-0.099315196 0.026442131 0.28718218
-0.098873086 0.026600163 0.28732905
-0.098522902 0.02669145 0.28740141
-0.09810169 0.026825322 0.28752971
-0.097708419 0.026858421 0.28750396
-0.097230345 0.026950911 0.28751791
-0.096788161 0.026943773 0.28739667
-0.096198738 0.027138738 0.28751129
-0.095581807 0.027428845 0.28774759
-0.095159344 0.027700074 0.28798306
-0.094793804 0.027959712 0.28817558
-0.094556563 0.028171133 0.28847697
-0.094179548 0.028424885 0.28864771
-0.09394148 0.028524777 0.28876448
-0.093509398 0.028785685 0.28886893
-0.093218617 0.029000916 0.28902182
-0.09291631 0.029286677 0.28926772
-0.09265662 0.029582547 0.28965798
-0.092526421 0.029837804 0.29018614
-0.092374444 0.030140167 0.29070178
-0.092389658 0.030538425 0.29160807
-0.092210732 0.030850712 0.29228386
-0.092205919 0.031149387 0.29308817
-0.065310314 0.021985617 0.24207801
-0.064473361 0.021115493 0.24101248
-0.064220116 0.020802177 0.24096951
-0.063905604 0.020704625 0.24090412
-0.063651338 0.020876724 0.24083754
-0.063502058 0.021066733 0.24077511
-0.063334391 0.021180917 0.2407534
-0.063125953 0.021207204 0.24083844
-0.062906429 0.021129815 0.24097623
-0.062691547 0.021049902 0.24111928
-0.062426168 0.021029042 0.24125032
-0.062156253 0.021004075 0.24139465
-0.06184369 0.020935003 0.24157549
-0.06143998 0.020766677 0.24182859
-0.061110407 0.020641288 0.24208884
-0.060765713 0.020618176 0.24227318
-0.060379233 0.020555314 0.24247193
-0.060016975 0.020610491 0.24261756
-0.059554748 0.020580567 0.24281576
-0.059040133 0.020535652 0.24308789
-0.058624718 0.0205162 0.24331994
-0.053066541 0.021457361 0.24594076
-0.052470215 0.021680392 0.24619904
-0.051883444 0.021895612 0.2464034
-0.051367823 0.022050237 0.24657542
-0.050997224 0.022183139 0.24668859
-0.050578311 0.022311445 0.24679254
-0.050333675 0.022387344 0.24686855
-0.050031338 0.022448802 0.24697016
-0.049743764 0.022524476 0.24705254
-0.049432084 0.022626441 0.24713814
-0.04911489 0.022738853 0.24723089
-0.04881461 0.022844695 0.2473339
-0.04847363 0.022988718 0.24747112
-0.048257522 0.023077138 0.24756478
-0.048067015 0.023169249 0.24765025
-0.04789098 0.023240924 0.24771914
-0.047712717 0.023312001 0.24777885
-0.047448907 0.023427956 0.2478669
-0.047205623 0.023527436 0.24795106
-0.046985853 0.023624072 0.2480361
-0.046745021 0.023716388 0.24814059
-0.04659576 0.023796692 0.24819882
-0.046339266 0.023863461 0.24824765
-0.046107277 0.023931989 0.2482965
-0.045923144 0.024004241 0.24834935
-0.028000565 0.018351359 0.19295514
-0.027971964 0.018366165 0.19291274
-0.027955493 0.018387273 0.19287564
-0.027924784 0.018398682 0.19283497
-0.027908605 0.018384842 0.1928266
-0.027884612 0.018396948 0.19280021
-0.027862139 0.018351981 0.19281033
-0.027834682 0.018328914 0.19279361
-0.027837312 0.018359618 0.19277929
-0.027811138 0.018297702 0.19279422
-0.027782673 0.018263735 0.19279639
-0.027848905 0.019018758 0.19242291
-0.013967843 0.012476932 0.1301119
-0.014027735 0.01282004 0.12992196
-0.014040754 0.012909568 0.1298755
-0.014058286 0.013021112 0.12981538
-0.014053669 0.013041834 0.1298019
-0.014061175 0.013075965 0.12978193
-0.014049752 0.013063257 0.12979227
-0.014039361 0.013036384 0.12980619
-0.014015048 0.012952522 0.12984845
-0.014003161 0.012896637 0.12987837
-0.013981639 0.012819167 0.1299154
-0.013963035 0.012750668 0.12995376
-0.013922814 0.012602453 0.13001993
-0.013896286 0.012476244 0.13008645
-0.013871972 0.012386919 0.13013287
-0.01384355 0.012280774 0.1301828
-0.013815917 0.012189244 0.13022412
-0.013788991 0.012091374 0.13026585
0.017769691 0.017776376 0.2076323
0.018250523 0.017919648 0.20772065
0.01866195 0.018043952 0.20779851
0.019128406 0.018191053 0.20787911
0.019509599 0.018305741 0.20792992
0.019829946 0.018408312 0.2079647
0.020132238 0.018508853 0.20798947
0.020619437 0.018642206 0.20805927
0.021086814 0.018787742 0.20811227
0.02161465 0.018933224 0.20819992
0.021921728 0.019030936 0.2082445
0.022160172 0.019111369 0.20827118
0.022544695 0.019229591 0.20832238
0.022873268 0.019335186 0.20836455
0.023185167 0.019435603 0.20839858
0.023622897 0.019584933 0.20845395
0.024044363 0.019722914 0.20851882
0.024472352 0.019859865 0.20858927
0.025000267 0.020017006 0.20868684
0.025440086 0.020140268 0.20876507
0.025787059 0.020241424 0.20881891
0.026017386 0.020324254 0.20885342
0.026345978 0.02041959 0.20890267
0.026656471 0.020499351 0.20894477
0.027064295 0.020622728 0.20900208
0.027511405 0.020755934 0.20905629
0.02795881 0.02088755 0.2091064
0.028367538 0.021008203 0.209157
0.028714651 0.021118294 0.2091959
0.029066123 0.021235971 0.20924464
0.029358013 0.021329511 0.20928876
0.029570943 0.021408988 0.20931958
0.029891372 0.021509539 0.20937154
0.030188289 0.021589028 0.2094171
0.030627266 0.021709936 0.20948839
0.031014241 0.0218189 0.20956825
0.031446144 0.021967301 0.20965469
0.063168675 0.023526385 0.21828976
0.063285917 0.023298303 0.21843494
0.063456528 0.022863284 0.21866642
0.06361708 0.022486705 0.21887772
0.06373129 0.022246886 0.21901718
0.063751191 0.02224686 0.21900006
0.063711919 0.022437675 0.21887176
0.063765243 0.0223608 0.21889548
-0.1546541 0.026530253 0.30142066
-0.15418063 0.026728144 0.30165187
-0.15375513 0.026913403 0.30187052
-0.15327655 0.02707701 0.30208558
-0.15281552 0.027205875 0.30228123
-0.15232517 0.027378149 0.30251122
-0.1517607 0.027506659 0.30266741
-0.15121341 0.027670216 0.30284917
-0.15078533 0.027822334 0.30301118
-0.1503249 0.028007811 0.30319893
-0.14983751 0.028190643 0.30336943
-0.14932381 0.028301841 0.30346414
-0.14879577 0.028462745 0.30360541
-0.14837541 0.02872915 0.30388173
-0.14794286 0.028936751 0.30408052
-0.1474779 0.029175453 0.30434138
-0.14700083 0.029381726 0.30454981
-0.14651376 0.02958338 0.30475444
-0.14607687 0.029727818 0.30491537
-0.14567618 0.029915789 0.30509481
-0.14520337 0.030145826 0.30532926
-0.14479764 0.030326983 0.30549368
-0.14430858 0.03048302 0.30563942
-0.14388311 0.030603202 0.3057397
-0.1433741 0.030746693 0.30585164
-0.14286925 0.030806769 0.30589426
-0.1423759 0.030826693 0.30588824
-0.14177282 0.030777086 0.30580148
-0.14116953 0.030741429 0.30573094
-0.14057279 0.030728146 0.30569193
-0.13996322 0.030786695 0.30570754
-0.13934268 0.030784933 0.30567721
-0.13862585 0.030812178 0.30567095
-0.13797659 0.030845642 0.30568716
-0.13741268 0.030956956 0.30575833
-0.13662906 0.030968158 0.30571237
-0.13595511 0.030870769 0.30559844
-0.13502105 0.030713525 0.30540606
-0.13424033 0.030511759 0.3051832
-0.13357806 0.030433135 0.30508494
-0.13287015 0.030376771 0.30501238
-0.1320319 0.030130029 0.30472225
-0.13124934 0.029952012 0.30450431
-0.13053057 0.029789943 0.30433401
-0.12998898 0.029864792 0.30438456
-0.12947008 0.029967137 0.30444825
-0.12890881 0.030026641 0.30448633
-0.12849088 0.030104397 0.30453438
-0.12803549 0.030179432 0.30458814
-0.12769781 0.030586338 0.30505267
-0.12734874 0.030972224 0.30544356
-0.12693022 0.031144692 0.30561516
-0.1263902 0.03124629 0.30571496
-0.12583435 0.031306129 0.30576172
-0.12520237 0.031294428 0.30570519
-0.12458199 0.031378105 0.30577642
-0.12396381 0.031464439 0.30583408
-0.12343147 0.031470757 0.30580673
-0.12289114 0.031556044 0.30587661
-0.12232038 0.031589281 0.30585629
-0.121749 0.031656329 0.30589283
-0.12112106 0.031717904 0.30590785
-0.12044337 0.031676497 0.30572203
-0.11988931 0.031435777 0.30527705
-0.11908325 0.031312998 0.30483887
-0.11796671 0.0310637 0.30412447
-0.11647138 0.030559225 0.30287588
-0.11476739 0.029908588 0.30096188
-0.11340317 0.029544307 0.29945719
-0.11211841 0.029384857 0.29821002
-0.11084475 0.02914701 0.29675189
-0.10966623 0.028945994 0.29547799
-0.10851471 0.028732477 0.29424828
-0.10753076 0.028721604 0.29364333
-0.10684077 0.028714644 0.29323569
-0.10635265 0.028568123 0.29262173
-0.10543088 0.028569318 0.29213393
-0.10453281 0.028403051 0.2913411
-0.10353681 0.028119754 0.29037204
-0.10252256 0.027913796 0.28972894
-0.1015737 0.027686439 0.28914016
-0.10061567 0.027386032 0.28865013
-0.099814564 0.027226485 0.28842294
-0.099204861 0.027222646 0.28834531
-0.098808616 0.027262915 0.288351
-0.098380856 0.027385833 0.28851593
-0.097993478 0.027393907 0.28842121
-0.097538523 0.027322108 0.28821516
-0.097076327 0.027337944 0.28809264
-0.096518226 0.027417801 0.28803885
-0.09603183 0.027574077 0.28811276
-0.095478922 0.027761232 0.28817302
-0.095082998 0.027982963 0.28828454
-0.094688259 0.028173234 0.28844514
-0.094462857 0.028342688 0.28860882
-0.094106175 0.028601712 0.28884974
-0.093758173 0.028858591 0.28898534
-0.093383871 0.0290883 0.28910324
-0.093024164 0.029238634 0.28911719
-0.092698634 0.029479535 0.28925249
-0.092415534 0.029710568 0.28946412
-0.092042714 0.029958483 0.28961724
-0.091850929 0.030102929 0.28979784
-0.091641314 0.030289965 0.29005194
-0.091522157 0.030538866 0.29037628
-0.091389343 0.030676547 0.29073492
-0.091181964 0.030819619 0.29087692
-0.09074384 0.030846789 0.29051363
-0.089705333 0.030612955 0.28905624
-0.064606324 0.021636587 0.24099797
-0.064432584 0.021319117 0.2408475
-0.064144328 0.021186519 0.24077788
-0.063857086 0.021250946 0.24070249
-0.063640676 0.021329358 0.24065679
-0.063491419 0.021537457 0.24060945
-0.063333042 0.021614559 0.2406119
-0.06312602 0.021567456 0.24072245
-0.062914856 0.021478727 0.24085818
-0.062682405 0.021319577 0.24105527
-0.062449027 0.021278728 0.24118105
-0.062165584 0.021270031 0.24130678
-0.061108075 0.020965807 0.241962
-0.06074331 0.02092764 0.24216078
-0.060409319 0.020880209 0.24231397
-0.060054779 0.020900924 0.24247913
-0.059662066 0.020904545 0.24265906
-0.059154939 0.020888785 0.24292578
-0.05205686 0.021896262 0.24635544
-0.051353298 0.022116212 0.24662697
-0.050830338 0.022284865 0.24678971
-0.0503833 0.022393992 0.24692661
-0.050159015 0.022455597 0.24695151
-0.050009318 0.022502435 0.2469735
-0.049860861 0.022530688 0.24702203
-0.049548965 0.022620527 0.24710631
-0.049229205 0.022717753 0.24719362
-0.048885003 0.022837492 0.24730673
-0.048565809 0.022965936 0.24743421
-0.048373699 0.02304798 0.24751994
-0.048158981 0.0231399 0.24761681
-0.047983982 0.02321199 0.24768941
-0.047806986 0.023283569 0.24775387
-0.047609165 0.023370348 0.24782011
-0.047343723 0.02348491 0.24790514
-0.047120016 0.023575176 0.24798325
-0.046878546 0.023675483 0.2480813
-0.046661049 0.023773255 0.24816827
-0.046506587 0.023836277 0.24822943
-0.046253584 0.023914123 0.24828589
-0.046062812 0.023960911 0.24831024
-0.045827247 0.024019951 0.24836102
-0.028051339 0.01883048 0.19269703
-0.02802291 0.018795216 0.19268985
-0.028010519 0.018867927 0.19263515
-0.027993299 0.018840401 0.19263251
-0.027976554 0.018809646 0.19263777
-0.027955629 0.018748695 0.19265421
-0.027928416 0.018727066 0.19264084
-0.027920429 0.018771214 0.19261302
-0.027912045 0.018740153 0.19262488
-0.027873833 0.018657008 0.19263646
-0.02784537 0.018635124 0.19262257
-0.027950335 0.019572776 0.19217931
-0.014027548 0.012791697 0.12994334
-0.014082007 0.01306566 0.12979648
-0.014109334 0.013208656 0.12971629
-0.01411287 0.013279078 0.12967969
-0.014116191 0.013307761 0.12966454
-0.014106265 0.013278871 0.12967846
-0.014107609 0.01331431 0.12966014
-0.014097686 0.013279462 0.12967752
-0.014073891 0.013189319 0.12972452
-0.014044817 0.013094893 0.1297773
-0.014028319 0.013025842 0.12981486
-0.014008753 0.012956095 0.12985086
-0.013980951 0.012860019 0.12990288
-0.013949374 0.012733604 0.12996498
-0.013914864 0.012608049 0.13002196
-0.013885533 0.012488565 0.13008192
-0.013857539 0.012369839 0.13014208
-0.013836632 0.012298778 0.13017038
0.019986229 0.018464958 0.20798396
0.020380359 0.018586935 0.20802476
0.020831825 0.018720035 0.20808247
0.021412229 0.018878248 0.20816897
0.021865729 0.01901727 0.20823741
0.022069655 0.019076245 0.20826258
0.022209771 0.019141348 0.20827645
0.022540804 0.019237915 0.20832191
0.022888448 0.01934945 0.20836212
0.02325541 0.019466449 0.20840657
0.023708271 0.019627733 0.20846777
0.024118191 0.019750839 0.20852749
0.024542235 0.019893581 0.20860375
0.02499927 0.020023363 0.20868506
0.025475945 0.020163581 0.20877126
0.025881374 0.020277807 0.20883469
0.026168138 0.020376256 0.20887609
0.026402317 0.020441042 0.2089096
0.026752179 0.020536283 0.20895995
0.027121028 0.020643933 0.20900889
0.027630985 0.020797938 0.20906676
0.028059993 0.020922547 0.20911483
0.028426699 0.021040007 0.20915361
0.028754519 0.02113433 0.20919751
0.029102804 0.021256188 0.20924649
0.029455619 0.021371674 0.20930158
0.029713517 0.021456817 0.2093495
0.029987698 0.021543372 0.20938705
0.030313609 0.021646027 0.20944004
0.030711923 0.021744389 0.20950408
0.031038402 0.021843797 0.20956707
0.031464871 0.021978326 0.20965511
0.031989373 0.022146029 0.20975925
0.032498784 0.022288142 0.20985556
0.062945507 0.024169328 0.21794811
0.063090526 0.02396558 0.21807757
0.063294381 0.02360655 0.21827397
0.063448846 0.023102194 0.21854812
0.063503347 0.022918299 0.21864522
0.063544929 0.022981523 0.21859233
0.063548669 0.023220515 0.21844088
0.063592762 0.023299146 0.21837732
-0.15270516 0.027391564 0.30246076
-0.15223542 0.027587244 0.30270731
-0.1516766 0.027748218 0.30289051
-0.15115197 0.027895061 0.30306488
-0.15074731 0.028045489 0.30322111
-0.15028615 0.028255211 0.30342031
-0.14980149 0.028447323 0.30359948
-0.1492676 0.028556678 0.30371115
-0.14869994 0.028644921 0.3037836
-0.14820324 0.028883744 0.30401224
-0.14780568 0.029133637 0.30425504
-0.14740352 0.029381534 0.30450708
-0.14687854 0.029552089 0.30469155
-0.14634226 0.029671958 0.30481786
-0.14590712 0.029847918 0.30501071
-0.14553329 0.030050505 0.30522025
-0.14508019 0.030300096 0.30545256
-0.14464675 0.030469749 0.30560875
-0.14416949 0.030628359 0.30575067
-0.14367451 0.030789264 0.3058832
-0.14334239 0.030927025 0.30600783
-0.14289583 0.031060515 0.30612847
-0.14238928 0.031112198 0.30614573
-0.14181358 0.031121185 0.30610639
-0.14126185 0.031156318 0.30607745
-0.14062811 0.03126765 0.30613863
-0.14007987 0.03140739 0.30623886
-0.13966821 0.031536557 0.30634096
-0.13926426 0.031819858 0.30657765
-0.13871445 0.031930014 0.30664137
-0.13801554 0.031906489 0.30657697
-0.13711058 0.031720076 0.30638003
-0.13620283 0.031520545 0.30615938
-0.13532627 0.031370968 0.30597311
-0.13460527 0.031299457 0.3058717
-0.13395432 0.031190334 0.30575761
-0.13328232 0.031133214 0.3056784
-0.13238886 0.030794168 0.30536565
-0.13136359 0.030410253 0.30492589
-0.13064849 0.030228941 0.30474636
-0.13007621 0.030292768 0.30479541
-0.12963292 0.030435095 0.3049545
-0.12904729 0.030486969 0.30497482
-0.12855142 0.030533219 0.30499581
-0.12806128 0.030648049 0.30509725
-0.12764807 0.030848259 0.30530939
-0.12721266 0.03109465 0.30555391
-0.12679316 0.031297609 0.30575997
-0.12627667 0.031413529 0.30587932
-0.12579705 0.031570304 0.30602762
-0.12531814 0.031809874 0.3062782
-0.12479793 0.031856552 0.30632538
-0.12418217 0.0318348 0.30630052
-0.12350433 0.031838253 0.30627546
-0.12289964 0.031887513 0.30631742
-0.12246639 0.031941261 0.30635819
-0.12175398 0.032013878 0.30638415
-0.12125151 0.032098182 0.30644882
-0.12061075 0.032119643 0.30641285
-0.12011979 0.032195278 0.30646771
-0.11953141 0.032220241 0.30642271
-0.11887977 0.032196254 0.30624244
-0.11822618 0.032144684 0.30604059
-0.11761364 0.032033745 0.30567196
-0.11677428 0.031854175 0.30516946
-0.11576033 0.031686857 0.30461323
-0.11434064 0.031190656 0.30321333
-0.11234226 0.030603901 0.30114233
-0.11047959 0.030070536 0.29874656
-0.10914331 0.029899092 0.29740727
-0.10808767 0.029636757 0.29609361
-0.10697224 0.029530119 0.29514742
-0.10603944 0.02916188 0.29377285
-0.1050289 0.028964551 0.29276836
-0.10412931 0.02874337 0.2918596
-0.10333412 0.028713776 0.29144195
-0.10264099 0.02873661 0.29121721
-0.10183654 0.028710173 0.29089659
-0.10074307 0.028594382 0.29042587
-0.09967 0.028379137 0.29001907
-0.098927721 0.028287927 0.28988886
-0.098361298 0.028235303 0.2897591
-0.097867548 0.028121974 0.28956383
-0.097396545 0.028029922 0.28929305
-0.096894965 0.027980866 0.28906906
-0.096364602 0.027931554 0.28877434
-0.095953591 0.027959002 0.28866479
-0.095422357 0.028085046 0.28865772
-0.094937898 0.028268168 0.28864738
-0.094651558 0.028469991 0.28879443
-0.094331622 0.028655929 0.28896558
-0.094039939 0.028911028 0.28917387
-0.093645483 0.029171111 0.28925833
-0.093349725 0.029356314 0.28934857
-0.092951849 0.029582499 0.28938988
-0.092484064 0.029750139 0.28937587
-0.092186354 0.02991038 0.28944421
-0.091745719 0.03004705 0.28938657
-0.09139514 0.030161051 0.28933823
-0.091131687 0.030295193 0.28935081
-0.090995297 0.030435285 0.28955022
-0.090737954 0.030597372 0.28969875
-0.090542726 0.030701237 0.28974456
-0.090102747 0.030713318 0.28942001
-0.089215606 0.030567952 0.28835034
-0.064570166 0.021712914 0.24059585
-0.064352185 0.021703949 0.24061541
-0.064102508 0.021680871 0.24059296
-0.06386207 0.021760536 0.24049713
-0.063674472 0.021833479 0.24047109
-0.063504666 0.021939965 0.2404561
-0.063324265 0.021997666 0.24046665
-0.063115038 0.021912603 0.24060039
-0.062905744 0.021751963 0.24076852
-0.062702633 0.021613197 0.24095285
-0.062452443 0.021556502 0.24110995
-0.060759034 0.021247236 0.24203491
-0.060400467 0.021224258 0.2421843
-0.06009569 0.021175127 0.24234357
-0.059745483 0.021194752 0.24250485
-0.050441418 0.022405569 0.24692994
-0.049876228 0.022647055 0.24710074
-0.049906708 0.022556381 0.24704106
-0.04977354 0.022592533 0.24704094
-0.04961051 0.02264992 0.24708293
-0.049262531 0.022735802 0.24718204
-0.048924439 0.022862213 0.24729617
-0.04852137 0.02301814 0.24746548
-0.048301745 0.023104262 0.24756224
-0.048191622 0.023146719 0.24761012
-0.048055906 0.023195807 0.24766558
-0.047905423 0.023262929 0.24772851
-0.047723696 0.023330951 0.24778739
-0.047526844 0.023420351 0.24785215
-0.047260251 0.023534762 0.24793538
-0.046946172 0.023656512 0.24804901
-0.046729676 0.023752894 0.24814178
-0.046577107 0.023823451 0.24820077
-0.046463337 0.023857918 0.24824636
-0.046205677 0.023931747 0.24829294
-0.045967624 0.02398812 0.24832129
-0.045785103 0.024054354 0.24837688
-0.028101724 0.019192101 0.19251901
-0.028083697 0.019202929 0.19249786
-0.028076168 0.019250611 0.1924618
-0.028048569 0.019214047 0.19245118
-0.028032148 0.019168785 0.1924648
-0.02799964 0.019061854 0.19250628
-0.027980817 0.019000532 0.19252548
-0.027977534 0.019030742 0.1925066
-0.027950512 0.019032044 0.19247696
-0.027935514 0.019045409 0.19245949
-0.027922343 0.019045481 0.19245332
-0.028006064 0.020019572 0.19197559
-0.014103871 0.013121252 0.12978065
-0.014139303 0.013339092 0.12966037
-0.014159024 0.013448494 0.1296
-0.014162718 0.013496962 0.12957394
-0.014160409 0.013511009 0.12956317
-0.014155354 0.013488602 0.12957273
-0.0141479 0.013487814 0.12956905
-0.014141976 0.013481465 0.12957223
-0.014123786 0.013420252 0.12960494
-0.01410477 0.013343691 0.12964426
-0.01407911 0.013263598 0.12969062
-0.014054389 0.013166483 0.12974133
-0.014030367 0.013078708 0.12979166
-0.013995203 0.012940552 0.12986389
-0.013977316 0.012865638 0.12990406
-0.01394088 0.012718846 0.12997521
-0.013903601 0.012577782 0.13004106
0.021029335 0.018784868 0.20810923
0.021608297 0.018948181 0.20820026
0.022007225 0.019075152 0.20825428
0.022173138 0.019126214 0.20827216
0.022297241 0.019175345 0.20828748
0.022539547 0.019238627 0.20832054
0.022886906 0.019350629 0.20836136
0.023341281 0.01950435 0.20841809
0.023781406 0.019653849 0.20847753
0.024205497 0.019788951 0.20854542
0.024616994 0.019918079 0.20861727
0.025017062 0.020031316 0.20868906
0.025474988 0.020167829 0.20877016
0.025918752 0.020299567 0.2088391
0.02624632 0.020392314 0.20888638
0.026514169 0.020483522 0.20892625
0.026884614 0.020588439 0.20897833
0.027295159 0.020707261 0.20903215
0.027708504 0.020822003 0.20907755
0.028094755 0.020945957 0.20911062
0.028426785 0.021046357 0.20914765
0.02873615 0.021138996 0.20918849
0.029083695 0.021252606 0.20924288
0.029434785 0.021375252 0.20929895
0.029773079 0.021484472 0.20935671
0.030050112 0.021565126 0.20939869
0.030391743 0.021672659 0.20945241
0.030753559 0.021776143 0.20950706
0.031080864 0.021868752 0.20957071
0.03156957 0.022024941 0.20966811
0.032056205 0.022169506 0.20977092
0.032543357 0.022309305 0.20986576
0.032970145 0.022434646 0.20993853
0.033328902 0.022527751 0.20998955
0.062739745 0.02469792 0.21769649
0.062969416 0.024422312 0.21787015
0.063151978 0.024124697 0.21804638
0.063348591 0.023772204 0.21823601
0.063435547 0.023597915 0.21831432
0.063456506 0.023703614 0.2182609
0.063510723 0.023841577 0.21816732
0.063572928 0.023991091 0.21805619
-0.15111499 0.02805117 0.30320206
-0.15066548 0.028300652 0.30343673
-0.15029052 0.028505515 0.30364802
-0.14974767 0.028627725 0.30376253
-0.1491037 0.028738447 0.30387112
-0.14864336 0.028899746 0.3040106
-0.14815561 0.029085793 0.30417955
-0.14768201 0.029333347 0.30441675
-0.14722893 0.029558718 0.30467579
-0.14674312 0.02974507 0.30489099
-0.14627403 0.029881537 0.30501682
-0.14576706 0.030043915 0.30518782
-0.14541459 0.030303631 0.30544129
-0.14501561 0.030462848 0.30558032
-0.14451273 0.030623132 0.30572224
-0.14401697 0.030768186 0.3058517
-0.14352687 0.030892143 0.30596122
-0.14316498 0.031065768 0.30611604
-0.14274164 0.031176794 0.30621383
-0.14226708 0.031262733 0.30626589
-0.1417316 0.031323835 0.30627826
-0.14121154 0.031458873 0.30634478
-0.14055561 0.031578545 0.30640492
-0.14013453 0.031772699 0.30657241
-0.13970755 0.032031238 0.30679271
-0.13938175 0.032350119 0.30706912
-0.13892244 0.032607436 0.30728036
-0.13835527 0.032647502 0.30726963
-0.13740617 0.032444812 0.30702418
-0.13639708 0.032149952 0.30669838
-0.13556053 0.032036155 0.30653363
-0.13491638 0.031975038 0.30645132
-0.13421127 0.031920396 0.30638149
-0.13345505 0.031734612 0.3062011
-0.13264748 0.031410661 0.30589613
-0.13156763 0.030946555 0.30542091
-0.1308706 0.030824594 0.30529362
-0.13042761 0.030937508 0.30541754
-0.12993664 0.031280879 0.30575731
-0.12954858 0.031446338 0.30591241
-0.12888327 0.031343475 0.30584493
-0.12817724 0.031245397 0.30573708
-0.12768012 0.031320386 0.30579999
-0.12716343 0.031327393 0.30579931
-0.12668692 0.031405035 0.30586967
-0.12615836 0.03150069 0.30594221
-0.12569331 0.031628311 0.30606845
-0.12526998 0.031938661 0.30640066
-0.12483255 0.032059364 0.30652732
-0.12428296 0.032118 0.30660823
-0.12360019 0.032118402 0.30660394
-0.12295094 0.03214632 0.30662772
-0.12230202 0.032155689 0.30660588
-0.12169071 0.032222282 0.30664891
-0.12112667 0.032307114 0.30673406
-0.1205767 0.03250923 0.30695999
-0.12015972 0.032701895 0.30718789
-0.11960734 0.03278935 0.3072547
-0.11899154 0.032892473 0.30730912
-0.11841629 0.032944288 0.30729526
-0.11778448 0.033069219 0.30732882
-0.11729632 0.033097222 0.30725637
-0.11670473 0.033150736 0.30720419
-0.11598273 0.033081967 0.30692959
-0.11511759 0.032797512 0.30634668
-0.11414813 0.032240521 0.30513552
-0.1123564 0.031771548 0.30358219
-0.11058255 0.031190833 0.30141178
-0.10854252 0.030420322 0.29826742
-0.10675953 0.03004743 0.29623505
-0.1056658 0.029723929 0.29482478
-0.10475735 0.029461723 0.29374665
-0.10383876 0.029416081 0.29317248
-0.1032804 0.029439539 0.29296434
-0.10255779 0.02949837 0.29276407
-0.10191948 0.0295757 0.2926549
-0.10102794 0.029604442 0.29244545
-0.10032538 0.029574711 0.29225013
-0.099221371 0.029392699 0.29173607
-0.09831778 0.029293898 0.29146042
-0.097507156 0.028926615 0.29071495
-0.096928872 0.028620502 0.29006755
-0.096384287 0.028495943 0.28968838
-0.09591376 0.028486375 0.28946549
-0.095493138 0.02852189 0.28933516
-0.09505944 0.028661843 0.28929004
-0.094675802 0.028859923 0.28939617
-0.094299465 0.029099356 0.2895841
-0.09397807 0.029382687 0.28977293
-0.093601346 0.029584887 0.28984573
-0.093287997 0.029678956 0.28978276
-0.092869274 0.029830243 0.28978303
-0.092484906 0.029997027 0.28971338
-0.0920472 0.030101756 0.2895484
-0.091597661 0.030219035 0.28941169
-0.091196753 0.030289052 0.28925738
-0.090952657 0.03037853 0.28924221
-0.090696096 0.030515205 0.28929138
-0.090522073 0.030638462 0.28939959
-0.090267934 0.030748211 0.28943694
-0.089754134 0.030755062 0.28901565
-0.088998429 0.030652676 0.28820294
-0.085750647 0.032143705 0.28634748
-0.064519301 0.022279378 0.24030884
-0.064311959 0.022288622 0.24030763
-0.064097293 0.022295801 0.2403153
-0.063879654 0.022265349 0.24031995
-0.06370151 0.02238835 0.24027668
-0.063517235 0.022380028 0.24030696
-0.063357465 0.022430293 0.24031875
-0.063131325 0.022311617 0.24045023
-0.062937178 0.022110127 0.24067277
-0.062684111 0.021911597 0.24089254
-0.062449209 0.02185631 0.2410377
-0.048927017 0.022902552 0.24730478
-0.048408926 0.023095736 0.24752399
-0.048146706 0.023198653 0.24764179
-0.048028126 0.023233159 0.24768806
-0.047981255 0.023249609 0.24770541
-0.047955561 0.023253432 0.24771306
-0.047836639 0.023288954 0.24775091
-0.047638934 0.023375705 0.24781796
-0.047417887 0.023472395 0.24788639
-0.047125712 0.023589198 0.24798147
-0.046859868 0.023700198 0.24808218
-0.046686366 0.02377305 0.24815951
-0.046510562 0.023852069 0.24822655
-0.046373028 0.023900721 0.24826328
-0.046184041 0.023946904 0.24829756
-0.04592428 0.024013933 0.24834228
-0.045742739 0.0240844 0.2483965
-0.028166246 0.019447956 0.19242601
-0.028157996 0.019505177 0.19238515
-0.028134488 0.01953982 0.19234027
-0.02812049 0.019594906 0.19229199
-0.028101675 0.019517729 0.19232552
-0.028078919 0.019471755 0.19233339
-0.028055338 0.019396825 0.19235489
-0.028046548 0.019380763 0.19235794
-0.028026978 0.019343514 0.1923593
-0.028009411 0.019336537 0.19234475
-0.0279964 0.019365503 0.1923248
-0.027996983 0.019454796 0.19227631
-0.028073089 0.020348264 0.1918297
-0.014029488 0.012662323 0.13002723
-0.014165503 0.013428435 0.12962489
-0.014191705 0.013569983 0.12954468
-0.014207893 0.01365791 0.12949531
-0.014201174 0.01368566 0.12947655
-0.014203439 0.013706226 0.12946542
-0.014201515 0.013705727 0.1294639
-0.01420019 0.013719517 0.12945408
-0.014185092 0.013684623 0.12946934
-0.014172217 0.013637629 0.12949422
-0.014159369 0.013602682 0.12950969
-0.014140124 0.013534203 0.12954594
-0.014114452 0.013431232 0.12960103
-0.014074665 0.013302535 0.12967329
-0.014050986 0.013192591 0.129732
-0.014024513 0.013097188 0.12978388
-0.013991999 0.012965529 0.12985161
-0.013963789 0.012841354 0.12991871
0.02229839 0.019171102 0.20829342
0.022371819 0.019195491 0.20829812
0.022570392 0.01926516 0.20831999
0.022935711 0.019381033 0.20836458
0.023480836 0.019566409 0.20843995
0.024012469 0.019750491 0.20851614
0.024424646 0.019869255 0.20858631
0.024765063 0.019969624 0.20864706
0.025126619 0.020072933 0.20871264
0.025473339 0.020174947 0.20877078
0.025918748 0.020299565 0.20883907
0.026285218 0.020408688 0.20889316
0.026571188 0.020503504 0.20893329
0.026942601 0.020605132 0.20898551
0.027333036 0.020723969 0.20903146
0.027724965 0.02083539 0.20907433
0.028073302 0.020942967 0.20910881
0.028384052 0.021045595 0.2091403
0.028618341 0.021117846 0.20916568
0.028963514 0.021226654 0.20922005
0.029374167 0.021363277 0.20928788
0.02973184 0.021475218 0.20934768
0.030153962 0.02160853 0.20941684
0.030413549 0.021682017 0.20945555
0.030792337 0.021787632 0.20951249
0.031185122 0.021908084 0.20959397
0.031592362 0.022030402 0.209675
0.032098256 0.022185801 0.20977652
0.032660339 0.022350054 0.20989028
0.033016514 0.022448262 0.20994781
0.033397421 0.022556992 0.21000242
0.033733498 0.022654656 0.21004592
0.034101184 0.022764044 0.21009833
0.03453473 0.022885047 0.21015637
0.035232969 0.023103267 0.21023998
0.035800986 0.023273211 0.21029519
0.062510423 0.025169799 0.21744417
0.062862374 0.024944182 0.21764068
0.063087173 0.024537541 0.2178939
0.063316971 0.024134215 0.21810748
0.063377634 0.023994636 0.21817039
0.063476756 0.024181468 0.21807411
0.06357269 0.024384031 0.21795478
-0.1491311 0.028981615 0.30407253
-0.14849707 0.029071664 0.30415842
-0.14804049 0.029242456 0.30431345
-0.14754221 0.029506573 0.30457941
-0.14708199 0.029799717 0.30491585
-0.14660488 0.02992318 0.30506411
-0.1461726 0.030117288 0.30524412
-0.14575852 0.030261436 0.30540058
-0.14536242 0.03042898 0.30554959
-0.14489105 0.030627973 0.3057346
-0.14442587 0.030784255 0.30587238
-0.14394157 0.030904764 0.30597407
-0.14346261 0.031036653 0.30608901
-0.14299889 0.03112085 0.30615398
-0.14255042 0.031246979 0.30626148
-0.14210694 0.031401142 0.30637151
-0.14155544 0.031544041 0.30644807
-0.14107077 0.031695176 0.30654237
-0.14053309 0.031888895 0.30668065
-0.14006245 0.032122321 0.30687994
-0.13975959 0.032407988 0.30714378
-0.13937527 0.032660373 0.30736735
-0.13889724 0.03287993 0.30752155
-0.13838141 0.032973431 0.30757609
-0.13765322 0.032955971 0.30750212
-0.13662827 0.032720748 0.30721268
-0.13585678 0.032560844 0.30701512
-0.13519612 0.032557514 0.30696481
-0.13455391 0.032514751 0.30691329
-0.13360876 0.032268085 0.30667534
-0.13282342 0.032005746 0.30642897
-0.13199647 0.031724516 0.30617365
-0.13128327 0.031716213 0.30611274
-0.13088937 0.031979196 0.30635417
-0.13060549 0.032278962 0.30662379
-0.13018875 0.03254896 0.30687624
-0.1295289 0.032395095 0.30676952
-0.12882581 0.032210466 0.30661741
-0.12793465 0.031941738 0.30641919
-0.1272929 0.031820163 0.30627495
-0.12662625 0.031722683 0.30617392
-0.12610494 0.031739984 0.3061918
-0.12555093 0.031843178 0.30629748
-0.12525354 0.032061812 0.30651152
-0.12481476 0.032250598 0.3067109
-0.12435832 0.032402504 0.30690017
-0.12363952 0.032420393 0.30696043
-0.12294426 0.032444432 0.30697733
-0.12230709 0.032395665 0.30690816
-0.12165853 0.032402672 0.30688933
-0.12111072 0.032569706 0.30708727
-0.12069365 0.032805234 0.30737889
-0.12022705 0.032998212 0.30760515
-0.11960293 0.033168253 0.30775201
-0.11911426 0.033281662 0.30784404
-0.11852133 0.033361088 0.30786157
-0.11790921 0.033484444 0.30790296
-0.11729276 0.033587232 0.30794156
-0.11684835 0.033705827 0.30800778
-0.11623556 0.033846106 0.30808651
-0.11565768 0.033759955 0.30781901
-0.11494558 0.033837356 0.30779541
-0.11430305 0.033793081 0.30755416
-0.11345917 0.033490796 0.30689478
-0.11158588 0.032512348 0.30465594
-0.1091529 0.031426102 0.30109903
-0.10704753 0.030892132 0.29843453
-0.10586936 0.030324372 0.29631808
-0.10486168 0.030188372 0.2954419
-0.10405628 0.030162176 0.29494676
-0.10335937 0.030245483 0.29478851
-0.10264678 0.030360937 0.29469237
-0.10182059 0.030349459 0.29424363
-0.10108396 0.030340059 0.29401919
-0.10010881 0.030178441 0.29337645
-0.099014133 0.030060353 0.29293707
-0.097867221 0.02987189 0.29243198
-0.097250737 0.029648062 0.29180425
-0.096411452 0.029266825 0.2909252
-0.095836714 0.029160259 0.29053786
-0.095510334 0.02912252 0.29028621
-0.095081121 0.029270345 0.29028824
-0.094697133 0.029517636 0.29039776
-0.094378203 0.029777808 0.29062387
-0.094052479 0.029988881 0.2907604
-0.093651213 0.030094704 0.29067305
-0.093323611 0.030125894 0.29052258
-0.092866212 0.03018531 0.29030204
-0.092527628 0.030228164 0.29017109
-0.092181779 0.030260572 0.28999057
-0.091726854 0.030344361 0.28976861
-0.091200747 0.030448833 0.28951395
-0.090905324 0.030468462 0.2893275
-0.090512641 0.030597057 0.28917068
-0.090289384 0.030715523 0.28921035
-0.090007305 0.030830052 0.28919116
-0.089590356 0.030777223 0.28881177
-0.088789701 0.030852241 0.28820589
-0.085845098 0.032239396 0.28652543
-0.064495824 0.0229638 0.23996852
-0.064303435 0.0229856 0.23997702
-0.064117178 0.022972139 0.24002312
-0.063921914 0.022962471 0.24005155
-0.063735582 0.022977151 0.24004936
-0.063557364 0.022971528 0.240097
-0.063372873 0.022916786 0.2401544
-0.063179456 0.022749377 0.24031457
-0.062969983 0.022486618 0.24058588
-0.062734172 0.022269906 0.24082029
-0.062468462 0.02218705 0.24100325
-0.047931071 0.023293337 0.24773245
-0.047836166 0.023325736 0.2477641
-0.04783617 0.023325736 0.24776417
-0.047809318 0.023328129 0.24777228
-0.047733732 0.023345891 0.24779166
-0.047536884 0.023435686 0.2478549
-0.047336631 0.023523457 0.24791643
-0.047060739 0.023620361 0.24800368
-0.046796758 0.023734422 0.24810675
-0.046555851 0.023833202 0.24821278
-0.046447918 0.023890266 0.24824709
-0.046310794 0.023936644 0.24829355
-0.046066523 0.023975389 0.24830391
-0.045884013 0.024047557 0.24835762
-0.045655631 0.024128795 0.24842541
-0.028207647 0.019813266 0.19224018
-0.028208176 0.019859742 0.19220874
-0.028201865 0.019904152 0.19217978
-0.028174398 0.019913608 0.1921427
-0.028142324 0.019877417 0.19213724
-0.02813378 0.019830886 0.19215541
-0.028117463 0.019755829 0.19219068
-0.028088834 0.019747928 0.19216469
-0.028078131 0.019717149 0.19217518
-0.028070807 0.019701598 0.19217768
-0.028059779 0.019700862 0.19217667
-0.028066926 0.019849179 0.19209796
-0.028113186 0.020474209 0.19177282
-0.014152806 0.013298197 0.12969957
-0.014222736 0.013678911 0.12949812
-0.014237372 0.013779785 0.12944084
-0.014246908 0.013847122 0.12940173
-0.014245964 0.013867751 0.12939104
-0.014244889 0.013887979 0.12937784
-0.014244104 0.013901055 0.12936866
-0.014239863 0.013914709 0.12935668
-0.014227311 0.013880987 0.1293741
-0.014222155 0.013882316 0.12937213
-0.014209992 0.013833983 0.1293961
-0.014190008 0.013773488 0.12942745
-0.014163913 0.013676142 0.12947537
-0.014128826 0.013516966 0.12955908
-0.014096232 0.013409962 0.1296193
-0.014066849 0.013300925 0.12967926
-0.014037696 0.013168569 0.12974587
-0.01401587 0.013100443 0.129784
0.023130052 0.019456003 0.20839608
0.023730701 0.019665532 0.20848174
0.024379876 0.019867722 0.20858736
0.024816059 0.019988943 0.20866208
0.025121015 0.020081183 0.20871472
0.02537553 0.020145444 0.20875549
0.025624191 0.0202193 0.20879744
0.026009405 0.020332679 0.20885441
0.026313962 0.020435454 0.20889755
0.026605597 0.020520393 0.20893706
0.026956193 0.020616742 0.20898473
0.02734996 0.020735631 0.20903009
0.027760474 0.020859694 0.20907058
0.028033456 0.020943353 0.20909376
0.028281584 0.021019651 0.20912154
0.028592467 0.021119718 0.20916086
0.028881097 0.021205734 0.20920426
0.029249705 0.021334456 0.20926343
0.029669283 0.021458959 0.20933492
0.030090984 0.021590613 0.20940456
0.030493585 0.021717167 0.20946629
0.030896597 0.021827146 0.20952888
0.031286638 0.021948893 0.20960507
0.031704191 0.022072848 0.209691
0.032184336 0.022222873 0.20978555
0.032700565 0.022370731 0.20989315
0.033099968 0.02248388 0.20995903
0.0335049 0.022597918 0.21001814
0.03388945 0.022708904 0.21007361
0.034293778 0.022823062 0.21012148
0.034731027 0.022962887 0.21017683
0.035385847 0.023162853 0.21023978
0.035979651 0.023336589 0.21030085
0.036375593 0.023456402 0.21034074
0.036769472 0.023577238 0.21037596
0.037208486 0.023691351 0.21044001
0.062326957 0.025637813 0.2172451
0.062799059 0.025383815 0.21748649
0.063135214 0.025029402 0.21771169
0.063304894 0.024679329 0.21787369
0.063461505 0.024590116 0.21794719
0.063506663 0.024675969 0.2178957
0.063585132 0.024718473 0.2178771
-0.14743818 0.029726762 0.30480635
-0.14695384 0.029912844 0.30500662
-0.14650936 0.030127693 0.3052302
-0.14605094 0.030241327 0.3053546
-0.14565274 0.030477414 0.30559865
-0.14527361 0.030690173 0.30581996
-0.14486824 0.030893089 0.30598751
-0.14437501 0.031079963 0.30613694
-0.14386162 0.031175835 0.30623072
-0.14337264 0.03122036 0.30625486
-0.14290212 0.03127192 0.30627829
-0.14235309 0.031411532 0.30637911
-0.14191067 0.031580605 0.30650264
-0.14145996 0.031730223 0.30659765
-0.14096729 0.031943481 0.30675384
-0.14047171 0.03216419 0.30692542
-0.14003779 0.032389082 0.30711657
-0.13963424 0.032625232 0.30732185
-0.13925092 0.032944199 0.3075996
-0.13885739 0.033132926 0.30775011
-0.13828646 0.033254731 0.3078154
-0.13758163 0.033265598 0.30777076
-0.13680701 0.033240125 0.3077015
-0.13611199 0.033200089 0.30760416
-0.13546638 0.03314133 0.30749404
-0.13474473 0.032984421 0.30731827
-0.13389587 0.032726925 0.30708003
-0.1330988 0.032555532 0.30691227
-0.13225743 0.032376792 0.30675003
-0.13176684 0.032496929 0.30685422
-0.13151067 0.032731131 0.30708092
-0.13115695 0.033126906 0.30744281
-0.1307779 0.033425935 0.30773228
-0.13007393 0.033474613 0.30776694
-0.12926608 0.033182211 0.30751282
-0.12852593 0.032935262 0.30731416
-0.12780553 0.032749142 0.30717275
-0.12703995 0.032619428 0.30704334
-0.12635531 0.032403637 0.30685261
-0.1257032 0.032292552 0.30674174
-0.12525178 0.032269917 0.30672359
-0.12479019 0.032485083 0.30695823
-0.12432108 0.032640673 0.30714917
-0.12371264 0.032705661 0.30726808
-0.12292476 0.032646924 0.30719954
-0.1222781 0.032556947 0.30709794
-0.12160653 0.032661024 0.30720431
-0.12115247 0.03283608 0.30744845
-0.12071796 0.033034965 0.30767661
-0.1202408 0.033367317 0.30807781
-0.11975665 0.0335907 0.30832532
-0.11901081 0.033586476 0.30821806
