# .PCD v0.7 - Point Cloud Data file format
VERSION 0.7
FIELDS x y z
SIZE 4 4 4
TYPE F F F
COUNT 1 1 1
WIDTH 1368
HEIGHT 1
VIEWPOINT 0 0 0 1 0 0 0
POINTS 1368
DATA ascii
-0.18138361 0.057217848 0.30404255
-0.18063676 0.057177808 0.30382979
-0.1798908 0.057137769 0.30361703
-0.17908289 0.057077706 0.30329788
-0.17833887 0.057037666 0.30308512
-0.17772049 0.057037666 0.30308512
-0.17716424 0.057057686 0.30319148
-0.17673148 0.057117745 0.30351064
-0.17642087 0.057217848 0.30404255
-0.17610808 0.057317946 0.30457446
-0.17585443 0.057438072 0.30521277
-0.17565924 0.05757821 0.30595744
-0.17540015 0.057698332 0.30659574
-0.17501719 0.057778418 0.30702129
-0.17433034 0.057758395 0.3069149
-0.053347349 0.054435033 0.28925532
-0.052776583 0.054455057 0.28936172
-0.052205376 0.054475073 0.28946808
-0.051652711 0.054515112 0.28968084
-0.051099177 0.054555159 0.28989363
-0.050581843 0.054635238 0.29031914
-0.050026134 0.054675274 0.2905319
-0.049469564 0.05471532 0.29074469
-0.048876353 0.05471532 0.29074469
0.072906092 0.053113699 0.28223404
0.073426545 0.05307366 0.28202128
0.073834464 0.052953538 0.28138298
0.074267916 0.052853435 0.28085107
0.074784242 0.052813396 0.28063831
0.07544253 0.052873459 0.28095746
-0.18200395 0.05783819 0.30404255
-0.18138361 0.05783819 0.30404255
-0.18070002 0.057817955 0.30393618
-0.18001686 0.057797715 0.30382979
-0.17933413 0.057777476 0.30372339
-0.17858925 0.057737004 0.30351064
-0.17796999 0.057737004 0.30351064
-0.17741291 0.057757244 0.30361703
-0.17697927 0.057817955 0.30393618
-0.17660606 0.057898901 0.3043617
-0.17623112 0.057979852 0.30478725
-0.17591573 0.058081038 0.30531916
-0.17565924 0.05820246 0.30595744
-0.17540015 0.058323886 0.30659574
-0.17507783 0.058425069 0.30712765
-0.053249247 0.054924019 0.28872341
-0.052660163 0.054924019 0.28872341
-0.052109446 0.054964494 0.28893617
-0.051576834 0.055025205 0.28925532
-0.051061671 0.055106152 0.28968084
-0.05060038 0.055247817 0.29042554
-0.050136045 0.055389475 0.29117021
-0.049632467 0.055490661 0.29170212
-0.04907307 0.055531137 0.29191488
0.07293357 0.053709783 0.28234044
0.073426545 0.053649072 0.28202128
0.073890291 0.053568117 0.28159574
0.074324176 0.053466935 0.28106382
0.07486929 0.053446699 0.28095746
0.075528219 0.053507406 0.28127658
0.07618846 0.053568117 0.28159574
-0.18151052 0.058499437 0.30425531
-0.18088976 0.058499437 0.30425531
-0.18026897 0.058499437 0.30425531
-0.1795854 0.058478989 0.30414894
-0.17890224 0.058458529 0.30404255
-0.17834428 0.058478989 0.30414894
-0.17784804 0.058519896 0.3043617
-0.17741288 0.058581259 0.30468085
-0.17697643 0.058642622 0.30500001
-0.17647716 0.058683529 0.30521277
-0.1760996 0.058765344 0.30563828
-0.17572032 0.058847163 0.30606383
-0.1753393 0.058928978 0.30648935
-0.053229626 0.055492651 0.28861701
-0.052640758 0.055492651 0.28861701
-0.052090261 0.055533558 0.28882977
-0.051557865 0.055594921 0.28914893
-0.051061671 0.055697192 0.28968084
-0.050637446 0.055881284 0.2906383
-0.050245952 0.056106284 0.29180852
-0.049813475 0.056290369 0.29276595
-0.049359214 0.056454003 0.29361701
0.073509634 0.054285847 0.28234044
0.073974036 0.054204028 0.28191489
0.074408568 0.054101754 0.28138298
0.074954331 0.054081298 0.28127658
0.075613923 0.054142661 0.28159574
0.076274812 0.054204028 0.28191489
-0.18088976 0.059120215 0.30425531
-0.18026897 0.059120215 0.30425531
-0.17971103 0.059140887 0.3043617
-0.17915264 0.059161562 0.3044681
-0.17865618 0.059202902 0.30468085
-0.17815885 0.059244245 0.30489361
-0.17772262 0.05930626 0.30521277
-0.17716162 0.059326932 0.30531916
-0.17660017 0.0593476 0.30542552
-0.1760996 0.059388943 0.30563828
-0.17559817 0.05943029 0.30585107
-0.053308111 0.056164209 0.28904256
-0.052718375 0.056164209 0.28904256
-0.052128635 0.056164209 0.28904256
-0.051557865 0.056184877 0.28914893
-0.051080424 0.056308907 0.28978723
-0.050693054 0.056536291 0.29095745
-0.050355859 0.056825694 0.29244682
-0.050048787 0.057156429 0.29414892
-0.049770541 0.057528522 0.29606384
0.074001953 0.054799896 0.28202128
0.074464835 0.054717205 0.28159574
0.07501103 0.054696538 0.28148937
0.075671054 0.054758552 0.28180853
-0.18057351 0.059636548 0.30372339
-0.18007989 0.059678331 0.30393618
-0.17971103 0.059761882 0.3043617
-0.17934042 0.059845436 0.30478725
-0.1789057 0.059908099 0.30510637
-0.17840752 0.059949879 0.30531916
-0.17784651 0.059970763 0.30542552
-0.17716162 0.059949879 0.30531916
-0.17641564 0.059908099 0.30510637
-0.17585443 0.059928987 0.30521277
-0.053386588 0.056837495 0.28946808
-0.052757178 0.05679572 0.28925532
-0.052147821 0.056774829 0.28914893
-0.051576834 0.05679572 0.28925532
-0.051099177 0.056921054 0.28989363
-0.050711583 0.057150822 0.29106382
-0.050410811 0.057485037 0.29276595
-0.050247896 0.05798636 0.29531914
-0.049967259 0.05836235 0.29723403
0.073918208 0.055312641 0.28170213
0.074408568 0.055249974 0.28138298
0.07498268 0.055249974 0.28138298
0.075613923 0.05529175 0.28159574
-0.18019404 0.060129609 0.30308512
-0.17982776 0.060214028 0.30351064
-0.17971103 0.060382873 0.3043617
-0.17946562 0.060509507 0.30500001
-0.17915522 0.060615037 0.30553192
-0.17859399 0.060636137 0.30563828
-0.17784651 0.060593929 0.30542552
-0.17697643 0.060509507 0.30500001
-0.1761696 0.060446192 0.30468085
-0.17536408 0.060382873 0.3043617
-0.053386588 0.057428099 0.28946808
-0.052776583 0.057406999 0.28936172
-0.052147821 0.057364784 0.28914893
-0.051576834 0.057385892 0.28925532
-0.051099177 0.057512525 0.28989363
-0.050711583 0.057744682 0.29106382
-0.050392494 0.058061268 0.29265958
-0.050374605 0.058736645 0.29606384
-0.050181869 0.059222072 0.29851064
0.073778637 0.055781875 0.28117022
0.074324176 0.055760764 0.28106382
0.074897632 0.055760764 0.28106382
0.075471088 0.055760764 0.28106382
-0.18013078 0.060726672 0.30297872
-0.17982776 0.060833286 0.30351064
-0.17977384 0.061025191 0.3044681
-0.17965341 0.061195772 0.30531916
-0.17921759 0.061259735 0.30563828
-0.17859399 0.061259735 0.30563828
-0.17772262 0.061174449 0.30521277
-0.17685299 0.061089158 0.30478725
-0.17592354 0.06098254 0.30425531
-0.17518018 0.060939897 0.30404255
-0.053347349 0.057976063 0.28925532
-0.052737772 0.057954736 0.28914893
-0.052109446 0.057912093 0.28893617
-0.051557865 0.057954736 0.28914893
-0.051061671 0.05806135 0.28968084
-0.050655983 0.058274582 0.29074469
-0.050264265 0.058509123 0.29191488
-0.050175495 0.05910616 0.29489362
0.073862381 0.056419518 0.28148937
0.074324176 0.056334224 0.28106382
0.074727535 0.056206286 0.28042552
0.07527113 0.056184966 0.28031915
-0.18032053 0.061409466 0.30329788
-0.17995383 0.061495621 0.30372339
-0.17983665 0.061667938 0.30457446
-0.17965341 0.061818719 0.30531916
-0.17915522 0.061861798 0.30553192
-0.17840752 0.061818719 0.30531916
-0.17759873 0.0617541 0.30500001
-0.17679125 0.061689477 0.30468085
-0.17604658 0.061646402 0.3044681
-0.17536408 0.061624859 0.3043617
-0.053308111 0.058523156 0.28904256
-0.052698966 0.058501612 0.28893617
-0.052090261 0.058480073 0.28882977
-0.0515389 0.058523156 0.28904256
-0.051024169 0.058609311 0.28946808
-0.050544772 0.058738552 0.29010639
-0.05009941 0.058910869 0.29095745
-0.049831577 0.059298579 0.29287234
0.073946126 0.057058461 0.28180853
0.074324176 0.05690768 0.28106382
0.074557453 0.056649208 0.27978724
0.075071163 0.056606125 0.27957445
-0.18070002 0.06215883 0.30393618
-0.18026897 0.062224094 0.30425531
-0.17989947 0.062311124 0.30468085
-0.17946562 0.062376395 0.30500001
-0.17884332 0.062376395 0.30500001
-0.17815885 0.062354635 0.30489361
-0.17747484 0.062332883 0.30478725
-0.17691469 0.062354635 0.30489361
-0.17635414 0.062376395 0.30500001
-0.17573184 0.062376395 0.30500001
-0.05328849 0.059091136 0.28893617
-0.052679561 0.059069376 0.28882977
-0.052090261 0.059069376 0.28882977
-0.051519927 0.059091136 0.28893617
-0.050967909 0.059134647 0.28914893
-0.050433561 0.059199918 0.28946808
-0.04991623 0.059286948 0.28989363
0.074001953 0.057676952 0.28202128
0.074324176 0.05748114 0.28106382
0.074415706 0.057111278 0.27925533
0.074956909 0.057089519 0.27914894
-0.18107951 0.062910788 0.30457446
-0.18045807 0.062910788 0.30457446
-0.17983665 0.062910788 0.30457446
-0.17921522 0.062910788 0.30457446
-0.17859378 0.062910788 0.30457446
-0.17797236 0.062910788 0.30457446
-0.17753677 0.06297671 0.30489361
-0.17716162 0.063064612 0.30531916
-0.1767232 0.063130528 0.30563828
-0.17622221 0.063174479 0.30585107
-0.053268865 0.059658676 0.28882977
-0.052679561 0.059658676 0.28882977
-0.052109446 0.059680656 0.28893617
-0.051557865 0.059724599 0.28914893
-0.050967909 0.059724599 0.28914893
-0.050377958 0.059724599 0.28914893
-0.049806323 0.059746575 0.28925532
0.07372281 0.058032628 0.28095746
0.074127257 0.057900783 0.28031915
0.074387357 0.057659071 0.27914894
0.074956909 0.057659071 0.27914894
0.075526461 0.057659071 0.27914894
-0.18095301 0.063487835 0.3043617
-0.18033202 0.063487835 0.3043617
-0.1795854 0.06344346 0.30414894
-0.17890224 0.063421264 0.30404255
-0.17834428 0.06344346 0.30414894
-0.17797236 0.063532218 0.30457446
-0.17772262 0.063665368 0.30521277
-0.17747027 0.06379851 0.30585107
-0.17709227 0.063887268 0.30627659
-0.17658995 0.063931651 0.30648935
-0.053229626 0.060203601 0.28861701
-0.052660163 0.060225796 0.28872341
-0.052109446 0.060270175 0.28893617
-0.051576834 0.060336746 0.28925532
-0.050986666 0.060336746 0.28925532
-0.050359424 0.060292367 0.28904256
-0.049733046 0.06024798 0.28882977
0.073499486 0.058428343 0.2801064
0.073986597 0.058361769 0.27978724
0.074387357 0.058228623 0.27914894
0.07501404 0.058273003 0.2793617
0.075612806 0.058295194 0.27946809
-0.18125668 0.063996792 0.30382979
-0.18063676 0.063996792 0.30382979
-0.17995383 0.06397438 0.30372339
-0.1792085 0.063929565 0.30351064
-0.17865185 0.063951977 0.30361703
-0.17828189 0.064041607 0.30404255
-0.1780967 0.064198464 0.30478725
-0.17803234 0.064400136 0.30574468
-0.17790236 0.064579397 0.30659574
-0.17752287 0.064669028 0.30702129
-0.17695773 0.064691432 0.30712765
-0.053170767 0.060725246 0.28829786
-0.052621357 0.060770065 0.28851065
-0.052109446 0.060859695 0.28893617
-0.051576834 0.060926918 0.28925532
-0.051024169 0.060971733 0.28946808
-0.050433561 0.060971733 0.28946808
-0.04982464 0.060949329 0.28936172
0.073359907 0.058887802 0.27957445
0.073874064 0.058842987 0.2793617
0.074415706 0.058820583 0.27925533
0.075071163 0.058887802 0.27957445
0.075727932 0.058955025 0.27989361
-0.18074895 0.064435698 0.30297872
-0.18013078 0.064435698 0.30297872
-0.17938656 0.064390451 0.30276597
-0.17876881 0.064390451 0.30276597
-0.17827627 0.064435698 0.30297872
-0.17809474 0.064594075 0.30372339
-0.1780967 0.064820327 0.30478725
-0.17815623 0.065069199 0.30595744
-0.17796409 0.065227576 0.30670214
-0.17764589 0.065340698 0.30723405
-0.17708032 0.065363318 0.30734041
-0.053131524 0.061268214 0.2880851
-0.052582547 0.061313462 0.28829786
-0.052071076 0.061403967 0.28872341
-0.051576834 0.06151709 0.28925532
-0.051061671 0.061607588 0.28968084
-0.050544772 0.06169809 0.29010639
-0.050044455 0.061811212 0.2906383
0.072817191 0.05948085 0.27968085
0.073331997 0.059435599 0.27946809
0.073845938 0.059390351 0.27925533
0.074415706 0.059390351 0.27925533
0.075071163 0.059458222 0.27957445
0.07578551 0.059571352 0.2801064
-0.18049508 0.064962499 0.30255318
-0.17981455 0.064939663 0.30244681
-0.17900836 0.06487114 0.30212766
-0.17832911 0.064848289 0.30202127
-0.17790069 0.064916819 0.30234042
-0.17778285 0.065099552 0.30319148
-0.17784804 0.065350816 0.3043617
-0.17778458 0.0655564 0.30531916
-0.17765546 0.065739132 0.30617023
-0.17733833 0.065853342 0.30670214
-0.17683515 0.065899022 0.3069149
-0.053092286 0.061810315 0.28787234
-0.052543741 0.061855998 0.2880851
-0.052051891 0.061970208 0.28861701
-0.051576834 0.062107261 0.28925532
-0.051117927 0.062267154 0.28999999
-0.050693054 0.062472735 0.29095745
-0.050264265 0.062678307 0.29191488
0.072761796 0.060005803 0.27946809
0.07327617 0.059960119 0.27925533
0.073789671 0.059914432 0.27904254
0.074359007 0.059914432 0.27904254
0.075042605 0.060005803 0.27946809
0.075756721 0.060120013 0.28
0.07641501 0.060188539 0.28031915
-0.18049508 0.065579802 0.30255318
-0.17975129 0.06553369 0.30234042
-0.1788823 0.065441452 0.3019149
-0.17814068 0.06539534 0.30170214
-0.1776503 0.065441452 0.3019149
-0.17747095 0.065602869 0.30265957
-0.17741291 0.065810397 0.30361703
-0.17728901 0.065994874 0.3044681
-0.17703815 0.066133223 0.30510637
-0.1767232 0.066248514 0.30563828
-0.053072665 0.062374603 0.28776595
-0.052524336 0.062420722 0.28797871
-0.052013516 0.062512957 0.28840426
-0.051557865 0.062674373 0.28914893
-0.051155433 0.062904969 0.29021278
-0.050785728 0.063181669 0.29148936
-0.050410811 0.063458376 0.29276595
-0.049922083 0.063596733 0.29340425
0.072706401 0.060529888 0.27925533
0.073220335 0.060483765 0.27904254
0.073733412 0.060437649 0.27882978
0.074302308 0.060437649 0.27882978
0.074985474 0.060529888 0.27925533
0.075699158 0.060645182 0.27978724
0.076357014 0.06071436 0.2801064
-0.18074895 0.066290215 0.30297872
-0.18000428 0.066243663 0.30276597
-0.1790714 0.066127285 0.30223405
-0.1782663 0.066057459 0.3019149
-0.17777549 0.06610401 0.30212766
-0.17747095 0.066220388 0.30265957
-0.17722642 0.066360041 0.30329788
-0.17691733 0.066476427 0.30382979
-0.17654432 0.066569522 0.30425531
-0.17610808 0.066639356 0.30457446
-0.053033426 0.062915184 0.28755319
-0.052485533 0.062961735 0.28776595
-0.051994331 0.063078113 0.28829786
-0.051557865 0.063264325 0.28914893
-0.051174182 0.063520364 0.29031914
-0.050859865 0.063869499 0.29191488
-0.050502405 0.064172097 0.29329789
-0.05003069 0.064335026 0.29404256
0.072734095 0.061122928 0.2793617
0.073248252 0.061076377 0.27914894
0.073733412 0.06100655 0.27882978
0.074302308 0.06100655 0.27882978
0.074928336 0.061053101 0.27904254
0.075641587 0.061169479 0.27957445
0.076299004 0.06123931 0.27989361
-0.18093935 0.066978864 0.30329788
-0.18025728 0.066955373 0.30319148
-0.17944957 0.06688489 0.30287233
-0.17876881 0.066861399 0.30276597
-0.17815109 0.066861399 0.30276597
-0.17778285 0.066955373 0.30319148
-0.17741291 0.067049347 0.30361703
-0.17691733 0.06709633 0.30382979
-0.17635915 0.067119829 0.30393618
-0.052994188 0.063454904 0.28734043
-0.052466132 0.063525379 0.28765959
-0.051975146 0.063642845 0.2881915
-0.0515389 0.063830793 0.28904256
-0.051174182 0.064112708 0.29031914
-0.050859865 0.064465098 0.29191488
-0.050520718 0.064794004 0.29340425
-0.050048787 0.064958453 0.29414892
0.072844893 0.06178689 0.27978724
0.073359907 0.061739899 0.27957445
0.073789671 0.061622433 0.27904254
0.074302308 0.06157545 0.27882978
0.074899778 0.061598945 0.27893618
0.075584024 0.061692912 0.2793617
0.076241009 0.061763395 0.27968085
-0.18093935 0.067597687 0.30329788
-0.18038377 0.067621395 0.30340424
-0.17982776 0.06764511 0.30351064
-0.1792085 0.06764511 0.30351064
-0.17871444 0.067692526 0.30372339
-0.17828189 0.067763656 0.30404255
-0.17784804 0.067834787 0.3043617
-0.17728901 0.067858502 0.3044681
-0.17660606 0.067834787 0.3043617
-0.053013802 0.064064868 0.2874468
-0.052466132 0.064112298 0.28765959
-0.051975146 0.064230844 0.2881915
-0.0515389 0.064420529 0.28904256
-0.051174182 0.064705044 0.29031914
-0.050859865 0.065060697 0.29191488
-0.050484084 0.06534522 0.29319149
0.072927982 0.062428873 0.2801064
0.073415741 0.062357742 0.27978724
0.073845938 0.062239192 0.27925533
0.074302308 0.06214435 0.27882978
0.074871205 0.06214435 0.27882978
0.075526461 0.062215481 0.27914894
-0.18111239 0.068049014 0.30255318
-0.18062203 0.068096876 0.30276597
-0.18025728 0.068192579 0.30319148
-0.17982776 0.068264365 0.30351064
-0.17939696 0.068336144 0.30382979
-0.17902742 0.068431854 0.30425531
-0.17865618 0.068527564 0.30468085
-0.17828317 0.068623267 0.30510637
-0.17772262 0.068647198 0.30521277
-0.17709988 0.068647198 0.30521277
-0.053639963 0.06469921 0.28765959
-0.053072665 0.064723134 0.28776595
-0.052504938 0.064747065 0.28787234
-0.051994331 0.064842768 0.28829786
-0.051557865 0.065034188 0.28914893
-0.051155433 0.065273464 0.29021278
-0.050785728 0.065560587 0.29148936
-0.050355859 0.065775938 0.29244682
0.073387824 0.062904663 0.27968085
0.073789671 0.062761098 0.27904254
0.074245609 0.062665395 0.27861702
0.074814081 0.062665395 0.27861702
0.075440109 0.062713251 0.27882978
-0.18041189 0.068400741 0.30138299
-0.18017776 0.068545602 0.30202127
-0.17987779 0.068666317 0.30255318
-0.17951261 0.068762898 0.30297872
-0.1792085 0.06888362 0.30351064
-0.17896484 0.069028489 0.30414894
-0.17878093 0.069197498 0.30489361
-0.17846967 0.06931822 0.30542552
-0.1780943 0.069414794 0.30585107
-0.17753199 0.069438934 0.30595744
-0.053739149 0.065406844 0.2881915
-0.053151149 0.065406844 0.2881915
-0.052563149 0.065406844 0.2881915
-0.052032705 0.065479279 0.28851065
-0.051557865 0.06562414 0.28914893
-0.051117927 0.065817297 0.28999999
-0.050693054 0.0660346 0.29095745
-0.050172679 0.066131175 0.29138297
0.07327617 0.063378729 0.27925533
0.073705278 0.063258007 0.27872342
0.074188918 0.063185573 0.27840427
0.074699812 0.063137278 0.27819148
0.075267404 0.063137278 0.27819148
-0.17990243 0.06882076 0.30053192
-0.17979698 0.069015652 0.30138299
-0.1794983 0.069137461 0.3019149
-0.17913441 0.0692349 0.30234042
-0.17883162 0.06935671 0.30287233
-0.17858925 0.069502875 0.30351064
-0.17853142 0.069722131 0.3044681
-0.17834535 0.06989266 0.30521277
-0.1780943 0.070038833 0.30585107
-0.17759372 0.070087552 0.30606383
-0.053818494 0.06609229 0.28861701
-0.053210009 0.066067934 0.28851065
-0.052621357 0.066067934 0.28851065
-0.052051891 0.06609229 0.28861701
-0.0515389 0.066189736 0.28904256
-0.051042922 0.066311546 0.28957447
-0.050563309 0.066457711 0.29021278
0.073620886 0.063753605 0.27840427
0.074103869 0.063680522 0.27808511
0.074614123 0.063631803 0.27787235
0.075152278 0.063607439 0.27776596
-0.17971139 0.069360204 0.30021277
-0.17954311 0.069532253 0.30095744
-0.17924531 0.069655143 0.30148935
-0.17881927 0.069728881 0.30180851
-0.17839193 0.069802612 0.30212766
-0.17815109 0.069950089 0.30276597
-0.17803238 0.070146717 0.30361703
-0.17791021 0.070343345 0.3044681
-0.17766066 0.070490807 0.30510637
-0.17709988 0.070515387 0.30521277
-0.053858168 0.066730313 0.28882977
-0.053249247 0.066705741 0.28872341
-0.052621357 0.066656582 0.28851065
-0.052051891 0.066681162 0.28861701
-0.051500957 0.066730313 0.28882977
-0.050986666 0.066828631 0.28925532
-0.050452098 0.066902369 0.28957447
0.073536485 0.064247899 0.27808511
0.074047171 0.064198747 0.27787235
0.074528418 0.064125009 0.2775532
0.075065933 0.064100429 0.27744681
-0.17983875 0.070022322 0.30042553
-0.17954311 0.0701463 0.30095744
-0.17911881 0.070220686 0.30127659
-0.17869321 0.070295073 0.30159575
-0.17814068 0.070319869 0.30170214
-0.17777549 0.070419051 0.30212766
-0.17753334 0.070567824 0.30276597
-0.17728858 0.07071659 0.30340424
-0.1770412 0.07086537 0.30404255
-0.1764826 0.070890166 0.30414894
-0.053858168 0.067319617 0.28882977
-0.053229626 0.067270026 0.28861701
-0.052601952 0.067220442 0.28840426
-0.051994331 0.067195639 0.28829786
-0.051425084 0.067220442 0.28840426
-0.050874151 0.067270026 0.28861701
-0.050303821 0.067294829 0.28872341
0.073452093 0.064740896 0.27776596
0.073990472 0.064716093 0.27765957
0.07447128 0.064641707 0.27734041
0.074979581 0.064592123 0.27712765
0.075516015 0.064567327 0.27702129
-0.18002979 0.070710324 0.30074468
-0.17954311 0.070760347 0.30095744
-0.17911881 0.070835382 0.30127659
-0.17863017 0.070885405 0.30148935
-0.17807786 0.070910424 0.30159575
-0.17752512 0.070935436 0.30170214
-0.17709666 0.07101047 0.30202127
-0.17679127 0.071135528 0.30255318
-0.17642176 0.071235582 0.30297872
-0.17598878 0.071310624 0.30329788
-0.053838335 0.067883909 0.28872341
-0.053210009 0.067833886 0.28851065
-0.052543741 0.067733832 0.2880851
-0.051917586 0.067683809 0.28787234
-0.051349204 0.06770882 0.28797871
-0.050799146 0.067758851 0.2881915
-0.050229676 0.067783855 0.28829786
0.073395833 0.065257601 0.2775532
0.073905423 0.065207571 0.27734041
0.074385591 0.065132536 0.27702129
0.074893229 0.065082505 0.2768085
0.075458005 0.065082505 0.2768085
-0.18009348 0.071349166 0.30085108
-0.17960659 0.071399629 0.30106384
-0.17918207 0.071475312 0.30138299
-0.17863017 0.07150054 0.30148935
-0.17807786 0.071525775 0.30159575
-0.1774625 0.071525775 0.30159575
-0.17697191 0.07157623 0.30180851
-0.17654262 0.071651921 0.30212766
-0.17611203 0.071727611 0.30244681
-0.1756184 0.071778066 0.30265957
-0.053758983 0.068372078 0.28829786
-0.053131524 0.068321615 0.2880851
-0.052485533 0.068245932 0.28776595
-0.051860031 0.06819547 0.28755319
-0.0512923 0.068220705 0.28765959
-0.050742891 0.06827116 0.28787234
-0.050192609 0.068321615 0.2880851
0.073339559 0.065773435 0.27734041
0.073877081 0.065748207 0.27723405
0.074357025 0.065672517 0.27691489
0.074864455 0.065622061 0.27670214
0.07540001 0.065596826 0.27659574
-0.18009348 0.071962997 0.30085108
-0.17967004 0.072039336 0.3011702
-0.17918207 0.072090231 0.30138299
-0.17869321 0.072141126 0.30159575
-0.17807786 0.072141126 0.30159575
-0.1774625 0.072141126 0.30159575
-0.17697191 0.072192013 0.30180851
-0.17654262 0.072268352 0.30212766
-0.17605008 0.072319247 0.30234042
-0.053679638 0.068858512 0.28787234
-0.053072665 0.068833061 0.28776595
-0.052446727 0.068782173 0.28755319
-0.051821657 0.068731278 0.28734043
-0.051254358 0.068756722 0.2874468
-0.050724134 0.068833061 0.28776595
-0.050174072 0.068883955 0.28797871
0.073311433 0.066313848 0.27723405
0.073820382 0.06626296 0.27702129
0.074328452 0.066212058 0.2768085
0.074864455 0.066186622 0.27670214
0.07540001 0.066161171 0.27659574
-0.18083511 0.072628155 0.30106384
-0.18028452 0.072653815 0.3011702
-0.17979698 0.07270515 0.30138299
-0.17930856 0.072756469 0.30159575
-0.17875625 0.072782136 0.30170214
-0.17814068 0.072782136 0.30170214
-0.1775877 0.072807796 0.30180851
-0.17709666 0.072859123 0.30202127
-0.17679127 0.072987437 0.30255318
-0.17623591 0.073013104 0.30265957
-0.053620122 0.069368869 0.28755319
-0.053013802 0.069343202 0.2874468
-0.052407924 0.069317542 0.28734043
-0.051802471 0.069291875 0.28723404
-0.051235393 0.069317542 0.28734043
-0.050686631 0.069368869 0.28755319
0.073311433 0.066879496 0.27723405
0.073820382 0.066828169 0.27702129
0.074328452 0.066776834 0.2768085
0.074864455 0.066751175 0.27670214
0.075429007 0.066751175 0.27670214
-0.18115461 0.07337182 0.30159575
-0.18060295 0.073397703 0.30170214
-0.1801143 0.073449463 0.3019149
-0.17956154 0.073475339 0.30202127
-0.17894532 0.073475339 0.30202127
-0.1782663 0.073449463 0.3019149
-0.17771289 0.073475339 0.30202127
-0.17728381 0.073552981 0.30234042
-0.17697775 0.07368239 0.30287233
-0.17654565 0.073760033 0.30319148
-0.053560611 0.069877923 0.28723404
-0.052974563 0.069877923 0.28723404
-0.052388515 0.069877923 0.28723404
-0.051783286 0.069852047 0.28712767
-0.051216424 0.069877923 0.28723404
-0.050667878 0.069929682 0.2874468
0.07280162 0.067496896 0.27744681
0.073311433 0.067445137 0.27723405
0.073820382 0.067393377 0.27702129
0.074328452 0.067341611 0.2768085
0.074864455 0.067315735 0.27670214
-0.18196231 0.074065462 0.3019149
-0.1814741 0.074117661 0.30212766
-0.18104872 0.074195951 0.30244681
-0.18049508 0.074222043 0.30255318
-0.17987779 0.074222043 0.30255318
-0.17913441 0.074169852 0.30234042
-0.17845474 0.07414376 0.30223405
-0.1778381 0.07414376 0.30223405
-0.17747095 0.07424815 0.30265957
-0.17716424 0.074378632 0.30319148
-0.17666952 0.074430831 0.30340424
-0.053481266 0.07035958 0.28680852
-0.052915704 0.07038568 0.28691489
-0.052349713 0.070411779 0.28702128
-0.051783286 0.070437878 0.28712767
-0.051216424 0.07046397 0.28723404
-0.050667878 0.070516162 0.2874468
0.072829537 0.068089075 0.2775532
0.073339559 0.068036877 0.27734041
0.073820382 0.067958586 0.27702129
0.074299894 0.067880295 0.27670214
0.074835666 0.067854196 0.27659574
-0.18202642 0.074707776 0.30202127
-0.18166581 0.074813038 0.30244681
-0.18130344 0.074918292 0.30287233
-0.18068548 0.074918292 0.30287233
-0.17994104 0.074865669 0.30265957
-0.17913441 0.074786723 0.30234042
-0.17839193 0.074734092 0.30212766
-0.1778381 0.074760415 0.30223405
-0.17747095 0.074865669 0.30265957
-0.17710209 0.074970931 0.30308512
-0.17666952 0.07504987 0.30340424
-0.053401913 0.070839502 0.28638297
-0.052837223 0.070865817 0.28648937
-0.052310906 0.070944764 0.28680852
-0.051783286 0.07102371 0.28712767
-0.051235393 0.071076334 0.28734043
-0.050724134 0.071181588 0.28776595
-0.050248213 0.071339481 0.28840426
0.072829537 0.068655372 0.2775532
0.073339559 0.068602741 0.27734041
0.073792033 0.068497479 0.27691489
0.074242756 0.068392217 0.27648935
0.074778102 0.068365909 0.27638298
-0.18251397 0.075270936 0.30180851
-0.18209054 0.07535053 0.30212766
-0.18172969 0.075456657 0.30255318
-0.18123977 0.07550972 0.30276597
-0.18049508 0.075456657 0.30255318
-0.17968805 0.075377062 0.30223405
-0.1788823 0.075297467 0.3019149
-0.17820348 0.075270936 0.30180851
-0.17771289 0.075323991 0.30202127
-0.17728381 0.075403593 0.30234042
-0.1769156 0.07550972 0.30276597
-0.17642176 0.075562783 0.30297872
-0.053322569 0.071317688 0.28595746
-0.052778363 0.071370751 0.28617021
-0.052272096 0.071476869 0.28659573
-0.051764101 0.071583003 0.28702128
-0.051273331 0.07171566 0.28755319
-0.050799146 0.071874857 0.2881915
-0.050359424 0.072087109 0.28904256
0.072773702 0.069168597 0.27734041
0.0732833 0.069115534 0.27712765
0.073763676 0.06903594 0.2768085
0.074242756 0.068956345 0.27648935
0.074749313 0.068903282 0.27627659
-0.18209054 0.075966962 0.30212766
-0.181538 0.075993717 0.30223405
-0.18092136 0.075993717 0.30223405
-0.18017776 0.075940214 0.30202127
-0.17930856 0.075833216 0.30159575
-0.17850411 0.075752974 0.30127659
-0.17788941 0.075752974 0.30127659
-0.1773999 0.075806469 0.30148935
-0.17697191 0.075886719 0.30180851
-0.17660479 0.075993717 0.30223405
-0.17611203 0.076047212 0.30244681
-0.053263053 0.071820877 0.2856383
-0.052739125 0.071901128 0.28595746
-0.052252699 0.072034873 0.28648937
-0.051764101 0.072168618 0.28702128
-0.0512923 0.072329111 0.28765959
-0.050855402 0.072543107 0.28851065
-0.050452098 0.07281059 0.28957447
-0.049952865 0.072944336 0.29010639
0.072717875 0.069680966 0.27712765
0.07322704 0.069627464 0.27691489
0.073735334 0.069573969 0.27670214
0.074214198 0.069493726 0.27638298
0.074749313 0.069466971 0.27627659
-0.18176995 0.076448567 0.30159575
-0.18115461 0.076448567 0.30159575
-0.18053925 0.076448567 0.30159575
-0.17973351 0.076367669 0.30127659
-0.17892906 0.07628677 0.30095744
-0.17818896 0.076232843 0.30074468
-0.17757535 0.076232843 0.30074468
-0.17708692 0.07628677 0.30095744
-0.17666002 0.076367669 0.30127659
-0.17629398 0.076475538 0.30170214
-0.17580231 0.076529466 0.3019149
-0.053825788 0.072376706 0.28553191
-0.053263053 0.072403669 0.2856383
-0.052719504 0.072457604 0.28585106
-0.052213892 0.072565474 0.28627661
-0.051725727 0.072700299 0.28680852
-0.051273331 0.07288906 0.28755319
-0.050836649 0.073104784 0.28840426
-0.050415032 0.073347487 0.28936172
0.072689965 0.070219427 0.27702129
0.0731989 0.070165493 0.2768085
0.073706985 0.070111558 0.27659574
0.074185625 0.070030659 0.27627659
0.07469175 0.069976732 0.27606383
-0.1811288 0.076792091 0.30053192
-0.18070732 0.076873638 0.30085108
-0.18015715 0.076900817 0.30095744
-0.17941618 0.076846458 0.30074468
-0.17867608 0.076792091 0.30053192
-0.17799987 0.076764904 0.30042553
-0.17738689 0.076764904 0.30042553
-0.17689914 0.076819271 0.30063829
-0.17647287 0.076900817 0.30095744
-0.17604531 0.076982372 0.30127659
-0.17555451 0.077036731 0.30148935
-0.053805739 0.072932102 0.28542554
-0.053243216 0.072959274 0.28553191
-0.052680261 0.072986461 0.2856383
-0.052175082 0.073095195 0.28606382
-0.051687352 0.073231108 0.28659573
-0.051216424 0.073394209 0.28723404
-0.050761636 0.073584482 0.28797871
-0.050303821 0.07377477 0.28872341
0.072689965 0.070784636 0.27702129
0.0731989 0.070730269 0.2768085
0.073678628 0.070648715 0.27648935
0.074128494 0.070539989 0.27606383
0.074605405 0.070458442 0.27574468
0.075081006 0.070376888 0.27542552
-0.18080822 0.077268273 0.30000001
-0.18038781 0.07735046 0.30031914
-0.17990243 0.077405266 0.30053192
-0.17928925 0.077405266 0.30053192
-0.17861283 0.077377863 0.30042553
-0.17793682 0.07735046 0.30031914
-0.17732409 0.07735046 0.30031914
-0.17689914 0.077432662 0.30063829
-0.17641051 0.077487469 0.30085108
-0.17592099 0.077542268 0.30106384
-0.17536867 0.077569664 0.3011702
-0.053785682 0.073487051 0.28531915
-0.053203542 0.073487051 0.28531915
-0.05266064 0.07354185 0.28553191
-0.052116871 0.073596649 0.28574467
-0.051629797 0.073733658 0.28627661
-0.051140551 0.073870659 0.28680852
-0.050649129 0.07400766 0.28734043
-0.050118472 0.074089855 0.28765959
0.072662048 0.071322449 0.27691489
0.073170774 0.07126765 0.27670214
0.073621936 0.071158044 0.27627659
0.074042797 0.071021043 0.27574468
0.074490272 0.070911445 0.27531916
0.074965008 0.070829242 0.27500001
-0.18122731 0.07779751 0.29968086
-0.18080822 0.07788036 0.30000001
-0.18032391 0.077935599 0.30021277
-0.17990243 0.078018449 0.30053192
-0.17935272 0.078046061 0.30063829
-0.17873932 0.078046061 0.30063829
-0.17812592 0.078046061 0.30063829
-0.17751253 0.078046061 0.30063829
-0.17708692 0.078128912 0.30095744
-0.17659763 0.078184143 0.3011702
-0.17604531 0.078211762 0.30127659
-0.17536867 0.078184143 0.3011702
-0.053745575 0.074013963 0.28510639
-0.053163867 0.074013963 0.28510639
-0.052621402 0.074069194 0.28531915
-0.05209747 0.074152045 0.2856383
-0.051591422 0.074262515 0.28606382
-0.051102608 0.074400596 0.28659573
-0.050611626 0.074538685 0.28712767
-0.050062865 0.074593924 0.28734043
0.072578296 0.071804583 0.27659574
0.073086381 0.071749352 0.27638298
0.073536888 0.071638882 0.27595744
0.073957101 0.071500793 0.27542552
0.074432701 0.071417943 0.27510637
0.074965008 0.071390331 0.27500001
0.075526096 0.071390331 0.27500001
-0.18116297 0.078381114 0.29957446
-0.1807441 0.07846462 0.29989362
-0.18038781 0.078575954 0.30031914
-0.17996611 0.07865946 0.30063829
-0.17947966 0.078715131 0.30085108
-0.17892906 0.078742959 0.30095744
-0.17837806 0.078770794 0.30106384
-0.17788941 0.078826465 0.30127659
-0.1774625 0.078909971 0.30159575
-0.17697191 0.078965634 0.30180851
-0.17635614 0.078965634 0.30180851
-0.17567842 0.078937806 0.30170214
-0.053705461 0.074539997 0.2848936
-0.05314403 0.074567832 0.285
-0.052601781 0.074623495 0.28521276
-0.052078065 0.074707001 0.28553191
-0.051572241 0.074818343 0.28595746
-0.051083643 0.074957512 0.28648937
-0.050611626 0.075124517 0.28712767
-0.050081398 0.075208016 0.2874468
0.072438724 0.072229758 0.27606383
0.072973847 0.072201923 0.27595744
0.073423497 0.072090589 0.27553192
0.073899969 0.072007082 0.27521276
0.074432701 0.071979247 0.27510637
0.07502301 0.072007082 0.27521276
0.075642958 0.072062753 0.27542552
-0.18138689 0.078824028 0.29893616
-0.18090564 0.078880139 0.29914895
-0.18055174 0.078992344 0.29957446
-0.18026002 0.079132594 0.30010638
-0.17990243 0.079244807 0.30053192
-0.17954311 0.079357006 0.30095744
-0.17911881 0.07944116 0.30127659
-0.17869321 0.079525314 0.30159575
-0.1782663 0.079609469 0.3019149
-0.1778381 0.07969363 0.30223405
-0.17740858 0.079777777 0.30255318
-0.17685343 0.079805829 0.30265957
-0.17623591 0.079805829 0.30265957
-0.053685412 0.075093217 0.28478724
-0.053124189 0.075121269 0.2848936
-0.052582163 0.075177372 0.28510639
-0.052058667 0.075261526 0.28542554
-0.051553052 0.075373732 0.28585106
-0.05106467 0.075513989 0.28638297
-0.05057412 0.075654238 0.28691489
-0.050044328 0.075738393 0.28723404
0.072299153 0.072652757 0.27553192
0.072833188 0.072624706 0.27542552
0.0733101 0.072540551 0.27510637
0.073814273 0.072484449 0.27489361
0.074403927 0.0725125 0.27500001
0.075052008 0.072596662 0.27531916
0.075672179 0.072652757 0.27553192
-0.18119325 0.07934916 0.29861704
-0.18071264 0.079405695 0.29882979
-0.18029529 0.079490498 0.29914895
-0.18000442 0.079631835 0.29968086
-0.17971139 0.07977318 0.30021277
-0.17941618 0.079914518 0.30074468
-0.17911881 0.080055863 0.30127659
-0.17881927 0.0801972 0.30180851
-0.17845474 0.080310278 0.30223405
-0.17808847 0.080423348 0.30265957
-0.1776581 0.080508158 0.30297872
-0.17710209 0.080536425 0.30308512
-0.053665355 0.075646006 0.28468084
-0.053124189 0.075702541 0.2848936
-0.052582163 0.075759083 0.28510639
-0.052039262 0.075815618 0.28531915
-0.051476311 0.075843886 0.28542554
-0.050969824 0.075956956 0.28585106
-0.050461609 0.076070033 0.28627661
-0.049933117 0.076154828 0.28659573
0.072187491 0.073101856 0.27510637
0.072720669 0.073073588 0.27500001
0.073225059 0.073017053 0.27478725
0.073728569 0.072960511 0.27457446
0.074346364 0.073017053 0.27478725
0.074994005 0.073101856 0.27510637
0.075642958 0.073186658 0.27542552
0.076234356 0.073214933 0.27553192
-0.18132235 0.080015399 0.29882979
-0.18077695 0.080043875 0.29893616
-0.18029529 0.080100857 0.29914895
-0.17987661 0.080186307 0.29946807
-0.17952034 0.080300249 0.29989362
-0.17916231 0.080414191 0.30031914
-0.17892906 0.0805851 0.30095744
-0.17869321 0.080756016 0.30159575
-0.17845474 0.080926932 0.30223405
-0.17808847 0.081040867 0.30265957
-0.1775957 0.081097834 0.30287233
-0.17710209 0.081154816 0.30308512
-0.053685412 0.076255329 0.28478724
-0.053124189 0.076283813 0.2848936
-0.052562539 0.076312296 0.285
-0.052000456 0.076340787 0.28510639
-0.051399563 0.076312296 0.285
-0.050856009 0.076369263 0.28521276
-0.050311595 0.076426245 0.28542554
-0.049784839 0.076511696 0.28574467
0.072131664 0.073606186 0.27489361
0.072636269 0.073549218 0.27468085
0.07314001 0.073492251 0.27446809
0.073642872 0.073435269 0.27425531
0.074231222 0.07346376 0.2743617
0.07484901 0.073520727 0.27457446
0.075496875 0.073606186 0.27489361
0.076087184 0.073634677 0.27500001
-0.1817742 0.080826022 0.29957446
-0.18109863 0.080797315 0.29946807
-0.18048762 0.080797315 0.29946807
-0.18000442 0.080854721 0.29968086
-0.17952034 0.080912128 0.29989362
-0.1790354 0.080969527 0.30010638
-0.17873932 0.08111304 0.30063829
-0.17856716 0.08131396 0.30138299
-0.17832911 0.081486173 0.30202127
-0.17790069 0.081572279 0.30234042
-0.1773462 0.081600986 0.30244681
-0.17666695 0.081572279 0.30234042
-0.053705461 0.076865084 0.2848936
-0.053124189 0.076865084 0.2848936
-0.052542917 0.076865084 0.2848936
-0.051942244 0.076836385 0.28478724
-0.051342003 0.076807678 0.28468084
-0.050780136 0.076836385 0.28478724
-0.050274085 0.076951191 0.28521276
-0.049747769 0.077037297 0.28553191
0.072075836 0.074109651 0.27468085
0.07258001 0.074052252 0.27446809
0.073054962 0.073966138 0.27414894
0.07352861 0.073880032 0.27382979
0.074087307 0.073880032 0.27382979
0.074704006 0.073937438 0.27404255
0.07532157 0.073994838 0.27425531
0.075910576 0.074023545 0.2743617
-0.1821615 0.081610762 0.30021277
-0.18154897 0.081610762 0.30021277
-0.18080822 0.081552923 0.30000001
-0.18013221 0.081524007 0.29989362
-0.17952034 0.081524007 0.29989362
-0.1790354 0.081581838 0.30010638
-0.17861283 0.0816686 0.30042553
-0.17837806 0.081842117 0.30106384
-0.17814068 0.082015641 0.30170214
-0.17771289 0.082102388 0.30202127
-0.17709666 0.082102388 0.30202127
-0.1764183 0.082073472 0.3019149
-0.053765625 0.077533111 0.28521276
-0.05314403 0.077475272 0.285
-0.052542917 0.077446356 0.2848936
-0.051922839 0.077388518 0.28468084
-0.051342003 0.077388518 0.28468084
-0.050818074 0.077475272 0.285
-0.050349098 0.077648796 0.2856383
-0.049840443 0.077764466 0.28606382
0.072047919 0.074641168 0.27457446
0.072523735 0.074554406 0.27425531
0.072969913 0.074438728 0.27382979
0.073414348 0.074323051 0.27340424
0.073943399 0.074294135 0.27329788
0.074530005 0.074323051 0.27340424
0.075146273 0.074380897 0.27361703
0.075733967 0.074409813 0.27372339
-0.1822906 0.08228156 0.30042553
-0.18167764 0.08228156 0.30042553
-0.18093644 0.082223289 0.30021277
-0.18019612 0.082165018 0.30000001
-0.17952034 0.082135879 0.29989362
-0.17897193 0.082165018 0.30000001
-0.17854957 0.08225242 0.30031914
-0.178252 0.082398109 0.30085108
-0.17795223 0.08254379 0.30138299
-0.1774625 0.082602069 0.30159575
-0.17684716 0.082602069 0.30159575
-0.17616963 0.082572922 0.30148935
-0.053785682 0.078144178 0.28531915
-0.053163867 0.078085907 0.28510639
-0.052542917 0.078027628 0.2848936
-0.051942244 0.077998497 0.28478724
-0.051380374 0.078027628 0.2848936
-0.050912917 0.078202449 0.28553191
-0.050461609 0.078406408 0.28627661
-0.049970191 0.07855209 0.28680852
0.072047919 0.075201385 0.27457446
0.07249561 0.075084843 0.27414894
0.072913215 0.074939162 0.27361703
0.073357217 0.074822612 0.27319148
0.073885836 0.07479348 0.27308512
0.07447201 0.074822612 0.27319148
0.075058624 0.074851751 0.27329788
0.075645663 0.074880883 0.27340424
-0.18209694 0.082806461 0.30010638
-0.18142031 0.082777113 0.30000001
-0.1807441 0.082747757 0.29989362
-0.18000442 0.082689054 0.29968086
-0.17939298 0.082689054 0.29968086
-0.17890847 0.082747757 0.29989362
-0.17854957 0.082865164 0.30031914
-0.17818896 0.082982585 0.30074468
-0.17776379 0.083070651 0.30106384
-0.17721212 0.083099999 0.3011702
-0.17666002 0.083129354 0.30127659
-0.17598315 0.083099999 0.3011702
-0.054408364 0.078785017 0.28553191
-0.053805739 0.078755669 0.28542554
-0.053183701 0.078696959 0.28521276
-0.052562539 0.078638256 0.285
-0.051961645 0.0786089 0.2848936
-0.051418751 0.078667611 0.28510639
-0.050950855 0.078843728 0.28574467
-0.050499115 0.079049207 0.28648937
0.071681589 0.075967081 0.27531916
0.072159581 0.075879022 0.27500001
0.072551876 0.075702898 0.2743617
0.072913215 0.075497426 0.27361703
0.073385783 0.07540936 0.27329788
0.073885836 0.075350657 0.27308512
0.074443012 0.075350657 0.27308512
0.075029403 0.075380005 0.27319148
-0.18170963 0.083241343 0.29946807
-0.18109863 0.083241343 0.29946807
-0.18042351 0.08321178 0.29936171
-0.17968492 0.083152644 0.29914895
-0.17920193 0.08321178 0.29936171
-0.17884499 0.083330058 0.29978722
-0.17854957 0.083477914 0.30031914
-0.17812592 0.083566628 0.30063829
-0.17757535 0.0835962 0.30074468
-0.17696173 0.0835962 0.30074468
-0.17628573 0.083566628 0.30063829
-0.17567234 0.083566628 0.30063829
-0.054408364 0.079367593 0.28553191
-0.053805739 0.079338029 0.28542554
-0.053183701 0.079278879 0.28521276
-0.052562539 0.079219744 0.285
-0.051981051 0.079219744 0.285
-0.051437933 0.079278879 0.28521276
-0.050950855 0.079426736 0.28574467
-0.050461609 0.079574592 0.28627661
0.071930863 0.076794952 0.27627659
0.07235498 0.076647095 0.27574468
0.072664402 0.076380968 0.27478725
0.072969913 0.076114826 0.27382979
0.073414348 0.07599654 0.27340424
0.07391461 0.075937398 0.27319148
0.074443012 0.075907834 0.27308512
0.075000189 0.075907834 0.27308512
-0.18138689 0.083703421 0.29893616
-0.18077695 0.083703421 0.29893616
-0.18010293 0.083673634 0.29882979
-0.17942932 0.083643846 0.2987234
-0.17901088 0.083733208 0.29904255
-0.17878154 0.08391194 0.29968086
-0.17848633 0.084060878 0.30021277
-0.17799987 0.084120445 0.30042553
-0.17732409 0.084090658 0.30031914
-0.17658615 0.084031083 0.30010638
-0.17591147 0.084001303 0.30000001
-0.17523721 0.083971508 0.29989362
-0.054367822 0.079890594 0.28531915
-0.053765625 0.079860806 0.28521276
-0.053163867 0.079831019 0.28510639
-0.052562539 0.079801232 0.285
-0.052000456 0.079831019 0.28510639
-0.051437933 0.079860806 0.28521276
-0.050893951 0.079920389 0.28542554
-0.050349098 0.079979964 0.2856383
0.072152443 0.07759694 0.27712765
0.072522469 0.077388428 0.27638298
0.072776929 0.077060767 0.27521276
0.073026612 0.076733097 0.27404255
0.073442914 0.07658416 0.27351063
0.07391461 0.076494798 0.27319148
0.074443012 0.076465011 0.27308512
0.074970968 0.076435223 0.27297872
-0.18193205 0.084283344 0.29882979
-0.18132235 0.084283344 0.29882979
-0.1806483 0.084253334 0.2987234
-0.1799747 0.08422333 0.29861704
-0.17936543 0.08422333 0.29861704
-0.17901088 0.084343351 0.29904255
-0.17878154 0.08452338 0.29968086
-0.17848633 0.084673405 0.30021277
-0.17793682 0.084703401 0.30031914
-0.17713565 0.084613398 0.30000001
-0.17627317 0.084493369 0.29957446
-0.17547479 0.084403358 0.29925531
-0.1747399 0.084343351 0.29904255
-0.054307006 0.08038272 0.285
-0.053725518 0.08038272 0.285
-0.053124189 0.080352716 0.2848936
-0.052542917 0.080352716 0.2848936
-0.051981051 0.08038272 0.285
-0.051418751 0.080412731 0.28510639
-0.050837044 0.080412731 0.28510639
-0.05025534 0.080412731 0.28510639
0.072550379 0.077982336 0.27648935
0.072776929 0.077622287 0.27521276
0.073026612 0.077292234 0.27404255
0.073414348 0.077112198 0.27340424
0.073885836 0.077022195 0.27308512
0.074414007 0.076992184 0.27297872
0.074970968 0.076992184 0.27297872
-0.18193205 0.084893048 0.29882979
-0.18132235 0.084893048 0.29882979
-0.1806483 0.084862821 0.2987234
-0.1799747 0.084832609 0.29861704
-0.17936543 0.084832609 0.29861704
-0.17901088 0.084953487 0.29904255
-0.17878154 0.085134819 0.29968086
-0.17842308 0.085255705 0.30010638
-0.17774774 0.085225485 0.30000001
-0.17688438 0.0851046 0.29957446
-0.17596018 0.084953487 0.29904255
-0.17522529 0.084893048 0.29882979
-0.17449126 0.084832609 0.29861704
-0.054246191 0.080873542 0.28468084
-0.053645305 0.080843329 0.28457448
-0.053064682 0.080843329 0.28457448
-0.052484062 0.080843329 0.28457448
-0.051942244 0.080903769 0.28478724
-0.051361192 0.080903769 0.28478724
-0.050780136 0.080903769 0.28478724
-0.050180327 0.080873542 0.28468084
0.072382897 0.07836514 0.27585107
0.072692528 0.078093141 0.27489361
0.072998263 0.07782115 0.27393618
0.073385783 0.077639811 0.27329788
0.073857047 0.077549145 0.27297872
0.074385002 0.077518925 0.27287233
0.074970968 0.077549145 0.27297872
-0.18186727 0.085472308 0.2987234
-0.18132235 0.085502751 0.29882979
-0.1806483 0.085472308 0.2987234
-0.1799747 0.08544188 0.29861704
-0.17942932 0.085472308 0.2987234
-0.17907457 0.085594073 0.29914895
-0.17878154 0.085746266 0.29968086
-0.17835984 0.08583758 0.30000001
-0.17762168 0.085776702 0.29978722
-0.17675877 0.085654944 0.29936171
-0.17589757 0.085533187 0.29893616
-0.1751629 0.085472308 0.2987234
-0.17449126 0.08544188 0.29861704
-0.054205652 0.081393503 0.28446808
-0.053605191 0.081363067 0.28436169
-0.05300517 0.081332631 0.28425533
-0.052425202 0.081332631 0.28425533
-0.051884037 0.081393503 0.28446808
-0.051303633 0.081393503 0.28446808
-0.050704256 0.081363067 0.28436169
-0.050105322 0.081332631 0.28425533
0.072075836 0.078593135 0.27468085
0.072551876 0.078501813 0.2743617
0.072913215 0.078288741 0.27361703
0.073328651 0.078136548 0.27308512
0.073799483 0.078045234 0.27276596
0.074356012 0.078045234 0.27276596
0.074941747 0.07807567 0.27287233
0.075527929 0.078106105 0.27297872
-0.18180253 0.086051151 0.29861704
-0.18125778 0.086081803 0.2987234
-0.18058397 0.086051151 0.29861704
-0.17984645 0.085989833 0.29840425
-0.17930153 0.086020492 0.29851064
-0.1789472 0.086143114 0.29893616
-0.1786546 0.086296387 0.29946807
-0.1781701 0.086357705 0.29968086
-0.17749561 0.086327046 0.29957446
-0.17675877 0.086265735 0.29936171
-0.17608537 0.086235076 0.29925531
-0.17541243 0.086204432 0.29914895
-0.1747399 0.086173773 0.29904255
-0.05416511 0.0819126 0.28425533
-0.053565085 0.08188194 0.28414893
-0.052965496 0.081851289 0.28404257
-0.052366339 0.08182063 0.28393617
-0.051806428 0.081851289 0.28404257
-0.051226892 0.081851289 0.28404257
-0.050609414 0.08178997 0.28382978
-0.049992807 0.08172866 0.28361702
0.071908347 0.078969628 0.27404255
0.072411217 0.078908317 0.27382979
0.072828174 0.078755043 0.27329788
0.073271513 0.078632414 0.27287233
0.073770694 0.078571104 0.27265957
0.074298009 0.078540452 0.27255321
0.074883319 0.078571104 0.27265957
0.075469069 0.078601763 0.27276596
-0.18215184 0.086536929 0.29819149
-0.18167298 0.086598672 0.29840425
-0.1811287 0.086629547 0.29851064
-0.18039097 0.086567804 0.29829788
-0.17965411 0.086506046 0.29808509
-0.17910983 0.086536929 0.29819149
-0.17875616 0.086660422 0.29861704
-0.17846422 0.086814784 0.29914895
-0.17804359 0.086907394 0.29946807
-0.17749561 0.086938277 0.29957446
-0.17688438 0.086938277 0.29957446
-0.17633577 0.086969152 0.29968086
-0.17566194 0.086938277 0.29957446
-0.054144837 0.082461692 0.28414893
-0.053545032 0.082430825 0.28404257
-0.052925818 0.082369074 0.28382978
-0.0523271 0.082338206 0.28372341
-0.051748216 0.082338206 0.28372341
-0.051130954 0.082276456 0.28351063
-0.050514568 0.082214706 0.28329787
-0.049880296 0.082122087 0.28297871
0.071824603 0.079436138 0.27372339
0.072326817 0.079374395 0.27351063
0.072799817 0.079281777 0.27319148
0.073271513 0.079189159 0.27287233
0.07374192 0.079096548 0.27255321
0.074269012 0.079065666 0.27244681
0.074854106 0.079096548 0.27255321
0.075410202 0.079096548 0.27255321
-0.18202189 0.087083153 0.29797873
-0.18147866 0.087114237 0.29808509
-0.18093504 0.087145329 0.29819149
-0.1802623 0.087114237 0.29808509
-0.17952588 0.087052055 0.29787233
-0.17898203 0.087083153 0.29797873
-0.17856511 0.08717642 0.29829788
-0.17827381 0.087331869 0.29882979
-0.17791709 0.087456226 0.29925531
-0.17749561 0.0875495 0.29957446
-0.17701001 0.087611675 0.29978722
-0.17658615 0.087704949 0.30010638
-0.17597383 0.087704949 0.30010638
-0.054104295 0.082979269 0.28393617
-0.053504921 0.082948171 0.28382978
-0.052905984 0.082917087 0.28372341
-0.052307479 0.082885996 0.28361702
-0.051709406 0.082854904 0.28351063
-0.051092584 0.082792722 0.28329787
-0.05045766 0.082699455 0.28297871
-0.049842793 0.082637273 0.28276595
0.071768768 0.079932444 0.27351063
0.072298683 0.079901353 0.27340424
0.072771475 0.079808086 0.27308512
0.073242955 0.07971482 0.27276596
0.073713131 0.079621546 0.27244681
0.074240007 0.079590455 0.27234042
0.074854106 0.079652637 0.27255321
0.075469069 0.07971482 0.27276596
-0.18169695 0.087534584 0.29744682
-0.18121961 0.087597199 0.29765958
-0.18074138 0.087659813 0.29787233
-0.18019797 0.087691121 0.29797873
-0.17959 0.087691121 0.29797873
-0.17904592 0.087722421 0.29808509
-0.17856511 0.087785043 0.29829788
-0.17821035 0.087910265 0.2987234
-0.17785385 0.088035502 0.29914895
-0.17749561 0.088160723 0.29957446
-0.17713565 0.08828596 0.30000001
-0.17671134 0.088379867 0.30031914
-0.054023206 0.083433352 0.28351063
-0.053444754 0.083433352 0.28351063
-0.052866306 0.083433352 0.28351063
-0.052287854 0.083433352 0.28351063
-0.051728811 0.083464667 0.28361702
-0.051111773 0.083402053 0.28340426
-0.050495602 0.083339438 0.2831915
0.071210727 0.080490492 0.27351063
0.071740851 0.080459177 0.27340424
0.072242424 0.08039657 0.27319148
0.072743125 0.080333956 0.27297872
0.073214389 0.080240034 0.27265957
0.073713131 0.080177419 0.27244681
0.074240007 0.080146112 0.27234042
0.074883319 0.080240034 0.27265957
0.075527929 0.080333956 0.27297872
-0.18130705 0.087952323 0.29680851
-0.18089578 0.088046901 0.29712766
-0.18054773 0.088172987 0.29755318
-0.18019797 0.088299088 0.29797873
-0.17965411 0.088330612 0.29808509
-0.17910983 0.088362135 0.29819149
-0.17856511 0.088393666 0.29829788
-0.17821035 0.088519759 0.2987234
-0.17785385 0.088645861 0.29914895
-0.17755865 0.088803478 0.29968086
-0.17726128 0.088961095 0.30021277
-0.17683654 0.089055672 0.30053192
-0.053962398 0.083917238 0.2831915
-0.053384598 0.083917238 0.2831915
-0.052826632 0.083948754 0.28329787
-0.052287854 0.084011801 0.28351063
-0.051767614 0.084106378 0.28382978
-0.051226892 0.084169433 0.28404257
-0.050609414 0.084106378 0.28382978
0.071685024 0.080953963 0.27319148
0.072186165 0.080890916 0.27297872
0.072714768 0.080859393 0.27287233
0.073185824 0.080764823 0.27255321
0.07368435 0.080701768 0.27234042
0.074269012 0.080733299 0.27244681
0.074912541 0.080827869 0.27276596
0.075616233 0.080985494 0.27329788
0.076233149 0.081048541 0.27351063
-0.18104711 0.088430949 0.29638299
-0.18063669 0.08852616 0.29670212
-0.18035407 0.088684864 0.29723403
-0.18000497 0.088811837 0.29765958
-0.17952588 0.088875316 0.29787233
-0.17898203 0.088907063 0.29797873
-0.17843774 0.088938795 0.29808509
-0.17801994 0.089034021 0.29840425
-0.17772734 0.089192726 0.29893616
-0.17755865 0.089414917 0.29968086
-0.17726128 0.089573622 0.30021277
-0.053942122 0.084463291 0.28308511
-0.053384598 0.084495038 0.2831915
-0.052826632 0.084526777 0.28329787
