# .PCD v0.7 - Point Cloud Data file format
VERSION 0.7
FIELDS x y z
SIZE 4 4 4
TYPE F F F
COUNT 1 1 1
WIDTH 1396
HEIGHT 1
VIEWPOINT 0 0 0 1 0 0 0
POINTS 1396
DATA ascii
-0.072497047 0.10786344 0.28287622
-0.07203804 0.10782076 0.2827799
-0.071631424 0.10779639 0.28268361
-0.071217798 0.10778856 0.28258103
-0.070682533 0.10774257 0.28245813
-0.06998907 0.10769169 0.28231552
-0.06930165 0.10763571 0.28218809
-0.068735093 0.10762004 0.28208792
-0.068205051 0.10757213 0.28202465
-0.067854002 0.10755742 0.28198329
-0.067301489 0.10751493 0.28191817
-0.066957712 0.10751759 0.28183743
-0.066411786 0.10744552 0.2817677
-0.06586463 0.10738413 0.28168598
-0.065325193 0.107308 0.28159323
-0.064618915 0.10718593 0.28148144
-0.06392353 0.10705922 0.28136331
-0.063094966 0.10694973 0.28115654
-0.062227976 0.10686011 0.28091383
-0.061211307 0.10671841 0.28060246
-0.05999719 0.1067031 0.28019252
-0.058966037 0.10667095 0.27997416
-0.058257777 0.10663759 0.27986452
-0.057471193 0.10663284 0.27975523
-0.056678906 0.10663482 0.27965066
-0.055783253 0.10664387 0.27954745
-0.054888058 0.1065563 0.27948678
-0.054131277 0.10642671 0.27941784
-0.05351945 0.10628123 0.27938381
-0.053050913 0.10612816 0.27932158
-0.052714586 0.10603356 0.27929252
-0.052452229 0.1060042 0.27925336
-0.052243143 0.10596616 0.27922931
-0.052090589 0.10600638 0.27920228
-0.051886886 0.10603003 0.27918869
-0.051712319 0.10607172 0.27920049
-0.05155047 0.1061527 0.27922443
-0.051291376 0.10618397 0.27923438
-0.051061764 0.10621464 0.27922001
-0.050760064 0.10616671 0.27921042
-0.05041033 0.10617834 0.27914929
-0.05014113 0.10618962 0.27911681
-0.049834814 0.10621338 0.27910939
-0.049502723 0.10622273 0.27904555
-0.049119473 0.10625418 0.27897829
-0.048732668 0.10625868 0.27893451
-0.048232347 0.10629845 0.27889198
-0.047735553 0.10632665 0.27888632
-0.04725052 0.10639186 0.27893305
-0.046656508 0.10648543 0.27898422
-0.046059098 0.10655965 0.27905333
-0.045607913 0.106651 0.27910674
-0.045067355 0.10670295 0.27912903
-0.044499163 0.10672152 0.27910841
-0.043895587 0.1067559 0.27902827
-0.042870887 0.10676917 0.27878299
-0.041860778 0.10681949 0.27862322
-0.040782072 0.10686558 0.27837074
-0.03960605 0.10699099 0.27804506
-0.038744021 0.1069492 0.27785584
-0.03806993 0.10692706 0.27768937
-0.037389662 0.10687032 0.27746272
-0.036602914 0.10678779 0.2771855
-0.036046132 0.10672977 0.27706236
-0.035454728 0.10668696 0.27695426
-0.034799416 0.10661735 0.27682373
-0.034067597 0.10651603 0.27664313
-0.033378731 0.10645621 0.27655992
-0.032730546 0.10639615 0.27649251
-0.032179154 0.10633814 0.27644685
-0.031639144 0.1062836 0.27635136
-0.031199338 0.10622845 0.27629766
-0.030660275 0.10616343 0.27621794
-0.029930843 0.10609184 0.27611634
-0.029216373 0.10603795 0.27604845
-0.028537648 0.10600179 0.27599433
-0.027679605 0.10595403 0.27587605
-0.02710071 0.1059417 0.27578995
-0.026366042 0.10590819 0.27573282
-0.025677279 0.10587759 0.2756384
-0.025274811 0.10588264 0.27561775
-0.024775697 0.10590132 0.27557755
-0.024502391 0.10591459 0.27557716
-0.023947135 0.10593644 0.27553868
-0.02361864 0.10594694 0.27551636
-0.023123294 0.10598002 0.2754733
-0.022626596 0.10599911 0.27541009
-0.022067256 0.10600852 0.27532333
-0.021508455 0.10600837 0.27521935
-0.020980105 0.10601028 0.2751222
-0.020542981 0.10599274 0.27506852
-0.020042602 0.10596288 0.27502242
-0.019573685 0.10594784 0.2749761
-0.019101582 0.1059309 0.27495199
-0.018427549 0.10595518 0.27494207
-0.017872358 0.10595441 0.27492833
-0.017243182 0.10599314 0.27488583
-0.016641198 0.10599101 0.27487925
-0.015935889 0.1059984 0.27489403
-0.015316471 0.10597613 0.27487177
-0.014786378 0.10596966 0.27483559
-0.014257603 0.10596217 0.27479234
-0.013756539 0.10596988 0.27475885
-0.013202312 0.10597569 0.27471247
-0.012590915 0.10599315 0.27466157
-0.012034106 0.10600722 0.27464154
-0.011449418 0.10601864 0.27462789
-0.010865054 0.10603146 0.27461776
-0.010280662 0.10604597 0.2746121
-0.0096080201 0.10606746 0.27459189
-0.0089643635 0.1060851 0.27455217
-0.0082477992 0.10603604 0.27454069
-0.0076087266 0.10601626 0.27453929
-0.0069771726 0.10597704 0.27455726
-0.0064031356 0.10592365 0.27452418
-0.0058947066 0.10590512 0.27447447
-0.0053860056 0.10585893 0.27441093
-0.0048839017 0.10583585 0.27434587
-0.0043295515 0.10580812 0.27428997
-0.003832388 0.10579444 0.2742492
-0.0033379428 0.10578377 0.27421632
-0.0028462391 0.10577437 0.27418685
-0.0024062798 0.10575772 0.27417305
-0.0018900655 0.10573994 0.27416945
-0.0013481457 0.1057294 0.27415988
-0.00085961301 0.10572367 0.27417445
-0.00031743836 0.10571278 0.27420661
0.00022119093 0.10570892 0.27419224
0.00083883386 0.1057082 0.27416936
0.0014622262 0.10569037 0.27410454
0.0019734162 0.10567471 0.27402949
0.00256684 0.10565942 0.27393448
0.0031810915 0.1056483 0.27381754
0.0037714234 0.10564021 0.27372238
0.0042323996 0.10562496 0.27366996
0.0047194371 0.10560181 0.2736429
0.0051817014 0.10558469 0.27361548
0.0056454092 0.10558029 0.27358419
0.0060300329 0.10557852 0.27355081
0.0064997789 0.10557692 0.27350894
0.0069691893 0.10558155 0.27345759
0.0074418373 0.10558049 0.27340353
0.0078569939 0.10557905 0.27335992
0.0083541824 0.10555854 0.27330494
0.0089434274 0.10555108 0.27319542
0.0095413476 0.10555278 0.27305806
0.01021391 0.105547 0.27293766
0.010831652 0.10553481 0.27283403
0.011468427 0.10550749 0.27275619
0.011983295 0.10549236 0.27270252
0.01250402 0.10548928 0.27264234
0.013059925 0.10548425 0.27258852
0.013592085 0.10547286 0.27254349
0.01416239 0.10546487 0.27248988
0.020494567 0.1053042 0.27153397
0.02118131 0.10529131 0.27146187
0.021725208 0.10526749 0.27141577
0.042761397 0.10441454 0.26881635
0.051636506 0.10442462 0.26859224
0.054486252 0.10428707 0.26831082
0.054975361 0.10428268 0.26830795
0.05549809 0.10427589 0.2683264
0.056020383 0.1042679 0.26835135
0.056444313 0.10426209 0.26837257
0.056865592 0.10424812 0.26838934
0.057345863 0.1042252 0.26839682
0.057917718 0.10419299 0.26839444
0.058539197 0.10416655 0.26837319
0.059148818 0.10412181 0.26836196
0.059689429 0.10410823 0.26830921
0.060026735 0.10411036 0.26822481
0.060541872 0.10407568 0.2681095
0.060930938 0.10400463 0.26803857
0.061640229 0.10399839 0.26798224
0.062922895 0.10386143 0.26801199
0.064195096 0.1036086 0.26811087
0.064871468 0.10348715 0.26810664
0.065427728 0.10340201 0.2680352
0.066013873 0.10329448 0.26792306
0.06675978 0.10314757 0.26777345
0.067400649 0.10300966 0.26763564
0.068046004 0.10285246 0.26759112
0.068486787 0.10279117 0.26753086
0.06875097 0.10271168 0.26749867
0.068951108 0.10266468 0.26746064
0.069076605 0.10260767 0.26745471
0.06929519 0.10255707 0.26743624
0.069647059 0.10254482 0.26743981
0.069951288 0.10251481 0.26748279
0.070097648 0.1024811 0.26750654
0.070259765 0.10241824 0.26752007
0.070404194 0.10240006 0.26748765
0.070476942 0.10230907 0.26749223
0.070562631 0.10226911 0.26744846
0.070721135 0.10216834 0.26741582
0.070847042 0.10214507 0.26740348
0.070997901 0.10208592 0.26737094
0.071139455 0.1020437 0.26735094
-0.17881079 0.11162333 0.2921277
-0.17857291 0.11145303 0.29217926
-0.17814147 0.1112205 0.29229456
-0.17791657 0.11097398 0.29239684
-0.17775854 0.11088975 0.29242191
-0.17756566 0.11080623 0.29247561
-0.17740154 0.11073206 0.29251313
-0.17723642 0.1106815 0.29253179
-0.17706856 0.11064142 0.29257682
-0.17693776 0.11056738 0.2926155
-0.17677495 0.11056851 0.29264641
-0.17653933 0.11055765 0.29266417
-0.17623003 0.11054163 0.29267555
-0.17579201 0.11046049 0.29266566
-0.17532842 0.11040396 0.29263863
-0.17468993 0.11027601 0.29259193
-0.17393956 0.11013396 0.2925851
-0.17283943 0.10987148 0.29258087
-0.17171809 0.1097799 0.29243851
-0.17039481 0.10961578 0.29232422
-0.16918918 0.10936072 0.29216194
-0.16781582 0.1093 0.29190227
-0.16717216 0.10932717 0.29184148
-0.16651024 0.10936011 0.29177108
-0.16671018 0.10931553 0.29211891
-0.16683348 0.10929436 0.29223445
-0.16685377 0.10933907 0.29233652
-0.16664183 0.10933261 0.29235595
-0.1661097 0.10932146 0.29231399
-0.16520452 0.10937664 0.29219788
-0.16431089 0.10939477 0.2921212
-0.16327605 0.10944441 0.29187629
-0.15896879 0.10949388 0.29153073
-0.15852597 0.10949216 0.29151109
-0.15803765 0.10948367 0.29148367
-0.1574396 0.10947441 0.29143491
-0.15659525 0.10946069 0.2913686
-0.1551387 0.10934038 0.291242
-0.15452932 0.1093024 0.2910915
-0.15414555 0.10926937 0.29099444
-0.15380257 0.10924457 0.29091841
-0.15333769 0.10921193 0.29073861
-0.15299436 0.10917664 0.29065794
-0.15268116 0.10914314 0.29060116
-0.15229222 0.10910057 0.2905311
-0.15176128 0.10906237 0.29042205
-0.15145597 0.10904871 0.29036584
-0.15114294 0.1090551 0.29031006
-0.15026103 0.10894704 0.29017037
-0.1488629 0.10885169 0.28994995
-0.1473915 0.10877524 0.28970182
-0.14596139 0.10871568 0.28950372
-0.14516176 0.10868999 0.28938094
-0.14455764 0.10865677 0.28930306
-0.14408374 0.10864255 0.28924474
-0.14110033 0.10850904 0.28886715
-0.1404137 0.10847372 0.28878015
-0.13979833 0.10846571 0.28872353
-0.13907433 0.10843791 0.28862739
-0.13850464 0.10842671 0.28857285
-0.13782416 0.10846321 0.28853139
-0.13760135 0.10849631 0.28853464
-0.1372081 0.1084564 0.28849682
-0.13704698 0.10847233 0.28849193
-0.13678451 0.10849293 0.28847802
-0.13623206 0.10848019 0.28844422
-0.13547201 0.10844766 0.28839731
-0.13478097 0.10844643 0.28839952
-0.13409019 0.10847233 0.28839123
-0.13358653 0.10848515 0.28837591
-0.13334043 0.1085019 0.28837657
-0.13290936 0.10852964 0.28834525
-0.1326002 0.10855794 0.28832871
-0.13209318 0.10855348 0.28827772
-0.13144517 0.10853625 0.28821552
-0.13095073 0.10854287 0.28814533
-0.13054904 0.10851079 0.28810552
-0.13019143 0.10850105 0.28808212
-0.12989983 0.10850643 0.28804424
-0.1292637 0.10848283 0.28796744
-0.1281229 0.10836341 0.28783238
-0.12728937 0.10832106 0.28774124
-0.12661947 0.10829271 0.2876555
-0.12605037 0.10829237 0.28757489
-0.12548593 0.10828402 0.28750139
-0.1247839 0.10825699 0.28739479
-0.12383038 0.1081883 0.28725332
-0.12266327 0.10810697 0.28709474
-0.12142981 0.10804697 0.2869589
-0.12059294 0.10799371 0.28688234
-0.11981957 0.10791741 0.28678924
-0.11923754 0.10788153 0.28673774
-0.11862637 0.10787085 0.28670594
-0.11808962 0.10786324 0.28668442
-0.11752536 0.10785118 0.28665566
-0.116898 0.10785217 0.28662419
-0.11645815 0.107896 0.28658998
-0.11591268 0.10788086 0.28652143
-0.11532943 0.10787591 0.28643009
-0.11491921 0.10784157 0.28637177
-0.11427482 0.10782821 0.28626662
-0.11377037 0.10782577 0.28620297
-0.11320233 0.1078105 0.28613314
-0.11281216 0.10782336 0.28608164
-0.11222271 0.10782695 0.28600907
-0.11142783 0.10790896 0.28590071
-0.11092889 0.1079205 0.28586715
-0.11049175 0.10791324 0.2858552
-0.10983805 0.1079309 0.28580791
-0.10898466 0.10792225 0.28574035
-0.10825226 0.1079262 0.28570625
-0.10749752 0.1079632 0.2856496
-0.10694795 0.1079841 0.28562286
-0.10640448 0.10800373 0.2855989
-0.10573516 0.1080063 0.28555471
-0.10509358 0.10800271 0.28550506
-0.10463894 0.10799713 0.28546542
-0.10400514 0.10800851 0.28540623
-0.10343117 0.10802521 0.2853424
-0.10267708 0.10804092 0.28524879
-0.10181186 0.1080415 0.28513774
-0.10104536 0.10804849 0.28506207
-0.10042819 0.10805825 0.2850062
-0.099843018 0.10806879 0.28494617
-0.099315099 0.10806346 0.2848807
-0.098933019 0.10807218 0.28483704
-0.098522544 0.10803168 0.28479075
-0.098116323 0.10803817 0.28476569
-0.097710826 0.10803589 0.28475031
-0.097189285 0.1080392 0.28472298
-0.09667182 0.10804572 0.28470653
-0.096102327 0.10804753 0.28469852
-0.095450208 0.10807286 0.28467879
-0.094633281 0.10810272 0.28466097
-0.093966186 0.10813148 0.28466591
-0.093330704 0.10815143 0.28467813
-0.09277419 0.10814242 0.28470752
-0.092184253 0.10814267 0.28471667
-0.091679707 0.10815515 0.2847091
-0.091032661 0.1081949 0.2846936
-0.090295978 0.10823426 0.28469363
-0.089641958 0.10825076 0.28469586
-0.089095481 0.10825669 0.28470767
-0.088574491 0.10824346 0.28470317
-0.088199191 0.10823293 0.28469756
-0.087792739 0.10823537 0.284668
-0.087385841 0.10821362 0.28464252
-0.086807922 0.10820259 0.28460592
-0.086147666 0.10818657 0.28457525
-0.085607253 0.10818984 0.28455505
-0.085156277 0.10820422 0.28454241
-0.084708005 0.10822193 0.28453159
-0.084149808 0.10823838 0.28452086
-0.083650462 0.10824764 0.28451723
-0.082975589 0.10827568 0.28445345
-0.082323439 0.10827156 0.28439716
-0.081534348 0.10825007 0.28432161
-0.080944523 0.10823409 0.28427309
-0.080410928 0.10822191 0.28423882
-0.079767056 0.10821358 0.28416643
-0.079259396 0.10822011 0.28409219
-0.078553878 0.10817697 0.28397277
-0.077910714 0.10814798 0.28382799
-0.07722301 0.10811412 0.28365627
-0.076405421 0.10807993 0.28349173
-0.075810023 0.10805788 0.28338754
-0.075214252 0.1080331 0.28329375
-0.074414246 0.10797209 0.28319201
-0.073771738 0.10794141 0.28309759
-0.073207803 0.10791864 0.28300437
-0.07252641 0.10788132 0.2828714
-0.071979865 0.10782229 0.28276536
-0.071660765 0.10780962 0.28268421
-0.071159057 0.10779563 0.28256181
-0.070591636 0.10774674 0.28243446
-0.069929816 0.10769643 0.2823
-0.069214299 0.10763939 0.28216624
-0.068708174 0.10762344 0.2820794
-0.068120733 0.10758553 0.28200138
-0.067676365 0.10756783 0.28193876
-0.067331277 0.10753417 0.28190196
-0.066901423 0.10752515 0.28181189
-0.066297643 0.1074542 0.28173149
-0.065721706 0.10737661 0.28164288
-0.06515307 0.10731216 0.28154197
-0.06444671 0.10720109 0.28142139
-0.063669957 0.10707802 0.28126165
-0.062819973 0.10697564 0.28103581
-0.061940357 0.10689216 0.28077248
-0.0609321 0.10685173 0.28044581
-0.059782296 0.10688826 0.28007793
-0.058794174 0.10683658 0.27987996
-0.058059599 0.10685466 0.27976447
-0.057209432 0.10685643 0.27965313
-0.05629909 0.1068506 0.27954265
-0.055422768 0.10680469 0.27946597
-0.054684252 0.1067468 0.27940902
-0.053895239 0.1065747 0.27932575
-0.053379625 0.10648616 0.27926105
-0.052981082 0.10628898 0.27921894
-0.052660193 0.10619342 0.279199
-0.052429926 0.10613699 0.27918005
-0.052170414 0.1061228 0.27918676
-0.052011188 0.10614104 0.27916178
-0.051858939 0.10618352 0.27914032
-0.051642597 0.10627452 0.27913618
-0.05148571 0.10632323 0.27915126
-0.051269498 0.10634644 0.27915791
-0.051015217 0.10637004 0.27918026
-0.050672118 0.10637813 0.27913186
-0.050350785 0.10635167 0.27911147
-0.050104693 0.10637621 0.27905789
-0.049813632 0.10639787 0.27906609
-0.049527518 0.10643543 0.27901715
-0.049096163 0.10645334 0.27893841
-0.048670433 0.10647599 0.2788792
-0.048111349 0.10645667 0.27881098
-0.047498286 0.10646372 0.27875251
-0.046943136 0.10646203 0.2787503
-0.046442583 0.10651964 0.27877685
-0.045963332 0.10657509 0.27882057
-0.045386698 0.10664789 0.27886686
-0.044850472 0.10674473 0.27889854
-0.044158485 0.10678583 0.27883935
-0.043248482 0.10680891 0.27874261
-0.042309884 0.10688552 0.27853796
-0.041157067 0.10693923 0.27834073
-0.039979581 0.10705739 0.27803394
-0.039245393 0.10703438 0.27794111
-0.038583089 0.10699257 0.27779785
-0.038000878 0.10694812 0.2776458
-0.037170645 0.10684384 0.27735922
-0.03642986 0.10678747 0.27713522
-0.035876945 0.10671467 0.27701604
-0.035353407 0.10667103 0.27692088
-0.034834124 0.10662535 0.27682599
-0.034067601 0.10651604 0.27664316
-0.033447098 0.10647297 0.2765618
-0.032798067 0.10641428 0.27649328
-0.032115407 0.10634348 0.2764172
-0.031539943 0.1062788 0.27633265
-0.031033086 0.10622472 0.27625504
-0.03043372 0.10614705 0.27618545
-0.029741978 0.10608346 0.27608734
-0.029186634 0.1060418 0.27603927
-0.028539499 0.10600931 0.27598491
-0.027848663 0.10597065 0.27589011
-0.027206071 0.10595395 0.27580836
-0.026511451 0.10594106 0.27575678
-0.025944974 0.10593955 0.27570471
-0.025407754 0.10593035 0.2756561
-0.024979088 0.10592653 0.27562341
-0.024476144 0.10594065 0.27558443
-0.024013417 0.10595937 0.27555448
-0.023502856 0.10598208 0.27551606
-0.023064852 0.10599135 0.27546418
-0.022596369 0.10600191 0.27540544
-0.021974629 0.10601639 0.27529913
-0.021386083 0.10601746 0.27518049
-0.020980101 0.10601694 0.27511734
-0.020480765 0.10599457 0.27505469
-0.020042423 0.1059716 0.27500895
-0.01951186 0.10594746 0.27496222
-0.018951701 0.10593519 0.274912
-0.018277153 0.10595018 0.27486962
-0.017670535 0.1059842 0.27485225
-0.017067032 0.10599997 0.27484882
-0.016497917 0.10601048 0.27485618
-0.01593175 0.10599744 0.27486855
-0.01531567 0.10598367 0.27487549
-0.014757336 0.10596962 0.27482998
-0.014257604 0.10596217 0.27479237
-0.013729138 0.10597554 0.27475092
-0.013146156 0.10598151 0.27469608
-0.012619394 0.10599874 0.27466264
-0.012005472 0.10600965 0.27463469
-0.011420878 0.10602152 0.27462235
-0.010836604 0.1060349 0.27461389
-0.01022312 0.10605733 0.2746022
-0.0095504327 0.10608401 0.27456424
-0.0089936145 0.10609762 0.27453679
-0.0081863068 0.10604329 0.27449039
-0.0075764423 0.10601385 0.2744782
-0.006946228 0.10598761 0.274497
-0.0062986473 0.10593528 0.27450529
-0.0057886634 0.10590387 0.27445349
-0.0052571525 0.10586981 0.27438542
-0.0047840783 0.10585201 0.27432129
-0.0042847316 0.1058312 0.27426681
-0.0037846412 0.10580923 0.27423093
-0.0032897664 0.10579814 0.27419728
-0.0028223528 0.10578252 0.27417323
-0.0023563558 0.10576797 0.27415168
-0.0018917389 0.10575548 0.27413544
-0.0013746984 0.10573819 0.27413937
-0.0008586527 0.10573411 0.274149
-0.00032420788 0.10573044 0.27413636
0.00024108498 0.10573334 0.27413017
0.00093795208 0.1057303 0.27408266
0.0015059769 0.10570747 0.27404439
0.0020762531 0.10568696 0.27398369
0.0026405063 0.10567312 0.27388984
0.0032050095 0.10565914 0.27379972
0.0037706343 0.10564836 0.2737146
0.0042322213 0.10563437 0.27366164
0.0046933992 0.10561385 0.27362871
0.0052095512 0.10559493 0.27360016
0.0056480798 0.10559271 0.27356583
0.0060605379 0.10558603 0.27353644
0.0065285214 0.10558696 0.27348864
0.0070013013 0.10558864 0.27344269
0.0074732625 0.10559114 0.27338955
0.0079762358 0.10559415 0.27332464
0.008477238 0.10558595 0.27325857
0.0090908753 0.10558091 0.27312639
0.0097203329 0.10557579 0.27300167
0.010245149 0.10555939 0.27292165
0.010835381 0.10554463 0.27283093
0.011471592 0.10552022 0.2727516
0.011991878 0.10550313 0.27269155
0.012574926 0.10549311 0.27262762
0.013131635 0.10548781 0.27257326
0.013664785 0.10547677 0.27252898
0.014168101 0.10546696 0.27248535
0.014681274 0.10546047 0.27243027
0.015154641 0.1054555 0.27237591
0.015633464 0.10543666 0.27232841
0.016112959 0.10542508 0.27227479
0.016477328 0.10540885 0.27224565
0.017130747 0.10538944 0.27214098
0.017802386 0.10536379 0.27200273
0.018588005 0.1053378 0.27185264
0.019274497 0.10533772 0.27170098
0.019898642 0.10531927 0.27161238
0.020502495 0.10531142 0.27151749
0.021184416 0.10529201 0.27145693
0.021728 0.10527492 0.27140686
0.022312034 0.10526896 0.27134448
0.022899611 0.10525976 0.27127305
0.023453683 0.1052445 0.27119598
0.024011491 0.10522228 0.27111721
0.02453351 0.10520177 0.27104264
0.025094394 0.10518835 0.2709583
0.025618678 0.10515516 0.27087751
0.02610909 0.1051145 0.27079484
0.026678924 0.10506608 0.27067488
0.027178496 0.10501872 0.27057552
0.027724037 0.10497171 0.27045381
0.028273962 0.10492639 0.27034843
0.028820572 0.10487446 0.27024928
0.029332686 0.10483258 0.27015874
0.029847598 0.10479355 0.27007583
0.030286586 0.10476753 0.27000883
0.030769557 0.10473101 0.26994419
0.031372745 0.1047034 0.26984993
0.032020967 0.10466914 0.26976162
0.032624632 0.10463584 0.26966989
0.033227496 0.10460509 0.26957893
0.033787921 0.10456277 0.2694999
0.034313187 0.10454128 0.26942638
0.037699487 0.10438966 0.26902589
0.038150169 0.10438418 0.26897591
0.03868518 0.10438158 0.2689386
0.039305247 0.10438446 0.26890367
0.039998326 0.10440257 0.2688736
0.04068597 0.10441653 0.26884654
0.04144359 0.10443052 0.2688272
0.04212033 0.10442668 0.268832
0.042677198 0.1044251 0.26881647
0.043266073 0.10442878 0.26880604
0.043853711 0.10443047 0.26878873
0.044326317 0.10442309 0.26877514
0.044872224 0.1044315 0.26875737
0.045446571 0.10443353 0.26874939
0.045968167 0.10443704 0.26875234
0.046555053 0.10445056 0.26876494
0.050101321 0.10448734 0.26868853
0.050634596 0.10445676 0.26865026
0.051105786 0.10445206 0.26862305
0.051528264 0.10442968 0.26857832
0.052081935 0.10441989 0.26851961
0.052488785 0.10439347 0.26844877
0.0530468 0.1043186 0.26835373
0.05350199 0.10430475 0.26833025
0.053991985 0.10429244 0.26831877
0.054450791 0.10429713 0.26830009
0.05494019 0.10428968 0.26830143
0.055496205 0.10428059 0.26832196
0.055988267 0.10427617 0.26834723
0.056379039 0.10427297 0.26836458
0.056769531 0.10425889 0.26838633
0.057286691 0.10423895 0.26840144
0.057825763 0.10421573 0.26839381
0.05847884 0.10418362 0.26837224
0.059143167 0.10415104 0.26834348
0.059712026 0.10412606 0.26829281
0.060190462 0.10412116 0.26822257
0.060530804 0.10412007 0.26811033
0.060974613 0.10409241 0.26804644
0.061879251 0.10407772 0.26796207
0.062894084 0.10389138 0.2680285
0.06408795 0.10366759 0.26809964
0.064747505 0.10355891 0.26807278
0.065415502 0.10345253 0.26797208
0.066017583 0.10335805 0.2678569
0.066650108 0.10322712 0.26771858
0.067215107 0.10311058 0.26761046
0.067823306 0.1030034 0.26750496
0.068280555 0.1029011 0.26745448
0.068588361 0.10286982 0.26742226
0.06879431 0.10282946 0.26739734
0.069006629 0.10280377 0.26736757
0.069242179 0.1027413 0.26735932
0.069461085 0.10268443 0.26736763
0.069849648 0.10266764 0.26739964
0.070065968 0.10265517 0.26741937
0.070211552 0.10260836 0.26741856
0.070287786 0.10260119 0.26741216
0.070447519 0.10254341 0.26739475
0.070506111 0.1024992 0.26734611
0.070664257 0.10240745 0.26733309
0.070811458 0.10238213 0.26729909
0.070949249 0.10235217 0.26727843
0.071078323 0.10234445 0.26724622
-0.17903125 0.1123414 0.2919223
-0.17883834 0.11224649 0.29195571
-0.17848442 0.11193991 0.29203194
-0.17811595 0.11161608 0.29220638
-0.17791978 0.11141206 0.29228082
-0.17770201 0.11131639 0.29231584
-0.17751737 0.1112324 0.29235137
-0.1773351 0.11114649 0.29237479
-0.17718297 0.11108398 0.2924495
-0.17708407 0.11104452 0.29249623
-0.17701134 0.11106703 0.29250649
-0.17694129 0.11107111 0.29255745
-0.1767664 0.11102862 0.29258943
-0.17604415 0.11092373 0.29252961
-0.17558064 0.1108349 0.29253775
-0.17479767 0.11063195 0.29248938
-0.1663494 0.10937259 0.29174513
-0.1664809 0.10936855 0.29193008
-0.16664901 0.10933891 0.29219249
-0.16677389 0.10936066 0.29232779
-0.16645226 0.10937586 0.29233003
-0.16587485 0.10936429 0.29227209
-0.16499653 0.10940583 0.29217491
-0.15814248 0.10949038 0.291504
-0.15754922 0.10949109 0.29147243
-0.15652047 0.10946298 0.29137734
-0.15529476 0.10935757 0.29127762
-0.15475439 0.10931222 0.29115671
-0.1545293 0.10930239 0.2910915
-0.15391545 0.10927353 0.29093814
-0.15256175 0.1091501 0.29059809
-0.15233104 0.10915086 0.2905612
-0.15217744 0.10914858 0.29055852
-0.15202819 0.10915189 0.29054955
-0.15142031 0.10912038 0.29040784
-0.14959435 0.10888817 0.29007232
-0.14743614 0.10879468 0.28966761
-0.14579695 0.10872057 0.28945833
-0.14480494 0.10870568 0.28930244
-0.14034492 0.10848767 0.28878316
-0.13978927 0.10846987 0.28871891
-0.13917032 0.10846508 0.2886382
-0.13859819 0.10848092 0.28859556
-0.13797398 0.10848723 0.28854591
-0.13763049 0.10849976 0.28853741
-0.13723509 0.10848113 0.28850916
-0.13701418 0.10847505 0.2884883
-0.13675067 0.10850392 0.28847912
-0.13623185 0.10849573 0.28845164
-0.13556193 0.10848542 0.28840703
-0.13477968 0.10846562 0.28839692
-0.13415226 0.10847901 0.28839248
-0.13384715 0.10850126 0.28839204
-0.13359329 0.10852613 0.28838572
-0.13328838 0.1085368 0.28838873
-0.13299151 0.10856475 0.28838283
-0.13262159 0.10858561 0.28835881
-0.13204305 0.10857961 0.28830513
-0.13139154 0.10856714 0.28822821
-0.13086462 0.10853997 0.28817561
-0.13051209 0.10854603 0.28814009
-0.13015622 0.10854965 0.28811514
-0.12968944 0.10854468 0.28806743
-0.12883542 0.10850403 0.28793758
-0.12772922 0.10836337 0.28779072
-0.12705906 0.10832373 0.28771433
-0.12646066 0.10830446 0.28763482
-0.12575637 0.10829446 0.28753525
-0.12498658 0.10829727 0.28743804
-0.12393767 0.10822219 0.28727099
-0.12249312 0.10811248 0.2870717
-0.12129472 0.1080528 0.2869468
-0.12035602 0.1079776 0.28684622
-0.11960933 0.10789767 0.28675881
-0.11916731 0.1078925 0.28673154
-0.11862247 0.10787063 0.28669801
-0.1179511 0.10785135 0.28666577
-0.11725391 0.10784209 0.28663185
-0.11645222 0.1078583 0.28657696
-0.11603939 0.10790398 0.28652784
-0.11577167 0.10788061 0.28649718
-0.11529031 0.10788601 0.28641766
-0.11477891 0.10784131 0.28634682
-0.1140659 0.10782911 0.28623414
-0.11370396 0.10783193 0.28618655
-0.11310442 0.10782371 0.28611192
-0.11274701 0.10783361 0.2860772
-0.11219243 0.10784211 0.28600925
-0.11155233 0.10790437 0.28592089
-0.11107836 0.10794757 0.28587976
-0.11055004 0.10794858 0.28585956
-0.10989324 0.10795227 0.28580734
-0.10921203 0.10794148 0.28575203
-0.10842416 0.10792743 0.28570685
-0.10778752 0.10795324 0.28566164
-0.10706588 0.10799226 0.28562936
-0.10646291 0.10800205 0.28560293
-0.10579242 0.10801549 0.28556654
-0.10500228 0.10802034 0.28550294
-0.10436572 0.10803379 0.28543952
-0.10370134 0.10803773 0.28536916
-0.10319231 0.10804038 0.28531823
-0.10255837 0.10805891 0.28523016
-0.10186887 0.10807671 0.28514057
-0.10110311 0.10806173 0.28506401
-0.10045917 0.10806222 0.28501001
-0.099957213 0.10808326 0.28495497
-0.099340282 0.10807567 0.28487507
-0.098929882 0.10807914 0.28482991
-0.098459885 0.10806523 0.28478175
-0.098144874 0.10803927 0.28476527
-0.097793646 0.10804943 0.28473255
-0.097362518 0.10806119 0.28471944
-0.096846469 0.10805626 0.28470477
-0.096331507 0.10807706 0.28469336
-0.095479317 0.10808273 0.28467137
-0.094607651 0.10811806 0.28465238
-0.093939766 0.10813617 0.28466061
-0.093304388 0.10815647 0.28467381
-0.092748031 0.10816528 0.28469631
-0.092074484 0.10816135 0.28470394
-0.091625199 0.10817808 0.28470308
-0.090978637 0.10820809 0.2846837
-0.090352818 0.10824679 0.28469083
-0.089728244 0.10826844 0.28468928
-0.089184545 0.10826572 0.28470215
-0.08863616 0.10826245 0.28469729
-0.088253833 0.1082451 0.28469583
-0.087762043 0.10824271 0.28466755
-0.08729957 0.10822802 0.28463483
-0.086780898 0.10821844 0.28460553
-0.086118497 0.10819758 0.28457275
-0.085494064 0.10819861 0.28454766
-0.085213259 0.10822388 0.28454041
-0.084684253 0.10824008 0.28453276
-0.084241666 0.10824545 0.28454578
-0.083739862 0.10826846 0.28452554
-0.083033763 0.1082984 0.28445736
-0.082297049 0.10828993 0.28438565
-0.081563033 0.10826829 0.28431433
-0.080888234 0.10824426 0.28426975
-0.080355093 0.108232 0.2842353
-0.079711922 0.10823081 0.28415975
-0.07920523 0.10822656 0.28407374
-0.078497864 0.1081846 0.28396136
-0.077830948 0.10815816 0.28379533
-0.077032365 0.10812707 0.28360584
-0.076270446 0.10809655 0.28345516
-0.07564678 0.10807173 0.28334957
-0.075157873 0.10804509 0.28328115
-0.074553087 0.10800077 0.28320557
-0.073940091 0.10796005 0.2831116
-0.07326439 0.10792723 0.28300932
-0.072724089 0.10789265 0.28291661
-0.072293714 0.10787073 0.28282556
-0.071775347 0.1078276 0.28271407
-0.071218587 0.10780168 0.2825774
-0.070651963 0.10775802 0.28244513
-0.069933422 0.10770591 0.28229412
-0.069272578 0.10765573 0.28217185
-0.068648703 0.10762362 0.28206605
-0.068094656 0.10759822 0.28198227
-0.06759619 0.10758171 0.28190249
-0.067279108 0.10756962 0.28185344
-0.06676235 0.10752293 0.28177229
-0.066266492 0.10746682 0.28171355
-0.065665938 0.10739318 0.28161243
-0.065154716 0.10733812 0.2815178
-0.064337485 0.10723103 0.28136349
-0.06344457 0.1071175 0.2811664
-0.062524818 0.10698494 0.28092277
-0.06145766 0.1069941 0.28056657
-0.060518377 0.10703581 0.28025076
-0.05947239 0.10705782 0.27994555
-0.058625162 0.10705724 0.27977613
-0.05778465 0.10706159 0.27966481
-0.056975834 0.10705487 0.27955714
-0.056091812 0.1070959 0.27945024
-0.055244856 0.1070395 0.27938974
-0.054460511 0.10693576 0.27932149
-0.053767856 0.1068221 0.27923918
-0.053315613 0.10670242 0.2791796
-0.052979361 0.10661101 0.27914774
-0.052670401 0.10648079 0.27913225
-0.052412607 0.10640728 0.27910975
-0.052167967 0.10637168 0.27910864
-0.051953666 0.10636424 0.2790994
-0.051771548 0.10644741 0.27906427
-0.051643394 0.10646848 0.27906504
-0.051429994 0.10649581 0.27909589
-0.051231794 0.10652328 0.27909383
-0.050941326 0.10654961 0.27909562
-0.050602056 0.10656077 0.2790556
-0.050276157 0.10654845 0.27904233
-0.050099999 0.10657086 0.27901375
-0.049794964 0.10661946 0.27901
-0.049471624 0.106644 0.27896491
-0.049049638 0.10663579 0.27889696
-0.048618361 0.10663565 0.27881825
-0.048037585 0.10658824 0.27873024
-0.04738066 0.10655927 0.2786822
-0.046802625 0.10655812 0.27869585
-0.046234563 0.10660173 0.27871767
-0.045659069 0.10664683 0.27873588
-0.045154974 0.10675327 0.27876231
-0.044621654 0.10685295 0.27877033
-0.043863818 0.1069178 0.27873012
-0.042951614 0.10692607 0.27861294
-0.042008985 0.10699964 0.27843428
-0.040853173 0.10712028 0.27817374
-0.039768789 0.10709856 0.27796099
-0.038953934 0.10705191 0.27781072
-0.038385164 0.10699923 0.27767909
-0.037677951 0.10692853 0.2774733
-0.03701831 0.10684564 0.2772752
-0.036361605 0.10677227 0.27711692
-0.035735629 0.10671522 0.27699196
-0.03521667 0.10666938 0.27688605
-0.03473039 0.10663155 0.27680248
-0.033998184 0.10653093 0.27663451
-0.033378921 0.10646933 0.27655193
-0.032730136 0.10641121 0.27647492
-0.031984907 0.1063464 0.27637786
-0.031441517 0.10628106 0.2763173
-0.030866982 0.10620679 0.276232
-0.030336076 0.10615299 0.27615124
-0.029741975 0.10608347 0.2760874
-0.029122651 0.10604428 0.27602118
-0.028539499 0.10600931 0.27598497
-0.027865475 0.10599198 0.27590695
-0.027212391 0.10596842 0.27580398
-0.026615543 0.1059641 0.2757611
-0.026081173 0.10597283 0.27571788
-0.025477776 0.10595649 0.2756733
-0.025006792 0.10595305 0.27564129
-0.024477793 0.10596507 0.27560624
-0.024023453 0.10598949 0.27557132
-0.023375358 0.10599408 0.27549276
-0.022971334 0.10600522 0.27544734
-0.022471622 0.10601743 0.2753813
-0.021853043 0.1060293 0.27526712
-0.02129587 0.10602996 0.27515453
-0.020917928 0.10602051 0.27510339
-0.020450328 0.10600732 0.27503479
-0.019950753 0.10597891 0.27498445
-0.019421212 0.10595296 0.27493441
-0.018770698 0.10594715 0.27486464
-0.018127549 0.10595483 0.27482659
-0.017490778 0.10599166 0.27481976
-0.017006861 0.10599538 0.27483943
-0.016436063 0.10601176 0.27482566
-0.015870521 0.1060074 0.27482051
-0.015252152 0.10599089 0.27483854
-0.014699762 0.10597419 0.27481779
-0.014257603 0.10596217 0.27479243
-0.013700248 0.10597639 0.27474377
-0.013146157 0.10598152 0.27469608
-0.012561897 0.10600907 0.27465025
-0.011976529 0.106027 0.27461448
-0.011363664 0.10603432 0.27461219
-0.010779371 0.10604808 0.27460465
-0.010137551 0.10607484 0.27458152
-0.0095504215 0.10609432 0.27455142
-0.0088787014 0.10611437 0.2745097
-0.0082151089 0.10605858 0.2744723
-0.0075417897 0.106026 0.27445528
-0.0069370796 0.10599709 0.27444535
-0.006262274 0.10596754 0.27445516
-0.005680603 0.10591861 0.27442744
-0.005205411 0.10587646 0.27437231
-0.004732315 0.10585855 0.27430838
-0.0042329407 0.10583796 0.27425459
-0.0037347937 0.10582264 0.27421042
-0.0032653774 0.10580693 0.27418184
-0.0027973333 0.10579134 0.27415767
-0.0023569621 0.1057745 0.27414295
-0.0018917526 0.10576136 0.27412501
-0.0013744486 0.10574209 0.27412778
-0.00086616678 0.10574216 0.27410376
-0.00032522428 0.10574732 0.27409211
0.00023483766 0.10575465 0.27405012
0.00093273184 0.10575013 0.27403459
0.0015573372 0.10572025 0.27401507
0.0021503784 0.10570195 0.27393922
0.0026642152 0.10568486 0.2738702
0.0032042079 0.10566894 0.27379215
0.0037438956 0.10565457 0.27371427
0.0042322213 0.10563438 0.2736617
0.0046936139 0.10562313 0.27361616
0.0051572742 0.10560474 0.2735886
0.0056220479 0.10559682 0.27356002
0.0060887188 0.10559746 0.27351627
0.006585435 0.1056047 0.27346396
0.0070042918 0.10559771 0.27343324
0.0075055687 0.10560188 0.27337238
0.0079799462 0.10560197 0.27331647
0.0085857213 0.10560499 0.27319941
0.0091495905 0.10560549 0.27308291
0.0097185392 0.10558518 0.27298567
0.010243308 0.10557102 0.27290648
0.010807713 0.10555115 0.27283138
0.011443552 0.1055298 0.27275103
0.011996959 0.10551358 0.27268597
0.012546503 0.10550565 0.27262536
0.013165318 0.10548706 0.27256879
0.013698833 0.10547588 0.27252421
0.014208034 0.1054714 0.27247518
0.014681076 0.10546335 0.27242813
0.015125165 0.10546086 0.2723729
0.015672414 0.10544499 0.27230889
0.016118512 0.10542596 0.27226743
0.01657139 0.10541126 0.27220774
0.017158184 0.10539299 0.27211207
0.017857214 0.10537204 0.27196884
0.01859691 0.10536553 0.27179003
0.019246034 0.10535015 0.27168319
0.019833835 0.10532819 0.27160212
0.020502362 0.10531304 0.27151629
0.021187128 0.10529496 0.27144727
0.021693723 0.10528608 0.27140322
0.022312036 0.10527312 0.27134445
0.022936542 0.10526272 0.27126426
0.023490651 0.10524903 0.27118585
0.024048537 0.10522677 0.27110696
0.024571063 0.10520473 0.27103379
0.025057429 0.10518365 0.27096322
0.025621178 0.10516216 0.27087352
0.026111774 0.10512043 0.27078769
0.026641844 0.1050747 0.27067438
0.027141092 0.10502715 0.27057403
0.027687896 0.10498061 0.27047142
0.028234007 0.10493626 0.2703568
0.028823601 0.10488486 0.27024686
0.029336233 0.10484401 0.27015871
0.029812574 0.10480592 0.27008352
0.030289011 0.10477022 0.27000919
0.030772444 0.1047317 0.26994506
0.031333871 0.10470442 0.269858
0.032022186 0.10466898 0.26976052
0.032586135 0.10464054 0.26967528
0.033227831 0.10460974 0.26957893
0.033790827 0.10457943 0.26950067
0.034274552 0.10454748 0.26943555
0.034877475 0.10452349 0.26935607
0.035440013 0.10449518 0.26928306
0.036002129 0.10446721 0.2692109
0.036524396 0.10444818 0.26914477
0.037090681 0.10441725 0.26908898
0.037700895 0.10439785 0.26902798
0.038191807 0.10438921 0.26898813
0.038726546 0.10439454 0.26894796
0.039385755 0.10439749 0.26890823
0.040034987 0.10441879 0.26887569
0.040760092 0.10443348 0.26885277
0.04139984 0.10444446 0.26883155
0.042036925 0.10444218 0.26882812
0.042632483 0.10443659 0.26882049
0.043186624 0.10443489 0.26880482
0.043774772 0.10443689 0.26878831
0.044318397 0.10444118 0.2687735
0.04490108 0.10444342 0.26875821
0.04543718 0.10444618 0.26875132
0.045992702 0.10445586 0.26875561
0.046514813 0.10445 0.26876476
0.047118835 0.10447267 0.26878449
0.047749419 0.10447777 0.26880041
0.048419673 0.10450764 0.26879334
0.049170803 0.10452122 0.2687631
0.049667817 0.10450846 0.26872158
0.050129727 0.10448847 0.26867881
0.050593797 0.10446116 0.26863748
0.051091168 0.10444561 0.26859704
0.051645935 0.10442432 0.26854503
0.051998336 0.10440782 0.26849774
0.052441094 0.10436799 0.26843968
0.052978247 0.10431805 0.26835516
0.053434461 0.10430601 0.2683315
0.053892821 0.10429968 0.2683152
0.054316193 0.10429039 0.26830217
0.054806504 0.10428236 0.26830173
0.055331208 0.10428134 0.26831332
0.055791616 0.10427761 0.26833647
0.056282949 0.1042798 0.26836184
0.056706551 0.10426389 0.26838675
0.057094168 0.10425194 0.2683931
0.057794828 0.10423438 0.26838955
0.058445279 0.10420366 0.26836267
0.059023712 0.10418076 0.26830965
0.059679605 0.10413926 0.2682876
0.060181271 0.10413697 0.26821703
0.060676921 0.10414541 0.26812306
0.061338298 0.10411968 0.26804119
0.062121578 0.1040399 0.26800233
0.062967792 0.10388819 0.26806179
0.064010546 0.10370123 0.26809451
0.064666465 0.10361271 0.26799068
0.065339848 0.10350408 0.26792488
0.066001266 0.10339964 0.26779735
0.066615745 0.10331418 0.26767144
0.067188956 0.10323513 0.26754016
0.067695081 0.10315941 0.2674388
0.068109483 0.10310175 0.26737618
0.068450786 0.10302579 0.2673572
0.068720296 0.10299968 0.26732782
0.068981007 0.10297865 0.26729676
0.069195174 0.10292725 0.26728639
0.069415458 0.10289273 0.26727638
0.069744043 0.10286541 0.26730174
0.069952451 0.10289817 0.26729867
0.070111081 0.10286651 0.26731077
0.070251346 0.1028279 0.26731256
0.070419684 0.1027643 0.26731476
0.070474178 0.10270227 0.26727706
0.070628613 0.10264243 0.26723543
0.07077416 0.1026208 0.26722068
0.070913047 0.10259582 0.26719892
0.071043223 0.10259265 0.26716566
0.071164288 0.10256505 0.26713824
-0.17907318 0.1128775 0.29177615
-0.17887293 0.11285482 0.29177982
-0.17869399 0.11265356 0.29183933
-0.1783724 0.11234958 0.29191375
-0.17797074 0.11188134 0.29212874
-0.17781328 0.11178287 0.29215989
-0.17762262 0.11164367 0.29221538
-0.17745864 0.1115805 0.29224589
-0.17731997 0.11154002 0.29227751
-0.17720978 0.1114876 0.29235479
-0.17716019 0.11151474 0.29237631
-0.1770751 0.11149921 0.29242247
-0.17694607 0.11143908 0.29247582
-0.17645779 0.11135805 0.29246545
-0.17571263 0.1112335 0.29242462
-0.15292338 0.10924637 0.29076958
-0.1527704 0.1092612 0.29076925
-0.15255308 0.1092701 0.29072762
-0.15215446 0.10923654 0.29062974
-0.13919455 0.10847461 0.2886419
-0.13866208 0.10847937 0.28860259
-0.13385518 0.10854483 0.28839743
-0.13361734 0.10857594 0.2884036
-0.13334638 0.10862109 0.28840247
-0.13291599 0.10863206 0.28838089
-0.13234684 0.10862358 0.28834152
-0.1316054 0.108596 0.28827086
-0.13098469 0.10858114 0.28819942
-0.13063076 0.10858899 0.28817844
-0.13027389 0.10858598 0.28815699
-0.12984613 0.1085901 0.28811604
-0.12021425 0.10797213 0.28682297
-0.11271195 0.10784368 0.28606889
-0.11222211 0.10785408 0.28600538
-0.11164439 0.10792893 0.28593323
-0.11114252 0.10795688 0.28589389
-0.1088843 0.10796534 0.28572005
-0.10812877 0.10794184 0.28568283
-0.1073807 0.10798907 0.28562737
-0.10651636 0.1080137 0.28560245
-0.10575579 0.10803921 0.28556421
-0.10497179 0.10801964 0.28550011
-0.10409665 0.10804047 0.28542155
-0.10331452 0.10806656 0.28533277
-0.10270794 0.10807718 0.28524297
-0.10234872 0.10809201 0.28519431
-0.10198686 0.10807911 0.285151
-0.10145343 0.10808749 0.28509283
-0.10077607 0.10808188 0.28503346
-0.10007262 0.10811023 0.2849564
-0.099423781 0.10810529 0.28487414
-0.098866545 0.10807744 0.28480691
-0.098457403 0.10806741 0.2847642
-0.098169051 0.10805385 0.28474489
-0.097765386 0.10805577 0.28472722
-0.097276211 0.10807007 0.28470892
-0.096756905 0.10806596 0.28468922
-0.096275531 0.10809538 0.28468123
-0.095563911 0.10809142 0.28466472
-0.094604924 0.10812312 0.28464857
-0.093940288 0.10814837 0.28464848
-0.093305059 0.10816931 0.28466287
-0.092749625 0.1081735 0.28469139
-0.092188783 0.10817926 0.28469732
-0.091630094 0.10820162 0.28468427
-0.090949424 0.1082322 0.28467909
-0.090409711 0.10825934 0.28468806
-0.089754745 0.10827439 0.28468615
-0.089181781 0.10827447 0.28469703
-0.0886347 0.10827567 0.28469199
-0.088283822 0.10826183 0.28468883
-0.087733015 0.10824729 0.28466526
-0.087183863 0.10824191 0.28462949
-0.086723462 0.10822188 0.2846089
-0.086004622 0.10821837 0.28456438
-0.085494883 0.10821936 0.28454679
-0.08521793 0.1082421 0.28454089
-0.084773108 0.10823927 0.28455672
-0.084274761 0.10826249 0.28454912
-0.083655693 0.10828277 0.28451648
-0.082951568 0.10831331 0.28445026
-0.082270607 0.10831553 0.28438437
-0.081564218 0.10829387 0.28432521
-0.080944322 0.10826033 0.2842817
-0.080355994 0.10825083 0.28423673
-0.079822809 0.10825954 0.28415987
-0.079205327 0.10823349 0.28407407
-0.078415811 0.10819329 0.28393716
-0.07766667 0.10817342 0.28374311
-0.076733194 0.1081385 0.28353301
-0.076000445 0.10811389 0.28339061
-0.075536638 0.10807834 0.28332627
-0.075045355 0.10804493 0.28326398
-0.074523039 0.10801125 0.28319383
-0.073968813 0.10797261 0.283117
-0.073405586 0.10794223 0.28302366
-0.072896764 0.10791889 0.28293201
-0.072411716 0.1078786 0.28284872
-0.071806967 0.10784402 0.28272077
-0.071218587 0.10780168 0.28257737
-0.070654482 0.10776948 0.28243944
-0.069933139 0.10771278 0.28229311
-0.069217086 0.10766868 0.28215161
-0.068444036 0.1076503 0.28200769
-0.06795375 0.10761721 0.28193185
-0.067545161 0.10759523 0.28187174
-0.067140818 0.10758017 0.28180012
-0.066705488 0.10752948 0.28175291
-0.066244535 0.10748604 0.28168684
-0.065694809 0.10742316 0.28159288
-0.065100156 0.1073417 0.28150278
-0.06425944 0.10725069 0.28131461
-0.063249044 0.10714096 0.28106293
-0.06210525 0.10712169 0.2807115
-0.061086282 0.10714886 0.28038627
-0.060287997 0.10720647 0.28012079
-0.059350777 0.10722257 0.27987355
-0.058504574 0.10726027 0.27969563
-0.057658449 0.10727473 0.27957943
-0.05678675 0.10734636 0.27945256
-0.05602245 0.10731369 0.27939376
-0.055259701 0.10728353 0.27932978
-0.054563913 0.10720585 0.27927256
-0.05383281 0.10715832 0.27916303
-0.053398203 0.10702036 0.27913538
-0.053073894 0.10692795 0.27910352
-0.052747577 0.10683595 0.27905992
-0.052481413 0.10675684 0.27903393
-0.052208278 0.10668568 0.2790308
-0.051960308 0.10664712 0.2790229
-0.051761266 0.10664226 0.27902013
-0.051589858 0.10665981 0.27899432
-0.051376183 0.1066927 0.27903375
-0.051142704 0.10672866 0.27901393
-0.050856635 0.106736 0.2789771
-0.050542865 0.1067642 0.2789439
-0.050224066 0.10679994 0.27894053
-0.050027043 0.10680211 0.27892604
-0.049765825 0.10684098 0.27890933
-0.049373727 0.10684346 0.27886394
-0.048958525 0.1068251 0.27881646
-0.048435237 0.10674024 0.27873603
-0.047877997 0.10671472 0.27867296
-0.047298491 0.10669099 0.27864
-0.046692003 0.10671817 0.27864817
-0.046100225 0.10675924 0.27866554
-0.045483548 0.10682663 0.27866313
-0.044892523 0.10690621 0.27865589
-0.044330534 0.10697983 0.27867445
-0.043575428 0.10704961 0.2785947
-0.042747598 0.10707405 0.27849659
-0.041714355 0.10713426 0.2783182
-0.040618952 0.10721993 0.27806342
-0.039527085 0.10713571 0.27782774
-0.038751602 0.10707024 0.27767059
-0.03809559 0.10699276 0.27753669
-0.037563946 0.10692967 0.27740309
-0.036848947 0.10683645 0.277219
-0.036186114 0.10677765 0.27707711
-0.035701603 0.10672877 0.2769776
-0.035211567 0.10668709 0.27689558
-0.034599785 0.10663031 0.27675641
-0.033864893 0.1065237 0.27660003
-0.033281188 0.10647716 0.27653298
-0.032569125 0.10641611 0.27642792
-0.031883266 0.10634548 0.27635697
-0.031165449 0.10625804 0.27626202
-0.030668771 0.10620257 0.2761856
-0.030171994 0.10615826 0.2761111
-0.029675525 0.10609603 0.27606586
-0.029057467 0.1060463 0.276007
-0.028505819 0.10602012 0.27595919
-0.027801102 0.10600575 0.27587044
-0.027149782 0.10597785 0.27578998
-0.026586363 0.10597418 0.27575931
-0.02611446 0.10597576 0.27572137
-0.025646504 0.10598728 0.27570188
-0.025111929 0.105983 0.27566618
-0.024547273 0.10598961 0.27562204
-0.024023117 0.10599567 0.27556854
-0.023345908 0.10600217 0.27548742
-0.022877157 0.10601319 0.27542904
-0.02240978 0.10602315 0.27536839
-0.021794131 0.10603627 0.2752417
-0.02129587 0.10602995 0.2751545
-0.020857103 0.10602783 0.27508503
-0.020419491 0.10600963 0.27502555
-0.019919753 0.10597967 0.27497572
-0.019328775 0.10596247 0.27491137
-0.018710159 0.10595474 0.27484983
-0.018067796 0.10598178 0.27481034
-0.017461384 0.10599596 0.27480558
-0.016915299 0.10601985 0.27479136
-0.016376898 0.10602223 0.27480176
-0.015841555 0.10601363 0.27481815
-0.015281467 0.10600878 0.274831
-0.014692259 0.10598045 0.27478951
-0.01419981 0.10596567 0.27477765
-0.013700248 0.10597639 0.27474374
-0.013059635 0.10599837 0.27467921
-0.012504412 0.10601898 0.27463683
-0.011947578 0.10603391 0.27461049
-0.011362964 0.10604743 0.27460226
-0.010750273 0.10605492 0.27460033
-0.01008081 0.10609543 0.27454832
-0.00946471 0.10611555 0.27451065
-0.0088485405 0.10611648 0.27450535
-0.0081833713 0.106089 0.27446252
-0.0075138109 0.10604301 0.27444607
-0.0069337301 0.10600763 0.27442807
-0.0063104779 0.1059774 0.27443203
-0.0056502898 0.10591946 0.27442142
-0.0051500206 0.10588473 0.2743603
-0.0047066482 0.10586434 0.27430236
-0.0042356122 0.10585138 0.27424756
-0.0037091034 0.10582838 0.27420449
-0.0032395364 0.10581076 0.27417511
-0.0027713424 0.10579487 0.27415016
-0.0023045042 0.10577985 0.27412742
-0.0018652666 0.10576341 0.27411762
-0.0013301052 0.10575217 0.27408332
-0.00083910086 0.10575138 0.27408156
-0.00029825166 0.1057607 0.27406925
0.0002614453 0.10575765 0.27404147
0.00088010821 0.10575688 0.27401564
0.00158217 0.10573083 0.27399305
0.0021475784 0.10571206 0.2739242
0.0026901332 0.10568739 0.27386022
0.0032555161 0.10567678 0.27377188
0.0037707929 0.10565647 0.27370706
0.0042589018 0.10563635 0.27365467
0.0046936139 0.10562311 0.27361619
0.0051835398 0.1056081 0.27358109
0.0056482689 0.10559984 0.27355134
0.0060887202 0.10559749 0.27351627
0.006585435 0.10560471 0.27346399
0.0070845247 0.10561088 0.27340841
0.007560045 0.10561185 0.27335635
0.0080863833 0.10561802 0.2732732
0.0086381929 0.10562231 0.27316204
0.0091727506 0.1056095 0.27306521
0.0096915569 0.10559313 0.27298567
0.010274384 0.10558125 0.27288958
0.010871918 0.10556334 0.2728121
0.011443375 0.10554472 0.27273965
0.011991701 0.10552342 0.2726801
0.01254636 0.10551027 0.27262369
0.013136422 0.10550123 0.27256599
0.013669661 0.10548998 0.27252087
0.014207715 0.10547733 0.2724717
0.014716001 0.10546211 0.27242255
0.015161028 0.10545817 0.27236855
0.01564284 0.10545012 0.27230543
0.016163126 0.10543782 0.27223334
0.016680846 0.105427 0.27215281
0.017295418 0.10542046 0.27201161
0.017960036 0.10540315 0.27187708
0.018603101 0.10538483 0.27176413
0.019212652 0.10536429 0.27165627
0.019912088 0.10533396 0.2715615
0.020511527 0.10531785 0.27149361
0.021116463 0.10530655 0.27143931
0.021657063 0.10529671 0.27139845
0.022311179 0.10528278 0.2713373
0.022862116 0.10526934 0.27127069
0.023453176 0.10525923 0.2711854
0.024011055 0.10523756 0.271108
0.024607733 0.10521847 0.27102062
0.025131948 0.1051886 0.27094373
0.025583796 0.10516254 0.27087533
0.026112143 0.10512019 0.27078193
0.026642332 0.10507467 0.27066895
0.027141999 0.1050275 0.27056938
0.027648741 0.1049909 0.27047509
0.028234957 0.10493923 0.27035305
0.028744578 0.10489618 0.27025887
0.029297344 0.10484633 0.27016452
0.029774034 0.10480857 0.2700901
0.030329451 0.10477496 0.26999784
0.030853232 0.10474365 0.26992306
0.031376898 0.10470753 0.26984757
0.03198237 0.10468799 0.26975089
0.032586921 0.10464833 0.26967192
0.033149578 0.10461685 0.26959103
0.033712421 0.10458644 0.2695125
0.03427536 0.10455671 0.26943582
0.034838147 0.10452751 0.26936039
0.035400521 0.1044988 0.26928636
0.035962507 0.1044706 0.26921362
0.036484722 0.10445169 0.26914778
0.037050571 0.1044282 0.26909325
0.03761993 0.10440881 0.26904356
0.038192436 0.10440137 0.26899523
0.038768217 0.10440038 0.26895139
0.039423108 0.10441825 0.26890984
0.040033285 0.10442787 0.26887706
0.040717375 0.104445 0.26884878
0.041356873 0.10445532 0.26882645
0.041919135 0.10445049 0.26881406
0.042477079 0.10444643 0.26880378
0.042989988 0.1044448 0.26880085
0.043617398 0.1044458 0.26878873
0.04424024 0.10444969 0.26877311
0.044859666 0.10444732 0.26875854
0.045431674 0.10445112 0.26875028
0.045951758 0.10446431 0.26875189
0.046439189 0.10445485 0.26876113
0.047045194 0.10447739 0.26878095
0.047738079 0.10450267 0.26880097
0.048380233 0.10451924 0.26878527
0.04902507 0.10451991 0.26875842
0.049561661 0.10451286 0.26872009
0.050055802 0.10448228 0.26868096
0.050586998 0.10446487 0.26862642
0.051015027 0.10444859 0.26858741
0.051471435 0.10442227 0.26854849
0.051928431 0.10440446 0.26850224
0.05237307 0.10437017 0.26843408
0.052915368 0.1043326 0.26835978
0.053400058 0.10430377 0.26833168
0.05379267 0.10430154 0.26831195
0.054249149 0.10429118 0.26830214
0.054708242 0.10428784 0.26829365
0.055265862 0.10428341 0.26830456
0.055758264 0.10428449 0.26832724
0.056217294 0.10428026 0.26835835
0.05654313 0.10427001 0.26837373
0.056997765 0.10425998 0.26839134
0.057607204 0.10425325 0.26838711
0.058325186 0.10422681 0.26835096
0.058933251 0.10419945 0.26830998
0.059563123 0.10418409 0.26824668
0.060177099 0.10414826 0.26821309
0.060809407 0.10414096 0.26812339
0.061499659 0.10412496 0.26803985
0.06219469 0.10402579 0.26802576
0.062960833 0.10389752 0.2680532
0.063791372 0.10379106 0.26804805
0.064562343 0.10366677 0.26797175
0.065211475 0.10358222 0.26786026
0.065918334 0.10350192 0.26769799
0.0665543 0.10343149 0.26759756
0.067110963 0.10337067 0.26748848
0.067601629 0.10330729 0.26738235
0.068028167 0.1032262 0.26732996
0.068383172 0.10316715 0.26729727
0.068676829 0.10314751 0.26726034
0.068938553 0.10313572 0.26722863
0.069147795 0.10311257 0.26721242
0.069347784 0.10308778 0.26720485
0.069667555 0.10310066 0.2672103
0.069939271 0.10305826 0.26723182
0.070095748 0.10307099 0.26723078
0.070191629 0.10301974 0.26724222
0.070310205 0.10296966 0.26723006
0.070427969 0.10291384 0.26719204
