# .PCD v0.7 - Point Cloud Data file format
VERSION 0.7
FIELDS x y z
SIZE 4 4 4
TYPE F F F
COUNT 1 1 1
WIDTH 1389
HEIGHT 1
VIEWPOINT 0 0 0 1 0 0 0
POINTS 1389
DATA ascii
0.14050882 0.0046926104 0.27925533
0.14097108 0.0046890345 0.27904254
0.14121665 0.004678309 0.27840427
0.14145961 0.0046675829 0.27776596
0.14175437 0.0046586446 0.27723405
0.14232001 0.0046586446 0.27723405
0.14310497 0.0046657952 0.27765957
0.14394671 0.0046747336 0.27819148
0.1446801 0.0046800966 0.27851063
0.014782757 0.0057836045 0.3069149
0.015387595 0.0057755853 0.30648935
0.015974022 0.0057615526 0.30574468
0.016557412 0.0057475194 0.30500001
0.017125776 0.0057294769 0.30404255
0.017696444 0.0057134391 0.30319148
0.018295771 0.0057074251 0.30287233
0.018960228 0.0057214582 0.30361703
0.019668888 0.0057475194 0.30500001
0.098648362 0.0056031798 0.29734042
0.098757863 0.0055751139 0.29585105
0.098861299 0.0055470481 0.29436171
0.09910243 0.0055270009 0.29329789
0.099556193 0.0055189817 0.29287234
0.10022651 0.0055229911 0.2930851
0.10100747 0.0055330149 0.29361701
0.10179061 0.0055430382 0.29414892
0.14013411 0.005248345 0.27851063
0.14075612 0.0052503501 0.27861702
0.14110872 0.005242331 0.27819148
0.14135127 0.0052303029 0.2775532
0.14164558 0.0052202796 0.27702129
0.14215617 0.0052182744 0.27691489
0.14283082 0.0052222838 0.27712765
0.14356139 0.0052282983 0.27744681
0.14418274 0.0052303029 0.2775532
0.01477251 0.0064053633 0.30670214
0.015382254 0.0063986978 0.30638298
0.015968464 0.0063831452 0.30563828
0.016557412 0.0063698147 0.30500001
0.01713177 0.0063520409 0.30414894
0.017708862 0.0063364878 0.30340424
0.018295771 0.006325379 0.30287233
0.018933654 0.0063320445 0.30319148
0.098330714 0.0061898516 0.29638299
0.098544799 0.0061654123 0.29521278
0.098718375 0.0061387504 0.29393616
0.099030532 0.0061209765 0.2930851
0.099592365 0.0061187549 0.29297873
0.10029927 0.0061254203 0.29329789
0.10108067 0.0061365291 0.2938298
0.10186425 0.006147638 0.29436171
0.10257593 0.0061543034 0.29468086
0.13986647 0.005805485 0.27797872
0.14048739 0.0058077071 0.27808511
0.14089288 0.0058010416 0.27776596
0.14118873 0.0057899328 0.27723405
0.1414824 0.005778824 0.27670214
0.14193772 0.0057743802 0.27648935
0.14255668 0.0057766023 0.27659574
0.14312102 0.0057766023 0.27659574
0.14368536 0.0057766023 0.27659574
0.014741765 0.0070164986 0.30606383
0.015350208 0.0070091817 0.30574468
0.015935116 0.0069921101 0.30500001
0.016528536 0.0069799162 0.3044681
0.017119786 0.006967722 0.30393618
0.017708862 0.0069555272 0.30340424
0.018302197 0.0069457726 0.30297872
0.098048359 0.0067750551 0.29553193
0.098438263 0.0067604217 0.29489362
0.098611191 0.0067311558 0.29361701
0.098958641 0.0067140842 0.29287234
0.099556193 0.0067140842 0.29287234
0.10026289 0.0067214007 0.29319149
0.10108067 0.0067360336 0.2938298
0.10182743 0.0067457887 0.29425532
0.1025389 0.0067531052 0.29457447
0.13897945 0.0063580154 0.27734041
0.13959885 0.0063604545 0.27744681
0.14016493 0.0063604545 0.27744681
0.14056912 0.006353138 0.27712765
0.14091784 0.0063433829 0.27670214
0.14121042 0.0063311891 0.27617022
0.14166465 0.0063263108 0.27595744
0.14222769 0.0063263108 0.27595744
0.14273569 0.0063238721 0.27585107
0.14307746 0.0063141165 0.27542552
0.014705898 0.0076223733 0.30531916
0.01530748 0.0076117492 0.30489361
0.015885092 0.0075905025 0.30404255
0.016482335 0.0075798794 0.30361703
0.017077839 0.0075692553 0.30319148
0.017677816 0.0075612874 0.30287233
0.018282918 0.007555976 0.30265957
0.098118946 0.0073833442 0.29574469
0.098438263 0.007362097 0.29489362
0.098575465 0.0073275706 0.29351065
0.098850802 0.0073036673 0.29255319
0.099375382 0.0072983559 0.29234043
0.10011736 0.0073089791 0.29276595
0.10093428 0.0073249144 0.29340425
0.1017538 0.0073408498 0.29404256
0.10250186 0.007351473 0.29446808
0.1387129 0.006910597 0.2768085
0.13933121 0.0069132536 0.27691489
0.13978872 0.0069079418 0.27670214
0.14024535 0.0069026295 0.27648935
0.14053857 0.0068893502 0.27595744
0.14088404 0.0068787271 0.27553192
0.14133699 0.0068734153 0.27531916
0.14178906 0.0068681031 0.27510637
0.14218524 0.0068601361 0.27478725
0.14252482 0.006849512 0.2743617
0.14291817 0.0068415445 0.27404255
0.014659781 0.0082194628 0.3043617
0.015254069 0.0082050981 0.30382979
0.015829511 0.0081821149 0.30297872
0.016418807 0.0081677502 0.30244681
0.01702391 0.0081620049 0.30223405
0.017628141 0.0081562586 0.30202127
0.018237934 0.0081533855 0.3019149
0.098154232 0.0079896282 0.29585105
0.098438263 0.0079637719 0.29489362
0.098468281 0.0079178056 0.29319149
0.098671079 0.007886203 0.29202127
0.099158399 0.0078775836 0.29170212
0.099899091 0.0078890761 0.29212767
0.10082449 0.0079149315 0.2930851
0.10179061 0.007943661 0.29414892
0.10257593 0.0079580266 0.29468086
0.13809504 0.0074725007 0.27670214
0.13860628 0.0074696275 0.27659574
0.13911709 0.0074667539 0.27648935
0.13957374 0.0074610086 0.27627659
0.13997553 0.0074523897 0.27595744
0.14032187 0.0074408981 0.27553192
0.14066646 0.007429406 0.27510637
0.14100932 0.0074179149 0.27468085
0.14135042 0.0074064224 0.27425531
0.14163476 0.0073920581 0.27372339
0.14202745 0.0073834392 0.27340424
0.14264075 0.0073863124 0.27351063
0.14353301 0.0074035502 0.27414894
0.014613665 0.0088126455 0.30340424
0.015205999 0.0087971957 0.30287233
0.015773932 0.0087693864 0.3019149
0.016361056 0.0087539367 0.30138299
0.016957995 0.0087446664 0.30106384
0.01757226 0.0087446664 0.30106384
0.018186523 0.0087446664 0.30106384
0.098013058 0.008580897 0.29542553
0.09829621 0.0085530868 0.29446808
0.098325357 0.0085036466 0.29276595
0.098527297 0.008469658 0.29159576
0.098977588 0.0084572975 0.29117021
0.099717192 0.008469658 0.29159576
0.1007147 0.0085036466 0.29276595
0.10179061 0.0085438164 0.29414892
0.10264999 0.0085654473 0.29489362
0.13733453 0.0080586886 0.27744681
0.13774198 0.0080494191 0.27712765
0.13814813 0.0080401488 0.2768085
0.13860628 0.0080339694 0.27659574
0.13911709 0.0080308784 0.27648935
0.13952 0.0080216099 0.27617022
0.13992159 0.0080123395 0.27585107
0.14026769 0.007999979 0.27542552
0.14061207 0.0079876194 0.27500001
0.14084548 0.0079690795 0.2743617
0.14096662 0.0079443594 0.27351063
0.14119439 0.0079258196 0.27287233
0.1416406 0.0079196393 0.27265957
0.14247432 0.0079350891 0.27319148
0.14358869 0.0079659894 0.27425531
0.14470741 0.0079968898 0.27531916
0.1455498 0.0080123395 0.27585107
0.14594358 0.0080030691 0.27553192
0.014577797 0.0094085364 0.30265957
0.015168612 0.0093920007 0.30212766
0.015729466 0.0093589313 0.30106384
0.016303303 0.0093357814 0.30031914
0.016910058 0.0093324743 0.30021277
0.017535003 0.0093390886 0.30042553
0.018154392 0.0093423957 0.30053192
0.097660117 0.009150587 0.29436171
0.09801212 0.0091274371 0.29361701
0.098182447 0.0090877535 0.29234043
0.098419458 0.0090546831 0.2912766
0.0988691 0.0090414546 0.29085106
0.099571668 0.009051376 0.29117021
0.10053171 0.0090844464 0.29223403
0.10160654 0.0091274371 0.29361701
0.10250186 0.0091538941 0.29446808
0.13641128 0.0086379955 0.27787235
0.13692579 0.0086346883 0.27776596
0.1373872 0.008628075 0.2775532
0.13784772 0.0086214598 0.27734041
0.13825431 0.0086115394 0.27702129
0.1387129 0.0086049251 0.2768085
0.13917063 0.0085983109 0.27659574
0.13962749 0.0085916966 0.27638298
0.1400295 0.0085817762 0.27606383
0.14032187 0.0085652405 0.27553192
0.14061207 0.0085487058 0.27500001
0.14079085 0.008525556 0.27425531
0.14085697 0.0084957927 0.27329788
0.14097421 0.0084693367 0.27244681
0.14147481 0.0084660286 0.27234042
0.14241885 0.0084891785 0.27308512
0.14370009 0.0085321702 0.27446809
0.14487515 0.0085685477 0.27563831
0.14560594 0.0085784681 0.27595744
0.14594358 0.0085652405 0.27553192
0.14627948 0.008552012 0.27510637
0.14678401 0.0085487058 0.27500001
0.014577797 0.010026056 0.30265957
0.015147248 0.0099943401 0.30170214
0.015696118 0.0099520506 0.30042553
0.016268654 0.0099273818 0.29968086
0.016880095 0.0099273818 0.29968086
0.017522585 0.0099450024 0.30021277
0.018154392 0.0099555748 0.30053192
0.097236581 0.0097088879 0.2930851
0.097692519 0.0096947914 0.29265958
0.09803953 0.0096701225 0.29191488
0.098383509 0.0096454537 0.29117021
0.098832943 0.0096313581 0.29074469
0.09942615 0.0096313581 0.29074469
0.10027554 0.009656026 0.29148936
0.10123841 0.0096912673 0.29255319
0.10205749 0.009712412 0.29319149
0.13651572 0.0092119901 0.27808511
0.13708311 0.0092119901 0.27808511
0.13754517 0.0092049427 0.27787235
0.13800636 0.0091978936 0.27765957
0.13841359 0.0091873212 0.27734041
0.13892615 0.0091837971 0.27723405
0.13933121 0.0091732247 0.27691489
0.13973497 0.0091626523 0.27659574
0.14008348 0.0091485567 0.27617022
0.14037606 0.0091309361 0.27563831
0.14061207 0.0091097914 0.27500001
0.14079085 0.0090851225 0.27425531
0.14085697 0.0090534054 0.27329788
0.14102925 0.0090287374 0.27255321
0.14158535 0.0090287374 0.27255321
0.1425298 0.0090534054 0.27329788
0.14381148 0.009099219 0.27468085
0.14493106 0.0091344602 0.27574468
0.14566207 0.0091450326 0.27606383
0.14605628 0.0091344602 0.27574468
0.14633605 0.0091168396 0.27521276
0.14689757 0.0091168396 0.27521276
0.14757308 0.0091238869 0.27542552
0.014019161 0.010688471 0.30393618
0.014582922 0.010647318 0.30276597
0.015131225 0.010598683 0.30138299
0.015673885 0.010550048 0.30000001
0.016251327 0.010527601 0.29936171
0.016874103 0.010535083 0.29957446
0.017528793 0.010561271 0.30031914
0.01817367 0.010579977 0.30085108
0.096848339 0.01026572 0.29191488
0.097408429 0.010261979 0.29180852
0.097860888 0.010247014 0.29138297
0.098275669 0.010228309 0.29085106
0.098724455 0.010213344 0.29042554
0.099244252 0.010205862 0.29021278
0.099946164 0.010217085 0.2905319
0.10075983 0.010239532 0.29117021
0.13615637 0.0097943349 0.27851063
0.13672462 0.0097943349 0.27851063
0.13724044 0.0097905947 0.27840427
0.1377558 0.0097868526 0.27829787
0.13821787 0.0097793704 0.27808511
0.13873215 0.0097756293 0.27797872
0.1391927 0.009768147 0.27776596
0.13954531 0.0097531816 0.27734041
0.13984245 0.009734476 0.2768085
0.14008348 0.0097120302 0.27617022
0.14032187 0.0096895834 0.27553192
0.14055766 0.0096671358 0.27489361
0.14073625 0.0096409479 0.27414894
0.14091179 0.0096147591 0.27340424
0.14119439 0.0095960535 0.27287233
0.14180639 0.0095997956 0.27297872
0.14275172 0.0096259834 0.27372339
0.14386719 0.0096633956 0.27478725
0.14493106 0.0096970648 0.27574468
0.14566207 0.0097082891 0.27606383
0.14616898 0.009704547 0.27595744
0.14656232 0.0096933246 0.27563831
0.14706792 0.0096895834 0.27553192
0.14768711 0.0096933246 0.27563831
0.014024068 0.011312554 0.30404255
0.014577797 0.011261096 0.30265957
0.01510986 0.011197765 0.30095744
0.015657211 0.011150267 0.29968086
0.016239777 0.011130476 0.29914895
0.016868111 0.01114235 0.29946807
0.017535003 0.011177975 0.30042553
0.018180097 0.011197765 0.30095744
0.096565977 0.010829652 0.29106382
0.097124331 0.010825695 0.29095745
0.097682245 0.010821735 0.29085106
0.098167837 0.010809861 0.2905319
0.098615967 0.010794029 0.29010639
0.099098727 0.010782153 0.28978723
0.099653386 0.010778195 0.28968084
0.10035487 0.01079007 0.28999999
0.13688129 0.010374459 0.27882978
0.13750264 0.010378417 0.27893618
0.1380191 0.010374459 0.27882978
0.138588 0.010374459 0.27882978
0.13915689 0.010374459 0.27882978
0.13956587 0.010362583 0.27851063
0.13986647 0.010342793 0.27797872
0.14000368 0.010311127 0.27712765
0.14008348 0.010275504 0.27617022
0.14026769 0.010247796 0.27542552
0.14044888 0.010220089 0.27468085
0.14068164 0.010196339 0.27404255
0.14096662 0.010176548 0.27351063
0.14130449 0.010160716 0.27308512
0.14197218 0.010168632 0.27329788
0.14286269 0.010192381 0.27393618
0.14392288 0.010228004 0.27489361
0.14493106 0.01025967 0.27574468
0.14577433 0.010279462 0.27627659
0.14639437 0.01028342 0.27638298
0.14690171 0.010279462 0.27627659
0.14729504 0.010267586 0.27595744
0.1478011 0.010263629 0.27585107
0.01400444 0.011916194 0.30361703
0.014547053 0.011853565 0.30202127
0.015077814 0.011786761 0.30031914
0.015634978 0.011745009 0.29925531
0.016222453 0.011728308 0.29882979
0.016862119 0.011749184 0.29936171
0.017522585 0.011782586 0.30021277
0.018167244 0.011803462 0.30074468
0.09638951 0.011402637 0.2905319
0.096982285 0.011402637 0.2905319
0.097539335 0.011398463 0.29042554
0.098024055 0.011385936 0.29010639
0.098471306 0.011369235 0.28968084
0.098953217 0.01135671 0.28936172
0.09943381 0.011344184 0.28904256
0.10002355 0.011344184 0.28904256
0.13765997 0.01096006 0.27925533
0.13833505 0.01096841 0.27946809
0.13901101 0.010976761 0.27968085
0.13963474 0.010980936 0.27978724
0.14004566 0.01096841 0.27946809
0.14024118 0.010939184 0.27872342
0.14016493 0.01088908 0.27744681
0.14013742 0.010843152 0.27627659
0.14021352 0.010805575 0.27531916
0.14039448 0.010776347 0.27457446
0.14068164 0.010755472 0.27404255
0.14096662 0.010734595 0.27351063
0.14141458 0.010726245 0.27329788
0.14202745 0.010730419 0.27340424
0.14286269 0.010751297 0.27393618
0.14392288 0.010788874 0.27489361
0.14498699 0.010826452 0.27585107
0.14594273 0.010855678 0.27659574
0.14667612 0.010868204 0.27691489
0.14718454 0.010864028 0.2768085
0.14757897 0.010851502 0.27648935
0.01394065 0.012478569 0.30223405
0.014495813 0.012425859 0.30095744
0.015045768 0.012373152 0.29968086
0.015612746 0.012338014 0.29882979
0.016210902 0.012329229 0.29861704
0.01683815 0.012342406 0.29893616
0.017491538 0.012373152 0.29968086
0.096911259 0.011986628 0.29031914
0.097467877 0.011982237 0.29021278
0.097952165 0.01196906 0.28989363
0.098362826 0.011947098 0.28936172
0.098807693 0.011929528 0.28893617
0.099287421 0.011916352 0.28861701
0.099839479 0.011911959 0.28851065
0.13865101 0.011564966 0.2801064
0.13943401 0.011582536 0.28053191
0.14005949 0.011586928 0.28063831
0.14041883 0.011569358 0.28021276
0.14050882 0.011529828 0.27925533
0.14032616 0.011468335 0.27776596
0.14013742 0.011406843 0.27627659
0.14015934 0.01136292 0.27521276
0.14039448 0.011336565 0.27457446
0.14073625 0.011318997 0.27414894
0.14107628 0.011301427 0.27372339
0.14141458 0.011283858 0.27329788
0.14197218 0.011283858 0.27329788
0.14275172 0.011301427 0.27372339
0.14386719 0.011345351 0.27478725
0.14493106 0.011384881 0.27574468
0.14599887 0.011424412 0.27670214
0.14684516 0.011446374 0.27723405
0.013862139 0.01302147 0.30053192
0.014449698 0.012998424 0.30000001
0.015024403 0.012966157 0.29925531
0.015607187 0.01294311 0.2987234
0.016205126 0.012933892 0.29851064
0.016826166 0.01294311 0.2987234
0.017454281 0.012956939 0.29904255
0.096911259 0.01257897 0.29031914
0.097432151 0.012569752 0.29010639
0.097880267 0.012551313 0.28968084
0.098254338 0.012523659 0.28904256
0.098662175 0.012500611 0.28851065
0.099141039 0.012486783 0.2881915
0.099655405 0.012477564 0.28797871
0.14021876 0.012173346 0.28095746
0.14041883 0.01214108 0.28021276
0.14045528 0.012094987 0.27914894
0.14021868 0.012025846 0.2775532
0.14008348 0.011965925 0.27617022
0.14005098 0.011915221 0.27500001
0.14034009 0.011892174 0.27446809
0.14068164 0.011873736 0.27404255
0.14102146 0.0118553 0.27361703
0.14135952 0.011836861 0.27319148
0.14180639 0.011827643 0.27297872
0.14258528 0.011846079 0.27340424
0.14358869 0.011882955 0.27425531
0.14470741 0.011929049 0.27531916
0.013817975 0.01359121 0.29957446
0.014424076 0.013586384 0.29946807
0.015019063 0.013571906 0.29914895
0.015612746 0.013557427 0.29882979
0.016216677 0.0135526 0.2987234
0.016832158 0.013557427 0.29882979
0.017448073 0.013562252 0.29893616
0.096911259 0.013171311 0.29031914
0.097396418 0.013156832 0.28999999
0.097808376 0.013132701 0.28946808
0.098182008 0.013103741 0.28882977
0.098553039 0.013074784 0.2881915
0.098994642 0.013055477 0.28776595
0.099544965 0.013050652 0.28765959
0.14009896 0.012683842 0.27957445
0.1400806 0.012630753 0.27840427
0.1398962 0.012563183 0.27691489
0.13981366 0.012505266 0.27563831
0.13988845 0.012461828 0.27468085
0.1401225 0.012432869 0.27404255
0.1405178 0.012418389 0.27372339
0.14091179 0.01240391 0.27340424
0.14124943 0.012384605 0.27297872
0.1416406 0.012370125 0.27265957
0.14236335 0.012384605 0.27297872
0.1433102 0.012418389 0.27372339
0.013803255 0.014187305 0.29925531
0.014413829 0.014187305 0.29925531
0.015013721 0.014177219 0.29904255
0.015623862 0.014177219 0.29904255
0.016239777 0.014182263 0.29914895
0.016868111 0.014197392 0.29946807
0.017503956 0.014217567 0.29989362
0.09684024 0.013753567 0.29010639
0.09732496 0.013738437 0.28978723
0.097700536 0.013708175 0.28914893
0.098073527 0.013677916 0.28851065
0.098480269 0.013652696 0.28797871
0.098921455 0.013632523 0.28755319
0.099471331 0.013627479 0.2874468
0.13943826 0.013138262 0.27712765
0.13952 0.013092872 0.27617022
0.13954385 0.013042436 0.27510637
0.13961755 0.012997045 0.27414894
0.13985053 0.012966784 0.27351063
0.14024474 0.012951653 0.27319148
0.14069247 0.012941566 0.27297872
0.14113934 0.01293148 0.27276596
0.14158535 0.012921394 0.27255321
0.14219692 0.012926436 0.27265957
0.013803255 0.01479788 0.29925531
0.014413829 0.01479788 0.29925531
0.015013721 0.014787359 0.29904255
0.015634978 0.01479788 0.29925531
0.016268654 0.014818923 0.29968086
0.016916048 0.014850485 0.30031914
0.01757226 0.01488731 0.30106384
0.096698187 0.014324431 0.28968084
0.09718205 0.014308651 0.28936172
0.097556762 0.014277088 0.28872341
0.097965032 0.014250785 0.2881915
0.098407514 0.014229743 0.28776595
0.098921455 0.014219222 0.28755319
0.099471331 0.014213961 0.2874468
0.13884945 0.013645823 0.27595744
0.13919753 0.013624782 0.27553192
0.139328 0.013582697 0.27468085
0.13945502 0.013540613 0.27382979
0.13963296 0.01350379 0.27308512
0.14002629 0.013488008 0.27276596
0.14052798 0.013482747 0.27265957
0.1410843 0.013482747 0.27265957
0.1416406 0.013482747 0.27265957
0.14214145 0.013477487 0.27255321
0.013803255 0.015408454 0.29925531
0.014408706 0.015402977 0.29914895
0.01500838 0.015392021 0.29893616
0.015634978 0.015408454 0.29925531
0.016285978 0.015446799 0.30000001
0.016963987 0.015507051 0.3011702
0.017640561 0.015561827 0.30223405
0.018289344 0.015589216 0.30276597
0.096627168 0.014904517 0.28946808
0.0970034 0.01487165 0.28882977
0.097377032 0.014838786 0.2881915
0.097820379 0.014816875 0.28776595
0.098371141 0.014811398 0.28765959
0.098958053 0.014811398 0.28765959
0.099544965 0.014811398 0.28765959
0.1390363 0.01417052 0.27521276
0.13922009 0.014132177 0.27446809
0.13934666 0.014088357 0.27361703
0.13952415 0.014050012 0.27287233
0.13991708 0.014033581 0.27255321
0.14047316 0.014033581 0.27255321
0.14102925 0.014033581 0.27255321
0.14158535 0.014033581 0.27255321
0.14214145 0.014033581 0.27255321
0.013798349 0.016013335 0.29914895
0.014403581 0.016007639 0.29904255
0.01500304 0.015996251 0.29882979
0.015634978 0.01601903 0.29925531
0.016297529 0.01607028 0.30021277
0.016993949 0.016150007 0.30170214
0.017684026 0.016218342 0.30297872
0.018340755 0.01625251 0.30361703
0.096354216 0.015546374 0.29042554
0.096556149 0.015483732 0.28925532
0.096789032 0.015426787 0.2881915
0.09716136 0.015392618 0.28755319
0.097675733 0.015381229 0.28734043
0.098334752 0.015392618 0.28755319
0.098958053 0.015398313 0.28765959
0.099544965 0.015398313 0.28765959
0.13882132 0.014709262 0.27478725
0.1390582 0.014675094 0.27414894
0.1392383 0.01463523 0.27340424
0.13946976 0.014601064 0.27276596
0.13986245 0.01458398 0.27244681
0.1403635 0.014578284 0.27234042
0.14091915 0.014578284 0.27234042
0.14147481 0.014578284 0.27234042
0.14203048 0.014578284 0.27234042
0.013788533 0.016611869 0.29893616
0.014393333 0.016605956 0.29882979
0.01500304 0.016605956 0.29882979
0.01562942 0.016623693 0.29914895
0.016285978 0.016670985 0.30000001
0.016975971 0.016747838 0.30138299
0.017671607 0.016824691 0.30276597
0.096460104 0.016156668 0.29074469
0.096556149 0.016073905 0.28925532
0.096681848 0.015997052 0.28787234
0.097017579 0.015955672 0.28712767
0.097531073 0.015943846 0.28691489
0.098189242 0.015955672 0.28712767
0.098811656 0.015961582 0.28723404
0.099397704 0.015961582 0.28723404
0.13889632 0.015216708 0.27382979
0.13907577 0.015175327 0.27308512
0.13936098 0.015145768 0.27255321
0.13969861 0.01512212 0.27212766
0.14019901 0.015116208 0.27202126
0.14075401 0.015116208 0.27202126
0.14130902 0.015116208 0.27202126
0.14180855 0.015110298 0.2719149
0.013164542 0.017203405 0.29861704
0.013773814 0.017203405 0.29861704
0.014388209 0.017209534 0.2987234
0.014992358 0.017203405 0.29861704
0.015607187 0.017209534 0.2987234
0.016251327 0.017246306 0.29936171
0.016916048 0.017301464 0.30031914
0.017590888 0.017362753 0.30138299
0.09611243 0.01679278 0.29148936
0.096424803 0.016743749 0.2906383
0.096485123 0.016651819 0.28904256
0.096538924 0.016559886 0.2874468
0.096837841 0.016510855 0.28659573
0.097314104 0.016492471 0.28627661
0.0978982 0.016492471 0.28627661
0.098482296 0.016492471 0.28627661
0.098955944 0.016474085 0.28595746
0.13862652 0.015744762 0.27329788
0.13896741 0.015720246 0.27287233
0.13925217 0.015689604 0.27234042
0.13958938 0.01566509 0.2719149
0.14008935 0.01565896 0.27180851
0.14064392 0.01565896 0.27180851
0.1411985 0.01565896 0.27180851
0.14180855 0.01566509 0.2719149
0.14236335 0.01566509 0.2719149
-0.11073181 0.018999344 0.31851065
-0.11019224 0.01901838 0.31882977
0.013145781 0.017787294 0.29819149
0.013759092 0.01779364 0.29829788
0.014367714 0.01779364 0.29829788
0.014976335 0.01779364 0.29829788
0.015573838 0.017780948 0.29808509
0.016193576 0.01779364 0.29829788
0.01683815 0.017831715 0.29893616
0.095099382 0.017311359 0.29021278
0.095796734 0.017330395 0.2905319
0.096213035 0.017298667 0.28999999
0.096343078 0.017216172 0.28861701
0.096431747 0.017127331 0.28712767
0.09669406 0.017070219 0.28617021
0.097097129 0.017038489 0.2856383
0.097607158 0.017025799 0.28542554
0.098116316 0.017013105 0.28521276
0.098624617 0.017000414 0.285
0.099095009 0.016981376 0.28468084
0.13846463 0.016283339 0.27297872
0.13885905 0.016264301 0.27265957
0.13919778 0.016238919 0.27223405
0.13958938 0.01621988 0.2719149
0.14008935 0.016213534 0.27180851
0.14058888 0.016207188 0.27170214
0.1411985 0.016213534 0.27180851
0.14180855 0.01621988 0.2719149
0.14241904 0.016226225 0.27202126
-0.11065783 0.019636078 0.31829786
-0.11015548 0.01966233 0.31872341
0.013127022 0.018369447 0.29776597
0.013734558 0.018369447 0.29776597
0.014342094 0.018369447 0.29776597
0.014938946 0.01835632 0.29755318
0.015534932 0.018343195 0.29734042
0.016141599 0.018343195 0.29734042
0.016766243 0.018362883 0.29765958
0.093710452 0.017752538 0.28776595
0.094541617 0.017798478 0.28851065
0.095340721 0.017837854 0.28914893
0.095824793 0.017818166 0.28882977
0.096129999 0.017765662 0.28797871
0.096324563 0.017693473 0.28680852
0.096550271 0.017627843 0.28574467
0.096880145 0.017581902 0.285
0.097388878 0.017568778 0.28478724
0.09789674 0.017555652 0.28457448
0.098477364 0.017555652 0.28457448
0.098983914 0.017542526 0.28436169
0.099452369 0.017522838 0.28404257
0.13846463 0.0168403 0.27297872
0.13891323 0.016827175 0.27276596
0.13930658 0.016807485 0.27244681
0.139644 0.016781233 0.27202126
0.14008935 0.016768109 0.27180851
0.14058888 0.016761547 0.27170214
0.14125377 0.016774671 0.2719149
0.14191951 0.016787797 0.27212766
0.14258613 0.016800921 0.27234042
-0.11069482 0.020292286 0.31840426
-0.11019224 0.020319404 0.31882977
0.013103572 0.018943083 0.29723403
0.013705116 0.018936303 0.29712766
0.014306225 0.018929522 0.29702127
0.014896218 0.018909182 0.29670212
0.015490467 0.018895622 0.29648936
0.016095398 0.018895622 0.29648936
0.092813484 0.018278651 0.28680852
0.093364015 0.018271871 0.28670213
0.094088428 0.018298991 0.28712767
0.094814561 0.018326111 0.28755319
0.095471852 0.018339669 0.28776595
0.095881425 0.018305771 0.28723404
0.096181639 0.018251531 0.28638297
0.096478388 0.018197291 0.28553191
0.09684398 0.018156612 0.2848936
0.097316124 0.018136274 0.28457448
0.097860143 0.018129492 0.28446808
0.098403729 0.018122712 0.28436169
0.098909855 0.018109152 0.28414893
0.099377863 0.018088812 0.28382978
0.099844567 0.018068472 0.28351063
0.13846463 0.017397262 0.27297872
0.13896741 0.017390482 0.27287233
0.13936098 0.017370144 0.27255321
0.13975324 0.017349804 0.27223405
0.14014418 0.017329464 0.2719149
0.14058888 0.017315904 0.27170214
0.14114325 0.017315904 0.27170214
0.14186403 0.017336242 0.27202126
0.14253044 0.017349804 0.27223405
-0.11047291 0.020899948 0.31776595
-0.11019224 0.020969916 0.31882977
0.013075434 0.019507552 0.29659575
0.013675674 0.019500554 0.29648936
0.014265233 0.019479563 0.2961702
0.014864172 0.019472567 0.29606384
0.015462676 0.019465569 0.29595745
0.016066521 0.019465569 0.29595745
0.092707232 0.018961787 0.28829786
0.092951186 0.018891817 0.28723404
0.093294732 0.018842839 0.28648937
0.093809545 0.018828847 0.28627661
0.094498858 0.018849835 0.28659573
0.095154203 0.018863831 0.28680852
0.095668353 0.018849835 0.28659573
0.096074454 0.018814851 0.28606382
0.096442446 0.01877287 0.28542554
0.09691631 0.018751878 0.28510639
0.097425252 0.018737884 0.2848936
0.09793333 0.01872389 0.28468084
0.098440543 0.018709896 0.28446808
0.098872833 0.01868191 0.28404257
0.099340618 0.018660918 0.28372341
0.099807106 0.018639928 0.28340426
0.10030998 0.018625934 0.2831915
0.13835672 0.017940231 0.27276596
0.13885905 0.017933233 0.27265957
0.13930658 0.017919239 0.27244681
0.13969861 0.017898249 0.27212766
0.14003453 0.01787026 0.27170214
0.14042374 0.01784927 0.27138299
0.14097744 0.01784927 0.27138299
0.14164211 0.017863262 0.27159575
0.14230764 0.017877256 0.27180851
-0.11037722 0.021404009 0.3156383
-0.11028799 0.02151222 0.31723404
-0.11022902 0.021627644 0.31893617
0.013056673 0.020083843 0.2961702
0.013646232 0.020062201 0.29585105
0.014239613 0.020047773 0.29563829
0.014837467 0.020040561 0.29553193
0.015446002 0.020047773 0.29563829
0.016054971 0.020054987 0.29574469
0.093083538 0.019629359 0.28946808
0.093295448 0.019550005 0.28829786
0.093537234 0.019477865 0.28723404
0.09387926 0.019427367 0.28648937
0.094393641 0.01941294 0.28627661
0.094977729 0.01941294 0.28627661
0.095490791 0.01939851 0.28606382
0.095967263 0.019376868 0.28574467
0.096442446 0.019355228 0.28542554
0.096988633 0.019348012 0.28531915
0.097534396 0.019340798 0.28521276
0.098043121 0.01932637 0.285
0.098477364 0.019297516 0.28457448
0.098872833 0.019261446 0.28404257
0.099340618 0.019239802 0.28372341
0.099844567 0.019225374 0.28351063
0.10042302 0.019225374 0.28351063
0.10111517 0.019247016 0.28382978
0.13803294 0.018453473 0.27212766
0.13853398 0.018446259 0.27202126
0.1390346 0.018439045 0.2719149
0.13942555 0.018417403 0.27159575
0.1398152 0.018395761 0.27127659
0.1402586 0.018381333 0.27106383
0.14075638 0.018374119 0.27095744
0.14136471 0.018381333 0.27106383
-0.11015401 0.022003423 0.315
-0.11017703 0.022137182 0.31691489
-0.11030255 0.022293234 0.31914893
0.013056673 0.020688122 0.2961702
0.013636418 0.020650966 0.29563829
0.014224241 0.020628674 0.29531914
0.014826784 0.020628674 0.29531914
0.015446002 0.020650966 0.29563829
0.016054971 0.020658398 0.29574469
0.093002811 0.020331429 0.29106382
0.093425624 0.020294275 0.2905319
0.093708575 0.020227397 0.28957447
0.093883671 0.020138223 0.28829786
0.094088428 0.020056482 0.28712767
0.094463788 0.020011894 0.28648937
0.094907135 0.01998217 0.28606382
0.095384255 0.019959876 0.28574467
0.095895812 0.019945014 0.28553191
0.096442446 0.019937584 0.28542554
0.097024806 0.019937584 0.28542554
0.097570777 0.019930152 0.28531915
0.098043121 0.01990786 0.285
0.098477364 0.019878136 0.28457448
0.098909855 0.01984841 0.28414893
0.099415116 0.019833548 0.28393617
0.099994428 0.019833548 0.28393617
0.10064911 0.01984841 0.28414893
0.10138047 0.019878136 0.28457448
0.13765521 0.018956682 0.27138299
0.13820893 0.018956682 0.27138299
0.13865383 0.018941818 0.2711702
0.1391525 0.018934388 0.27106383
0.1395959 0.018919528 0.27085108
0.1400384 0.018904664 0.27063829
0.14048007 0.018889802 0.27042553
0.14108731 0.018897234 0.27053192
-0.11042253 0.022569641 0.31393617
-0.11015401 0.022646122 0.315
-0.110251 0.022799084 0.31712765
0.012483704 0.021345939 0.29691491
0.013056673 0.021292401 0.2961702
0.013631512 0.021246515 0.29553193
0.014213993 0.021215921 0.29510638
0.014821444 0.021223569 0.29521278
0.015434885 0.021238865 0.29542553
0.016049197 0.021254161 0.29563829
0.09324076 0.020978829 0.29180852
0.093699299 0.020948235 0.29138297
0.094052836 0.020894699 0.2906383
0.094230108 0.020802923 0.28936172
0.094402164 0.020711144 0.2880851
0.094604097 0.020627014 0.28691489
0.094942436 0.020573478 0.28617021
0.095348753 0.020535238 0.2856383
0.095895812 0.020527588 0.28553191
0.096442446 0.020519942 0.28542554
0.096988633 0.020512292 0.28531915
0.097498022 0.020496998 0.28510639
0.098006524 0.0204817 0.2848936
0.098514169 0.020466404 0.28468084
0.099057987 0.020458756 0.28457448
0.099675849 0.020466404 0.28468084
0.10033161 0.0204817 0.2848936
0.10098825 0.020496998 0.28510639
0.10164576 0.020512292 0.28531915
0.13743936 0.019479794 0.27095744
0.13793802 0.019472148 0.27085108
0.13843624 0.019464498 0.27074468
0.13887943 0.019449202 0.27053192
0.13937657 0.019441554 0.27042553
0.13981822 0.019426258 0.27021277
0.14025903 0.019410962 0.27000001
0.14075442 0.019403314 0.26989362
-0.11068445 0.023265224 0.31468084
-0.11037722 0.023336012 0.3156383
-0.11028799 0.02345399 0.31723404
-0.11019224 0.023571966 0.31882977
0.012479231 0.021943873 0.29680851
0.013042603 0.021873087 0.29585105
0.013606976 0.021810165 0.29499999
0.014193498 0.021786571 0.29468086
0.01480542 0.021802301 0.29489362
0.015418211 0.021818031 0.29510638
0.016031871 0.021833761 0.29531914
0.093836144 0.02157421 0.29180852
0.094224967 0.021527018 0.29117021
0.094472609 0.021448366 0.29010639
0.094611332 0.02134612 0.28872341
0.094744414 0.021243872 0.28734043
0.094977729 0.02116522 0.28627661
0.095348753 0.02111803 0.2856383
0.095860086 0.0211023 0.28542554
0.096370548 0.021086568 0.28521276
0.09684398 0.021062972 0.2848936
0.097352497 0.021047242 0.28468084
0.09789674 0.021039378 0.28457448
0.09855099 0.021055108 0.28478724
0.099243134 0.021078704 0.28510639
0.10001108 0.02111803 0.2856383
0.10070627 0.021141624 0.28595746
0.10132739 0.021149488 0.28606382
0.10191105 0.021149488 0.28606382
0.13738541 0.020024769 0.27085108
0.13788384 0.020016903 0.27074468
0.13827306 0.019993307 0.27042553
0.13877021 0.019985443 0.27031916
0.13926691 0.019977577 0.27021277
0.13976318 0.019969711 0.27010638
0.14020376 0.019953981 0.26989362
0.14064346 0.019938251 0.26968086
-0.11109606 0.023996176 0.31585106
-0.11063763 0.024036588 0.31638297
-0.11028799 0.024101246 0.31723404
-0.10993487 0.024165904 0.3180851
-0.10954173 0.024222478 0.31882977
0.012443447 0.022484798 0.29595745
0.012991015 0.022387812 0.29468086
0.013553001 0.022323154 0.2938298
0.014142256 0.022306988 0.29361701
0.014762691 0.022339318 0.29404256
0.015379305 0.022363564 0.29436171
0.015991446 0.022379728 0.29457447
0.094328247 0.022145344 0.29148936
0.094472609 0.022040274 0.29010639
0.094611332 0.021935206 0.28872341
0.094779484 0.021838218 0.2874468
0.094977729 0.021749314 0.28627661
0.095313236 0.021692738 0.28553191
0.095752902 0.02166041 0.28510639
0.096226767 0.021636162 0.28478724
0.09666317 0.021603832 0.28436169
0.097170599 0.021587668 0.28414893
0.097786948 0.021595752 0.28425533
0.09855099 0.021636162 0.28478724
0.099428289 0.02170082 0.2856383
0.10030907 0.021765478 0.28648937
0.10104346 0.021797806 0.28691489
0.10166653 0.02180589 0.28702128
0.13743936 0.02058547 0.27095744
0.13782966 0.020561224 0.27063829
0.13821867 0.020536978 0.27031916
0.13866097 0.020520812 0.27010638
0.13915725 0.020512732 0.27000001
0.13965309 0.020504648 0.26989362
0.14014849 0.020496566 0.26978722
0.14058797 0.020480402 0.26957446
-0.11147024 0.024723604 0.31691489
-0.11089804 0.024740202 0.31712765
-0.11028799 0.024748502 0.31723404
-0.10971426 0.0247651 0.3174468
-0.10913968 0.0247817 0.31765959
0.012376356 0.022964155 0.29436171
0.012920666 0.022864562 0.2930851
0.013479396 0.022798168 0.29223403
0.014080768 0.022806467 0.29234043
0.01470394 0.022847963 0.29287234
0.015329281 0.02288946 0.29340425
0.015939467 0.022906058 0.29361701
0.094437033 0.022482796 0.2881915
0.094604097 0.022383202 0.28691489
0.094871849 0.02230851 0.28595746
0.0952067 0.022250414 0.28521276
0.095609978 0.022208918 0.28468084
0.096082978 0.02218402 0.28436169
0.096518524 0.022150824 0.28393617
0.097025082 0.022134226 0.28372341
0.097677156 0.022150824 0.28393617
0.098514169 0.022208918 0.28468084
0.099428289 0.022283612 0.2856383
0.10038356 0.022366604 0.28670213
0.13743936 0.021138309 0.27095744
0.1377213 0.021096813 0.27042553
0.13805549 0.021063616 0.27000001
0.13844253 0.021038717 0.26968086
0.13899276 0.021038717 0.26968086
0.13959803 0.021047015 0.26978722
0.14009324 0.021038717 0.26968086
0.14058797 0.021030417 0.26957446
0.1410823 0.021022119 0.2694681
-0.11165734 0.02541279 0.3174468
-0.11104685 0.025421308 0.31755319
-0.11043593 0.025429826 0.31765959
-0.10971426 0.02541279 0.3174468
-0.10899348 0.025395758 0.31723404
0.012855008 0.023343319 0.29159576
0.013425419 0.023300735 0.29106382
0.01401928 0.023300735 0.29106382
0.014639848 0.023343319 0.29159576
0.015268141 0.023394415 0.29223403
0.094393641 0.022917502 0.28627661
0.094695374 0.022849372 0.28542554
0.095064662 0.022798272 0.28478724
0.095502794 0.022764206 0.28436169
0.095939204 0.022730142 0.28393617
0.096410029 0.022704592 0.28361702
0.0969887 0.022704592 0.28361702
0.097677156 0.022730142 0.28393617
0.098477364 0.02278124 0.28457448
0.09935423 0.022849372 0.28542554
0.13694027 0.021699663 0.27106383
0.13727747 0.021665597 0.27063829
0.13750461 0.021614499 0.27000001
0.13778351 0.021571919 0.2694681
0.13822408 0.021554884 0.26925531
0.13877344 0.021554884 0.26925531
0.13943291 0.021571919 0.2694681
0.14003795 0.021580433 0.26957446
0.14058797 0.021580433 0.26957446
0.1410266 0.021563401 0.2693617
-0.1124932 0.026104148 0.31797871
-0.11188185 0.026112882 0.3180851
-0.11130726 0.026130348 0.31829786
-0.11065783 0.026130348 0.31829786
-0.10993487 0.026112882 0.3180851
0.012831558 0.023894597 0.29106382
0.013395978 0.023842199 0.29042554
0.013978289 0.023824733 0.29021278
0.014581095 0.023842199 0.29042554
0.015195887 0.023877131 0.29085106
0.094589487 0.023405528 0.28510639
0.095029145 0.023370594 0.28468084
0.095431335 0.023326926 0.28414893
0.095867313 0.023291994 0.28372341
0.096373864 0.023274526 0.28351063
0.096952312 0.023274526 0.28351063
0.097640559 0.023300726 0.28382978
0.098366916 0.02333566 0.28425533
0.13672529 0.022217784 0.27063829
0.13706164 0.02218285 0.27021277
0.13728788 0.02213045 0.26957446
0.13756593 0.022086782 0.26904255
0.13800563 0.022069316 0.26882979
0.13860895 0.022078048 0.26893616
0.13926777 0.022095516 0.26914895
0.13992743 0.022112984 0.2693617
0.14053251 0.022121718 0.2694681
0.1409709 0.022104248 0.26925531
-0.11264376 0.026788728 0.31840426
-0.11206894 0.026806628 0.31861702
-0.11149327 0.026824528 0.31882977
-0.11087974 0.02683348 0.31893617
-0.11019224 0.026824528 0.31882977
0.012327154 0.024667468 0.29319149
0.012864388 0.024551112 0.29180852
0.013400884 0.024443706 0.2905319
0.013962917 0.024390005 0.28989363
0.014533025 0.024354203 0.28946808
0.015118074 0.024345253 0.28936172
0.094765961 0.024031986 0.2856383
0.095100164 0.023969332 0.2848936
0.095431335 0.023906678 0.28414893
0.095831364 0.023861926 0.28361702
0.096337706 0.023844026 0.28340426
0.0969887 0.023861926 0.28361702
0.097640559 0.023879828 0.28382978
0.13651031 0.022734169 0.27021277
0.13689975 0.022707317 0.26989362
0.13717952 0.022662565 0.2693617
0.13745713 0.022617813 0.26882979
0.1378964 0.022599913 0.26861703
0.13849929 0.022608861 0.2687234
0.13915767 0.022626763 0.26893616
0.13981691 0.022644665 0.26914895
0.14042154 0.022653613 0.26925531
0.1408038 0.022626763 0.26893616
0.14124069 0.022608861 0.2687234
-0.11295272 0.027355863 0.3174468
-0.11253084 0.027410869 0.3180851
-0.11206894 0.027456706 0.31861702
-0.11156768 0.027493378 0.31904256
-0.11095371 0.027502544 0.31914893
-0.11030255 0.027502544 0.31914893
0.012367409 0.025348177 0.29414892
0.012892528 0.025201499 0.29244682
0.013415605 0.025063984 0.29085106
0.013962917 0.024981478 0.28989363
0.014522344 0.024926472 0.28925532
0.01509584 0.02489897 0.28893617
0.095013022 0.024678949 0.28638297
0.0952067 0.024578106 0.28521276
0.095395617 0.024477266 0.28404257
0.095723525 0.024413092 0.28329787
0.096265383 0.024403926 0.2831915
0.096952312 0.024431426 0.28351063
0.097603969 0.024449762 0.28372341
0.13684578 0.023248816 0.26978722
0.13717952 0.023212148 0.2693617
0.13751152 0.023175476 0.26893616
0.1378964 0.023147976 0.26861703
0.13838963 0.023138808 0.26851064
0.13904758 0.023157142 0.2687234
0.13970637 0.023175476 0.26893616
0.14031057 0.023184644 0.26904255
0.14074811 0.02316631 0.26882979
0.14118479 0.023147976 0.26861703
-0.11261205 0.027919095 0.31648937
-0.11230503 0.028003553 0.3174468
-0.11191928 0.028069247 0.3181915
-0.11149327 0.028125552 0.31882977
-0.11091673 0.028144324 0.31904256
0.011826835 0.026079718 0.29563829
0.012380827 0.025976487 0.29446808
0.012906596 0.025826333 0.29276595
0.013435233 0.025694951 0.2912766
0.013983413 0.02561049 0.29031914
0.014538367 0.025544798 0.28957447
0.015112516 0.025516644 0.28925532
0.094849646 0.025375877 0.28765959
0.095154203 0.025300799 0.28680852
0.095242217 0.025169415 0.28531915
0.095288426 0.025028648 0.28372341
0.095543794 0.024944184 0.28276595
0.096084565 0.024934798 0.28265956
0.096770413 0.024962954 0.28297871
0.097457573 0.024991108 0.28329787
0.13684578 0.023799267 0.26978722
0.1372337 0.023771115 0.2694681
0.13751152 0.023724189 0.26893616
0.13784179 0.023686653 0.26851064
0.13827997 0.023667885 0.26829788
0.1388274 0.023667885 0.26829788
0.13943006 0.023677267 0.26840425
0.14014412 0.023705421 0.2687234
0.14074811 0.023714807 0.26882979
0.14124069 0.023705421 0.2687234
-0.11283901 0.028459214 0.31531915
-0.11238493 0.028507221 0.31585106
-0.11204159 0.028584033 0.31670213
-0.11169476 0.028660847 0.31755319
-0.11127006 0.028718457 0.3181915
-0.11076879 0.028756863 0.31861702
0.011792788 0.0266061 0.29478723
0.012353991 0.026519686 0.2938298
0.012892528 0.026394865 0.29244682
0.013435233 0.026289247 0.2912766
0.014003909 0.026241239 0.29074469
0.014570414 0.026193231 0.29021278
0.015145864 0.026164426 0.28989363
0.094814561 0.025953189 0.28755319
0.095118903 0.025876377 0.28670213
0.095100164 0.025713148 0.2848936
0.09507405 0.02554992 0.28308511
0.095328122 0.025463505 0.28212765
0.095831424 0.025444303 0.28191489
0.096479379 0.025463505 0.28212765
0.097091608 0.025473109 0.28223404
0.13673787 0.024330514 0.26957446
0.13717952 0.024311312 0.2693617
0.13751152 0.024272904 0.26893616
0.13778718 0.024224896 0.26840425
0.1381155 0.02418649 0.26797873
0.13855216 0.024167288 0.26776597
0.13915375 0.024176888 0.26787233
0.13992222 0.024215296 0.26829788
0.14074811 0.024263304 0.26882979
0.14140844 0.024282506 0.26904255
-0.11332922 0.029063286 0.3148936
-0.11276288 0.029082926 0.31510639
-0.11223353 0.029112382 0.31542554
-0.11181577 0.029171292 0.31606382
-0.11147024 0.029249841 0.31691489
-0.11104685 0.029308755 0.31755319
-0.1105099 0.029338211 0.31787235
0.011733208 0.027070098 0.29329789
0.01230479 0.027011184 0.29265958
0.012864388 0.026932634 0.29180852
0.013425419 0.026863903 0.29106382
0.014009032 0.026844265 0.29085106
0.014591778 0.026824629 0.2906383
0.015179212 0.026814809 0.2905319
0.094674259 0.026500614 0.28712767
0.094907135 0.026402425 0.28606382
0.0948871 0.02623551 0.28425533
0.094895415 0.02607841 0.2825532
0.095148392 0.025990041 0.28159574
0.095578291 0.025950767 0.28117022
0.096115582 0.025940947 0.28106382
0.096652448 0.025931131 0.28095746
0.13673787 0.02488053 0.26957446
0.13712534 0.024851074 0.26925531
0.13740273 0.024801981 0.2687234
0.13767795 0.024752887 0.26819149
0.137951 0.024703795 0.26765957
0.13833196 0.024674337 0.26734042
0.13887742 0.024674337 0.26734042
0.13970028 0.024723431 0.26787233
0.14058101 0.024782345 0.26851064
-0.11329094 0.029695734 0.31478724
-0.11268673 0.029705768 0.3148936
-0.11211997 0.029725842 0.31510639
-0.11166523 0.02977602 0.3156383
-0.11128315 0.02984627 0.31638297
-0.11086085 0.029906483 0.31702128
-0.11032498 0.029936591 0.31734043
0.011656603 0.02748787 0.29138297
0.01224217 0.0274678 0.29117021
0.012822178 0.027437693 0.29085106
0.013405791 0.027417623 0.2906383
0.014003909 0.027427658 0.29074469
0.014597119 0.027427658 0.29074469
0.015190329 0.027427658 0.29074469
0.094463788 0.027026229 0.28648937
0.094765961 0.026945943 0.2856383
0.094780564 0.026785372 0.28393617
0.094859682 0.026644871 0.2824468
0.09511245 0.026554549 0.28148937
0.095469803 0.026494335 0.28085107
0.095860928 0.026444156 0.28031915
0.09635967 0.026424086 0.2801064
0.13689975 0.025460655 0.26989362
0.13712534 0.025400439 0.26925531
0.13734835 0.025340227 0.26861703
0.13762334 0.025290046 0.26808509
0.13789617 0.025239866 0.26755318
0.13827693 0.025209762 0.26723406
0.13882217 0.025209762 0.26723406
0.13964482 0.02525994 0.26776597
0.14046963 0.02531012 0.26829788
-0.11381768 0.030307239 0.31446809
-0.11321436 0.030317493 0.31457448
-0.11257253 0.030317493 0.31457448
-0.1120064 0.030337999 0.31478724
-0.11151468 0.030379009 0.31521276
-0.11109606 0.030440526 0.31585106
-0.11067484 0.030502044 0.31648937
0.011597022 0.027938846 0.28989363
0.012192968 0.027949097 0.28999999
0.012784659 0.027949097 0.28999999
0.013386165 0.027969604 0.29021278
0.01399366 0.02800036 0.2905319
0.014591778 0.028010614 0.2906383
0.094660074 0.027497975 0.28531915
0.094851583 0.027385194 0.28414893
0.095002599 0.027262162 0.28287235
0.095256232 0.027169887 0.28191489
0.095542125 0.027087864 0.28106382
0.095860928 0.027016096 0.28031915
0.096323073 0.026985336 0.28
0.13700767 0.026031826 0.27010638
0.13717952 0.025960058 0.2693617
0.13729395 0.025878035 0.26851064
0.13756873 0.025826771 0.26797873
0.13789617 0.025785759 0.26755318
0.13838702 0.025775509 0.26744682
0.13893269 0.025775509 0.26744682
0.13958932 0.025796013 0.26765957
-0.11362517 0.030896503 0.31393617
-0.11302292 0.030906972 0.31404254
-0.11242025 0.030917443 0.31414893
-0.11181714 0.030927913 0.31425533
-0.11128887 0.030959323 0.31457448
-0.11083414 0.031011673 0.31510639
-0.11037722 0.03106402 0.3156383
0.011575744 0.028477971 0.28936172
0.012166132 0.028477971 0.28936172
0.012761209 0.028488439 0.28946808
0.013366536 0.028519848 0.28978723
0.013978289 0.02856173 0.29021278
0.014581095 0.02858267 0.29042554
0.094660074 0.028080115 0.28531915
0.094958119 0.027996358 0.28446808
0.095216967 0.027902128 0.28351063
0.095471911 0.027807901 0.2825532
0.095722936 0.027713671 0.28159574
0.096006438 0.027629912 0.28074467
0.09635967 0.027567094 0.2801064
0.13667156 0.026624808 0.27053192
0.13695371 0.02657246 0.27000001
0.13707118 0.026488701 0.26914895
0.13718516 0.026404941 0.26829788
0.13745952 0.026352594 0.26776597
0.13789617 0.026331652 0.26755318
0.13838702 0.026321184 0.26744682
0.13898794 0.026331652 0.26755318
0.13958932 0.026342122 0.26765957
-0.11331713 0.031451534 0.31308511
-0.11279321 0.031483598 0.31340426
-0.1122299 0.03150497 0.31361702
-0.11166573 0.031526342 0.31382978
-0.11110068 0.031547718 0.31404254
-0.1105722 0.031579778 0.31436169
-0.10996801 0.031590465 0.31446809
0.011021703 0.02916454 0.29031914
0.011584255 0.029089732 0.28957447
0.012157186 0.029046983 0.28914893
0.01274714 0.029046983 0.28914893
0.013346909 0.02906836 0.28936172
0.013952668 0.029100418 0.28968084
0.014554391 0.029121794 0.28989363
0.094993636 0.028587449 0.28457448
0.095359884 0.028523326 0.28393617
0.095651634 0.028437831 0.28308511
0.095903747 0.028341647 0.28212765
0.096115582 0.02823478 0.28106382
0.096432865 0.028159972 0.28031915
0.13673787 0.027080595 0.26957446
0.13690864 0.027005788 0.26882979
0.13707636 0.026930977 0.26808509
0.13735028 0.026877543 0.26755318
0.13773169 0.026845485 0.26723406
0.13822187 0.026834797 0.26712766
0.1387669 0.026834797 0.26712766
-0.1137236 0.032024901 0.3124468
-0.11316311 0.032046709 0.31265956
-0.11264005 0.032079421 0.31297871
-0.11211569 0.032112136 0.31329787
-0.11162788 0.032155752 0.31372342
-0.11110068 0.03218846 0.31404254
-0.11049736 0.032199368 0.31414893
-0.10989361 0.032210272 0.31425533
0.011058053 0.029855018 0.2912766
0.011605534 0.029735075 0.29010639
0.012157186 0.029636938 0.28914893
0.01273776 0.02961513 0.28893617
0.01332728 0.02961513 0.28893617
0.013921925 0.029626036 0.28904256
0.014517002 0.029636938 0.28914893
0.094851583 0.029124452 0.28414893
0.095288426 0.029080838 0.28372341
0.095615685 0.029004509 0.28297871
0.095903747 0.028917277 0.28212765
0.096151963 0.028819144 0.28117022
0.09639626 0.028721007 0.28021276
0.096820734 0.028677391 0.27978724
0.13646805 0.027576091 0.26904255
0.13669191 0.027510667 0.26840425
0.13691318 0.027445246 0.26776597
0.13713183 0.02737982 0.26712766
0.13751237 0.027347108 0.26680851
0.13789159 0.027314397 0.26648936
0.1383248 0.027292589 0.2662766
-0.11428321 0.032640152 0.31223404
-0.11364616 0.032640152 0.31223404
-0.1130861 0.032662392 0.3124468
-0.11256348 0.032695755 0.31276596
-0.11215376 0.032762483 0.31340426
-0.11174143 0.032829206 0.31404254
-0.11128887 0.032884814 0.31457448
-0.11072188 0.032907054 0.31478724
-0.11007961 0.032907054 0.31478724
0.010509617 0.030582765 0.29255319
0.011074207 0.030493796 0.29170212
0.011614045 0.030349223 0.29031914
0.012161659 0.030238014 0.28925532
0.01273307 0.030193528 0.28882977
0.013317467 0.03018241 0.28872341
0.013906552 0.03018241 0.28872341
0.014490297 0.030171286 0.28861701
0.094496474 0.029592996 0.28308511
0.095038325 0.029581873 0.28297871
0.095471911 0.029537391 0.2825532
0.095795266 0.029459545 0.28180853
0.096079208 0.029370576 0.28095746
0.09639626 0.029292727 0.28021276
0.096820734 0.029248245 0.27978724
0.13614428 0.028058296 0.26840425
0.13652939 0.028024932 0.26808509
0.13675 0.027958209 0.26744682
0.13696799 0.027891481 0.26680851
0.13723822 0.027835878 0.2662766
0.13761637 0.027802514 0.26595744
0.1379932 0.02776915 0.26563829
0.13842423 0.027746908 0.26542553
-0.11420534 0.03325453 0.31202129
-0.11360743 0.033265866 0.31212765
-0.11304761 0.033288546 0.31234044
-0.11256348 0.033333898 0.31276596
-0.11215376 0.033401925 0.31340426
-0.11185499 0.033503965 0.31436169
-0.11151468 0.033594672 0.31521276
-0.1109838 0.033628684 0.31553191
-0.11030282 0.033617347 0.31542554
-0.1095483 0.033583336 0.31510639
0.011058053 0.03104361 0.2912766
0.011601278 0.030907551 0.28999999
0.012157186 0.030816846 0.28914893
0.01273307 0.030782832 0.28882977
0.013322373 0.030782832 0.28882977
0.013906552 0.030771496 0.28872341
0.094141357 0.030057197 0.28202128
0.094716772 0.030057197 0.28202128
0.095184341 0.030023184 0.28170213
0.095578291 0.029966492 0.28117022
0.095933683 0.029898465 0.28053191
0.096323073 0.029841773 0.28
0.096820734 0.029819099 0.27978724
0.13631268 0.028526559 0.26765957
0.13653241 0.02845853 0.26702127
0.13674955 0.028390504 0.26638299
0.13701889 0.028333811 0.26585105
0.13739619 0.028299799 0.26553193
0.13782741 0.02827712 0.26531914
0.13836874 0.02827712 0.26531914
-0.1148028 0.033879597 0.31191489
-0.11416639 0.033879597 0.31191489
-0.11353 0.033879597 0.31191489
-0.11293209 0.033891153 0.31202129
-0.11244862 0.033937372 0.3124468
-0.11207762 0.034018259 0.3131915
-0.11181714 0.034133811 0.31425533
-0.11158996 0.034260917 0.31542554
-0.11113349 0.034318689 0.31595746
-0.11037722 0.034284025 0.3156383
-0.1095483 0.03422625 0.31510639
-0.10872155 0.034168474 0.31457448
-0.10807972 0.034168474 0.31457448
0.011009587 0.031499241 0.28999999
0.011571487 0.031418357 0.28925532
0.012148241 0.031383689 0.28893617
0.01273776 0.031383689 0.28893617
0.01332728 0.031383689 0.28893617
0.013916801 0.031383689 0.28893617
0.09378624 0.030517058 0.28095746
0.094395205 0.030528612 0.28106382
0.094896778 0.030505503 0.28085107
0.095325142 0.030459281 0.28042552
0.095751785 0.030413061 0.28
0.096249878 0.030389952 0.27978724
0.0967471 0.03036684 0.27957445
0.13598759 0.029003337 0.26702127
0.13626043 0.028945561 0.26648936
0.13653108 0.028887786 0.26595744
0.13685441 0.028841566 0.26553193
0.13723104 0.028806901 0.26521277
0.13771689 0.028795345 0.26510638
0.13831328 0.028806901 0.26521277
