# .PCD v0.7 - Point Cloud Data file format
VERSION 0.7
FIELDS x y z
SIZE 4 4 4
TYPE F F F
COUNT 1 1 1
WIDTH 1382
HEIGHT 1
VIEWPOINT 0 0 0 1 0 0 0
POINTS 1382
DATA ascii
0.0011950753 0.095123269 0.25949472
0.0012094489 0.095081151 0.25951472
0.0012259212 0.095048577 0.25952432
0.0012562611 0.095002927 0.25952533
0.0012798907 0.094932832 0.25953981
0.083416581 0.091327019 0.25108045
0.083427355 0.091265455 0.25110489
0.083441287 0.091204569 0.25112873
0.083441295 0.091204561 0.25112876
0.083450675 0.091203548 0.25112209
0.083467513 0.09117876 0.25112835
0.083484069 0.091186419 0.25112566
0.12704352 0.086339995 0.23770376
0.12704849 0.086316504 0.2377093
0.12706426 0.086225711 0.23774889
0.12706837 0.086202577 0.23775738
0.12707821 0.086155474 0.23777059
0.12708332 0.08615265 0.23776406
0.1270804 0.086239278 0.23771396
0.12708798 0.086197361 0.23773517
0.12709336 0.086176254 0.23774438
-0.12486986 0.10246941 0.28018263
-0.12485874 0.10235679 0.28031051
-0.12482478 0.10225118 0.28038901
-0.12479974 0.10217697 0.28042251
-0.12478817 0.10212314 0.28043991
-0.12474644 0.10202182 0.2804805
-0.12471797 0.10194667 0.28051215
-0.12470042 0.10190018 0.28054288
-0.12468713 0.10191042 0.28059983
-0.12467764 0.10183343 0.28067806
0.0010138161 0.095920727 0.25907317
0.0010312591 0.095842727 0.2591235
0.0010468637 0.095791452 0.25914958
0.0010703497 0.095722489 0.25918776
0.001089592 0.095652908 0.25922847
0.0011119364 0.095564157 0.2592738
0.0011306347 0.095503971 0.25930417
0.0011482019 0.095443338 0.25933439
0.0011647304 0.095433913 0.25933248
0.0011929619 0.095359348 0.25936159
0.0012119189 0.095306121 0.25937662
0.083326772 0.091754802 0.2508674
0.083337992 0.091693923 0.25089282
0.083352223 0.091633603 0.25091723
0.083351411 0.091660798 0.25090107
0.083359763 0.091660611 0.25089657
0.08336179 0.091725439 0.25086728
0.083398454 0.091587394 0.25093803
0.12697974 0.086765662 0.23752598
0.12699284 0.086695917 0.23754929
0.12700567 0.086627297 0.2375761
0.12701386 0.086580426 0.23759103
0.12702221 0.086532094 0.23759766
0.12702824 0.086508304 0.23760308
0.12702823 0.086508296 0.2376031
0.12703539 0.086552136 0.23757568
0.12703833 0.086552516 0.23757206
-0.12494951 0.10293067 0.27996981
-0.12492514 0.10283808 0.28006941
-0.12488874 0.10268822 0.28018966
-0.12487099 0.10263878 0.28021136
-0.12485029 0.10259227 0.28019455
-0.12482359 0.10251734 0.28022805
-0.12480067 0.10247009 0.28025529
-0.12477068 0.1023744 0.28030884
-0.12475404 0.10232022 0.28037116
0.00090545829 0.096381038 0.25882566
0.00093057356 0.096310094 0.25886953
0.00095114473 0.096282624 0.25888821
0.00097334926 0.09620706 0.25893283
0.00099530967 0.096143678 0.25896603
0.0010117798 0.096120834 0.25897801
0.0010261346 0.096079342 0.25899914
0.0010593138 0.09594743 0.25906479
0.0010870787 0.095846198 0.25911871
0.00111171 0.095768049 0.25915858
0.0011240698 0.095712356 0.2591871
0.0011392796 0.095660932 0.25920886
0.083247922 0.092152864 0.25066587
0.083259426 0.092092544 0.25069198
0.083289661 0.091976114 0.25074443
0.083286963 0.092031494 0.25071371
0.083289415 0.092059724 0.25069451
0.083294049 0.092064098 0.25069624
0.083315395 0.091978803 0.25073391
0.12693574 0.087077871 0.23738609
0.1269426 0.08705207 0.23739107
0.12694973 0.087005794 0.23740891
0.12695396 0.086982146 0.23741563
0.12695898 0.086958349 0.2374215
0.12696505 0.086934596 0.23742713
0.12697056 0.08691147 0.23743184
0.12698217 0.086887799 0.23742962
0.12698847 0.086888134 0.23742743
-0.12501341 0.10336289 0.2797845
-0.12500528 0.10333471 0.27980188
-0.12498593 0.1032564 0.27983606
-0.12494922 0.10313302 0.27990317
-0.12491554 0.10306435 0.27990565
-0.12489794 0.10303953 0.27991718
-0.12487434 0.10296595 0.27995664
-0.12483446 0.10287386 0.28001437
-0.12479578 0.10277011 0.28014278
0.00085189083 0.096642956 0.25868925
0.00085454702 0.096674941 0.25867617
0.00086929632 0.096666567 0.25868326
0.00088913826 0.09662272 0.25870919
0.00089943269 0.0966224 0.25870842
0.00091758958 0.096601821 0.25872028
0.00094209687 0.096492976 0.25877744
0.00096261885 0.096408479 0.25882363
0.00098360749 0.096349582 0.25885466
0.0010063912 0.09626165 0.25889909
0.0010258711 0.096178494 0.2589426
0.0010619127 0.096045077 0.25901341
0.0010784146 0.095971473 0.25905228
0.083170637 0.092552066 0.25046891
0.083197214 0.09243612 0.25052533
0.083212778 0.092376493 0.25054833
0.083214037 0.092430167 0.25051618
0.083215825 0.092431076 0.25051433
0.083221294 0.092429839 0.25051054
0.083231874 0.092375547 0.25054029
0.12688109 0.087438792 0.23723473
0.12688589 0.08741378 0.23724063
0.1268889 0.087407559 0.23723337
0.1268933 0.087384135 0.23724055
0.12689847 0.087360561 0.23724693
0.12690613 0.08733812 0.23725334
0.12691191 0.087336466 0.23724642
0.12691854 0.087293349 0.23726729
0.12692671 0.087293908 0.23726609
-0.12507054 0.10379517 0.27955562
-0.12508135 0.10387503 0.2794905
-0.12504904 0.10375056 0.27956226
-0.12502365 0.10364754 0.27961352
-0.12499296 0.1035995 0.27963626
-0.12496939 0.10352534 0.27967486
-0.12495337 0.10350113 0.27968964
-0.1249048 0.10334302 0.2798036
-0.12487917 0.10327732 0.27984849
0.00076165941 0.096942008 0.25852647
0.00079492829 0.096925668 0.25855115
0.00079979742 0.096954644 0.25853506
0.00081100216 0.096951179 0.2585378
0.0008165022 0.096965291 0.25852868
0.00081654429 0.096983582 0.25851819
0.00084116572 0.096943371 0.25853625
0.00085278315 0.096904851 0.2585535
0.00086203218 0.096864201 0.25857431
0.00087910221 0.096826442 0.25859594
0.00091423024 0.096678436 0.25867769
0.00093496102 0.096616998 0.25871137
0.00096438546 0.096489877 0.25877804
0.00098728947 0.096392334 0.25883043
0.0010140835 0.09628094 0.25888902
0.0010354412 0.096209154 0.25892696
0.083094768 0.092952259 0.25027615
0.083110653 0.092862509 0.25031567
0.083136857 0.092777304 0.25035501
0.083141655 0.092803389 0.25033706
0.083150104 0.092773385 0.25034833
0.083148658 0.092802018 0.25033298
0.083156295 0.092776664 0.25034806
0.12682316 0.087841183 0.23706362
0.12682784 0.08781644 0.23706976
0.12682991 0.087829992 0.23704959
0.12682101 0.087873086 0.23702958
0.12681767 0.087950572 0.23697327
0.12682258 0.087928608 0.2369809
0.12683812 0.087863736 0.23700546
0.12685288 0.087779567 0.23704886
0.12686916 0.087758407 0.23705202
-0.12513202 0.10435113 0.27924263
-0.12512973 0.10435402 0.27927604
-0.12513377 0.10431945 0.27929267
-0.12511151 0.1042167 0.27934584
-0.12509724 0.10416544 0.27936989
-0.12507193 0.10409129 0.27940619
-0.12504528 0.10404414 0.27943295
-0.12502329 0.10397535 0.27947852
-0.12498609 0.10388188 0.27953422
-0.12496055 0.10381435 0.27957344
0.00063247775 0.097271152 0.25834334
0.00071434333 0.09722437 0.25840676
0.0007499294 0.097163849 0.25843939
0.00076087139 0.097158179 0.25844109
0.00076495938 0.097205222 0.25841239
0.00076386158 0.097224005 0.25840232
0.0007869862 0.097183116 0.25841737
0.00079322862 0.097163364 0.2584255
0.00079957797 0.097162716 0.25842392
0.00082029618 0.097081922 0.25846347
0.00083193061 0.097041309 0.25848275
0.00085173314 0.09698011 0.25851893
0.00086464523 0.096940301 0.25853965
0.00089556747 0.096816197 0.25860655
0.00093422248 0.096678108 0.25868097
0.00095299433 0.096603163 0.25871933
0.00097987731 0.096493088 0.25877571
0.001004047 0.096402749 0.25882369
0.083007589 0.093378499 0.25006983
0.083023585 0.093289241 0.25010914
0.083050922 0.093203954 0.2501469
0.083067812 0.093175791 0.25015888
0.08307445 0.093174011 0.25015542
0.083074443 0.093173996 0.25015542
0.083093651 0.093118101 0.25018135
0.12676512 0.088262081 0.23688048
0.12677291 0.088214852 0.23689686
0.12675646 0.088337384 0.23683016
0.12675335 0.088355944 0.23681594
0.12675823 0.088389114 0.23677777
0.12676325 0.08836735 0.23678541
0.12677485 0.08832407 0.2367993
0.12679195 0.088240035 0.23683958
0.12681 0.088198498 0.23685469
0.1268221 0.088200428 0.23684733
-0.12519473 0.10486708 0.27901801
-0.12520172 0.10486387 0.27904034
-0.12518911 0.10475964 0.27909544
-0.12518366 0.10474717 0.27907419
-0.12517023 0.10469652 0.27910018
-0.12514156 0.10460286 0.27915996
-0.12512733 0.10453881 0.27921635
-0.12508485 0.10444624 0.27926767
-0.12505229 0.10437921 0.27930176
-0.12502679 0.10430963 0.27933562
0.00065669272 0.097508438 0.25827163
0.00069528207 0.097442478 0.25831145
0.00071144017 0.097432539 0.25831017
0.00071184291 0.097486891 0.25828019
0.00072609039 0.09744519 0.25830102
0.00073460344 0.09742438 0.25830692
0.00074211403 0.097423643 0.25830513
0.00076088152 0.097362913 0.25833032
0.00076898234 0.097363085 0.25833264
0.00078655302 0.097303241 0.25836009
0.00079076161 0.097259082 0.25838152
0.00082762755 0.09714032 0.25844264
0.00083532149 0.097099185 0.25846428
0.00086443103 0.097003065 0.25851187
0.00089921255 0.096889488 0.2585699
0.00092606473 0.096754842 0.25863656
0.00094824005 0.096684419 0.25867426
0.00097176904 0.096576102 0.25873294
0.082924098 0.093772888 0.24987963
0.082936965 0.09371385 0.24990362
0.082952559 0.093655087 0.24992596
0.082970165 0.093625948 0.24993511
0.08298628 0.093597315 0.24994482
0.083004653 0.093541451 0.24997051
0.083018385 0.093516357 0.24998477
0.12670559 0.08869689 0.2366825
0.12671106 0.08867161 0.23668693
0.1266914 0.088793069 0.23662063
0.12668642 0.088868491 0.23656645
0.12669942 0.088843554 0.23656909
0.1267048 0.08882235 0.23657723
0.12671658 0.088779673 0.23659106
0.12673382 0.088696726 0.23663054
0.12675224 0.088699065 0.23662075
0.12676226 0.088678144 0.23662168
-0.12529089 0.10552125 0.27868566
-0.12528086 0.10541347 0.2787427
-0.12527017 0.10530598 0.27879292
-0.12526239 0.10525516 0.27882332
-0.12524775 0.10520518 0.27884981
-0.12523019 0.10515759 0.27887493
-0.12521496 0.10510853 0.27890059
-0.12519434 0.10501768 0.27896723
-0.12516089 0.10493445 0.27903914
-0.12511799 0.10481962 0.27910519
0.00065369462 0.097714171 0.25818697
0.00066222879 0.09773092 0.25817719
0.00067440717 0.097729467 0.25817421
0.00068862032 0.097665422 0.25819868
0.00069569313 0.09766686 0.2582019
0.00071104633 0.097604558 0.25822914
0.00071936334 0.097584561 0.25823474
0.00073742634 0.097544499 0.25825831
0.00074922864 0.097505234 0.25827518
0.00076646823 0.097445816 0.25830278
0.00078136392 0.097385652 0.25833252
0.00081103761 0.097266704 0.2583853
0.00083718251 0.09719301 0.2584196
0.00087178982 0.097039267 0.25849143
0.00089855731 0.096927002 0.25854859
0.00094509008 0.096766829 0.25863439
0.082780659 0.09435188 0.24957973
0.082825527 0.094253168 0.24964742
0.08283864 0.094194211 0.24967183
0.082854569 0.094135657 0.2496949
0.082870908 0.094132453 0.24968594
0.082898885 0.094048709 0.2497208
0.082919188 0.093965091 0.24976142
0.082937412 0.093884364 0.24980481
0.12663104 0.089246854 0.23641506
0.12662154 0.089285359 0.23639241
0.12662959 0.0893379 0.23634763
0.12664093 0.089293934 0.23636235
0.12664655 0.089273125 0.23637071
0.12665851 0.089231089 0.23638447
0.12667577 0.089149058 0.2364229
0.12669191 0.089108221 0.23643501
0.12670326 0.089087516 0.23643592
0.12672517 0.089005493 0.23646683
-0.12535496 0.10586186 0.27850783
-0.12534821 0.1058338 0.27852544
-0.12533483 0.10575764 0.27857065
-0.12533484 0.10575764 0.27857068
-0.12531771 0.10568286 0.27860898
-0.12529857 0.10561005 0.27863899
-0.1252812 0.10556566 0.27868241
-0.12526149 0.10550176 0.27873152
-0.12522624 0.10539239 0.27881569
-0.12520765 0.10537893 0.27884072
0.00059146213 0.098091163 0.25801775
0.0006095831 0.098034568 0.2580497
0.00062741473 0.09797354 0.2580744
0.00063640438 0.097953714 0.25808725
0.00065528153 0.097893022 0.25811377
0.00067136378 0.097852476 0.25812703
0.000690541 0.097792119 0.25815284
0.00070166402 0.097752653 0.25817484
0.00072023034 0.09769322 0.25819787
0.00072824501 0.097652838 0.25821567
0.00075277779 0.097531155 0.25826243
0.00078193558 0.097435392 0.25830391
0.00082562689 0.097307481 0.25836524
0.00086477143 0.097198963 0.25841847
0.00090841902 0.097050689 0.25849524
0.082673199 0.094829135 0.24934694
0.082696304 0.094743021 0.24938953
0.082731411 0.094633572 0.2494482
0.08276248 0.094607599 0.24946204
0.082770258 0.094606936 0.24945666
0.082792267 0.094523638 0.24949352
0.082833201 0.094387993 0.24955735
0.082856104 0.094280377 0.24961498
0.12655844 0.08973188 0.23619001
0.12655731 0.089767717 0.23616508
0.12657233 0.089763515 0.23615982
0.12658407 0.089720398 0.23617537
0.12658961 0.089699782 0.23618343
0.12660579 0.089637965 0.23620664
0.12661561 0.089596651 0.23622242
0.12663123 0.089534879 0.23624435
0.12665117 0.089474134 0.23626681
0.12666848 0.089434139 0.23627564
-0.12543298 0.10630702 0.27828372
-0.12543222 0.10630424 0.27828261
-0.12541448 0.10620418 0.27833423
-0.12540056 0.10615842 0.27836475
-0.12537776 0.10606378 0.27842408
-0.12537053 0.10604111 0.27843934
-0.12535067 0.1060266 0.27847639
-0.12532216 0.10593826 0.2785362
-0.12529862 0.10587962 0.27859384
0.00051472848 0.0984262 0.25786212
0.00054265122 0.098334119 0.25791463
0.00056336302 0.098280892 0.25794622
0.00057605561 0.098261409 0.25795764
0.0005949061 0.098201886 0.25798452
0.00060700712 0.098162033 0.25800356
0.00062875933 0.09808138 0.25803941
0.00065140112 0.098021545 0.25806141
0.00066263025 0.097981542 0.25808007
0.00067999843 0.097922802 0.25810567
0.00070533901 0.097821847 0.25814381
0.00073805399 0.097701184 0.25818923
0.00079312787 0.09757778 0.2582463
0.00084123772 0.097386003 0.25833264
0.00089595781 0.097342722 0.25835419
0.082542188 0.095315382 0.24907997
0.082567401 0.095232107 0.24912754
0.082588248 0.095143184 0.24916768
0.082583927 0.095222689 0.2491235
0.08259809 0.095192298 0.2491314
0.082662731 0.095039561 0.24922642
0.082726046 0.094863147 0.24933355
0.08275418 0.094754554 0.24938822
0.12647775 0.090274937 0.23594873
0.12649673 0.090230405 0.23596378
0.12651876 0.090186968 0.23598042
0.12652496 0.090166315 0.2359875
0.12653632 0.090124123 0.23600449
0.1265486 0.090083249 0.23601827
0.12655929 0.090042405 0.23603316
0.12657583 0.089981459 0.23605429
0.12659146 0.089941472 0.23606624
0.12661533 0.089861244 0.23609434
0.12663077 0.089779191 0.23612747
-0.12553018 0.10686297 0.27803993
-0.12551078 0.10675664 0.27807909
-0.1255071 0.1067032 0.27808914
-0.12548842 0.10665716 0.27812922
-0.12546276 0.10654063 0.27820414
-0.12544948 0.10649267 0.27823234
-0.12543312 0.10644925 0.27826336
-0.12540814 0.10635878 0.27832848
-0.12539963 0.10634226 0.27835515
-0.12537265 0.10625267 0.27841029
0.00044502714 0.098784581 0.25769579
0.00047317171 0.09867388 0.25775683
0.00049358461 0.098621249 0.25779098
0.00051702664 0.098587699 0.2578167
0.00053592253 0.098529555 0.25784522
0.00054795406 0.098490156 0.25786468
0.00057144044 0.098389857 0.25791052
0.00058635435 0.098329373 0.25793758
0.00060800026 0.098291464 0.25795519
0.0006352106 0.098212086 0.25798482
0.00065751496 0.098110601 0.25802684
0.00069231208 0.097987473 0.25807092
0.00076348765 0.097797543 0.25814116
0.00081831974 0.09770371 0.25817496
0.082400061 0.095827289 0.24880266
0.082428284 0.095710516 0.24886176
0.082428284 0.095710516 0.24886179
0.08243262 0.095782697 0.24881025
0.082449332 0.095730431 0.24883373
0.082512692 0.095579267 0.2489333
0.082558334 0.095423348 0.24902731
0.082615204 0.095272012 0.24911988
0.12640899 0.09073405 0.23575127
0.12643613 0.090670168 0.23577605
0.12645774 0.090626873 0.23579246
0.12646401 0.090606503 0.23579952
0.12647584 0.090565033 0.23581742
0.12648854 0.090524904 0.23583169
0.12649967 0.090484805 0.23584713
0.12652396 0.090403527 0.23587857
0.12653093 0.090404414 0.23587516
0.12655833 0.090325505 0.23589833
0.12656911 0.090264656 0.23592474
-0.12561749 0.10728687 0.27785274
-0.12559226 0.10715535 0.27789423
-0.12556697 0.10703214 0.27794552
-0.12554449 0.10693477 0.27799982
-0.12553483 0.10691454 0.27802801
-0.1255216 0.10686684 0.27805614
-0.12549925 0.10680109 0.27810416
-0.12548308 0.10678829 0.27814996
-0.12547128 0.10680774 0.27818471
-0.12544504 0.10669196 0.27824929
0.00036550494 0.099162832 0.25752351
0.00038608784 0.099069737 0.2575736
0.0004231593 0.098981597 0.25762668
0.00045028032 0.098928444 0.25766015
0.00046927985 0.098871104 0.25768945
0.00048946339 0.098814927 0.25772107
0.00051218708 0.098736413 0.25775948
0.00052691938 0.098676033 0.25778684
0.0005546888 0.098576702 0.25783291
0.00057896355 0.098517001 0.25785655
0.00061416731 0.098414756 0.25789192
0.00064797496 0.098288827 0.25793654
0.00071429636 0.098107651 0.2579937
0.082289822 0.096255332 0.24857925
0.082304105 0.096196584 0.24860869
0.082285337 0.0963002 0.24855492
0.082283735 0.096348673 0.24852297
0.082308687 0.096266396 0.24855639
0.082359932 0.096141919 0.24862941
0.082409948 0.095957994 0.24872938
0.082468942 0.095810585 0.24882446
0.082510427 0.095679343 0.24889217
0.12633629 0.091210864 0.2355423
0.12635653 0.091144554 0.23556857
0.12638094 0.091102302 0.23558116
0.12639362 0.091060288 0.23559983
0.12640563 0.091020264 0.23561473
0.12642477 0.090959646 0.23563941
0.12643619 0.09092021 0.23565507
0.12645417 0.090880111 0.23566987
0.1264677 0.090861596 0.23567133
0.12648199 0.09080223 0.23569539
0.12650052 0.090744011 0.23571454
-0.12570821 0.10772593 0.27766138
-0.12568553 0.1075988 0.27770263
-0.12566851 0.1075245 0.277742
-0.12562312 0.10736795 0.27784097
-0.12559821 0.1073227 0.27788016
-0.12559129 0.10730042 0.27789599
-0.12557276 0.10725986 0.27793995
-0.12556089 0.1072763 0.27798113
-0.12553896 0.1072199 0.27803931
0.0002940791 0.099486612 0.2573882
0.00030909292 0.099452429 0.25740916
0.0003394495 0.099399082 0.25743672
0.00036596652 0.099323668 0.25747323
0.00039471389 0.099249579 0.25751108
0.00042466371 0.099173546 0.25754946
0.00044738894 0.099095196 0.25758812
0.00046197124 0.099034697 0.25761554
0.00049235456 0.098937213 0.25766349
0.00051346619 0.098876387 0.25768787
0.0005536399 0.098753542 0.25773987
0.00059381279 0.098608807 0.25779209
0.082139254 0.096842915 0.24829938
0.082163021 0.09678749 0.24832784
0.082170986 0.096808665 0.24830236
0.082178243 0.096805952 0.24829599
0.082204916 0.096726708 0.24833046
0.082238853 0.096621387 0.24838462
0.082266659 0.096519873 0.2484315
0.082339667 0.096290424 0.24856685
0.08237642 0.096188501 0.2486088
0.12625656 0.091700807 0.23530909
0.12627636 0.091613002 0.23534907
0.12629604 0.091568582 0.23536292
0.1263157 0.091506675 0.235388
0.1263279 0.091465548 0.23540458
0.12634189 0.091426589 0.23541878
0.12636138 0.091366619 0.23544386
0.12637213 0.091348216 0.23544848
0.12638985 0.091290534 0.23547237
0.12641278 0.091211006 0.23550673
0.12644544 0.091095239 0.23555046
0.12646689 0.090976983 0.23560315
-0.12582704 0.10830192 0.2774401
-0.12579881 0.1081737 0.27747762
-0.12577806 0.10807248 0.27752122
-0.1257493 0.10797721 0.2775721
-0.12572081 0.10786217 0.277641
-0.12568219 0.10778038 0.27771723
-0.12567191 0.1077875 0.27773961
-0.12564892 0.10771997 0.27778217
-0.12563404 0.10774545 0.27783731
-0.12561771 0.10771489 0.27788877
0.00021343984 0.099866763 0.25722685
0.00024420471 0.099796891 0.25726014
0.00027357129 0.099741772 0.25728589
0.00030378136 0.099666499 0.25731915
0.00031227997 0.09964899 0.25732878
0.00035037642 0.099551335 0.25737244
0.0003730391 0.099472903 0.25741005
0.00039332078 0.099413715 0.25743482
0.00041777029 0.099354647 0.25746244
0.00044759343 0.09923283 0.2575154
0.0004623172 0.099170156 0.25754207
0.082033701 0.097319148 0.24807626
0.082057402 0.097261362 0.24810031
0.0820738 0.097254574 0.24809405
0.082080722 0.097228795 0.24810326
0.0820916 0.097203404 0.24811022
0.082126386 0.097098537 0.24814866
0.082182541 0.096922398 0.24824201
0.082218133 0.096768059 0.24832197
0.12617251 0.092138074 0.23508689
0.12618527 0.092049576 0.23513149
0.12621275 0.091986015 0.23515493
0.12622486 0.091945127 0.2351715
0.12623924 0.091905415 0.23518807
0.12625897 0.091845796 0.2352117
0.12627791 0.091806456 0.23522422
0.12628928 0.091768369 0.23524123
0.12631513 0.091690443 0.23527478
0.12634112 0.091595784 0.23531756
0.12636974 0.09146224 0.23538327
0.1264106 0.091307357 0.23544581
-0.12592837 0.10879984 0.27724046
-0.12589438 0.10863966 0.27729115
-0.12588176 0.10861638 0.27730128
-0.12584452 0.10847658 0.27737847
-0.1258267 0.10840725 0.2774207
-0.12578847 0.10832915 0.27750441
-0.12575729 0.10827211 0.27757969
-0.12574024 0.10829151 0.27763095
-0.12571958 0.1082686 0.27769607
0.0001463698 0.10020893 0.25708163
0.00015483567 0.10018829 0.25709099
0.00018547394 0.10013899 0.2571125
0.00021153764 0.10004643 0.25715563
0.00023430733 0.099989429 0.25718087
0.00026139864 0.099911146 0.25721315
0.00028978175 0.099832341 0.25724706
0.00031794014 0.099791624 0.2572616
0.00035256712 0.099712595 0.25729448
0.00038043366 0.099611789 0.25733727
0.00039073525 0.09956786 0.25735492
0.081940874 0.097763158 0.24786782
0.081963725 0.097704068 0.24788991
0.081984691 0.097676575 0.24789983
0.081991717 0.097648032 0.2479139
0.082009286 0.097597674 0.24793027
0.082035512 0.097521491 0.24796516
0.082071789 0.097393893 0.24802037
0.082117535 0.097244158 0.24809021
0.12607357 0.092588097 0.23485157
0.12608935 0.092501335 0.23489614
0.12611505 0.092438035 0.23492093
0.12613335 0.092377491 0.23494801
0.12614484 0.092337258 0.23496543
0.12616739 0.09227968 0.23499012
0.12617807 0.092259876 0.23499648
0.1261971 0.092201322 0.23502257
0.12623334 0.092086896 0.235075
0.12627086 0.091918319 0.23516262
0.12629694 0.091823593 0.23520726
0.12633581 0.091652595 0.23528923
-0.12604162 0.10939002 0.27701506
-0.12599741 0.10917892 0.27707902
-0.12596555 0.10909444 0.27713782
-0.12594508 0.10902341 0.27717447
-0.12590964 0.10891189 0.27724451
-0.12588204 0.10888384 0.27732128
-0.12585624 0.10885622 0.27739277
-0.1258215 0.10880638 0.27747837
-0.12579495 0.10874241 0.27756757
6.2179512e-05 0.10058597 0.25693414
9.6502205e-05 0.10049807 0.25696552
0.00011936485 0.1004985 0.25695938
0.00014488594 0.10038516 0.25700605
0.00016157262 0.1003295 0.25703022
0.00018739163 0.10025077 0.25706336
0.00021326711 0.10017227 0.25709701
0.00024441292 0.10011185 0.25712103
0.00027443597 0.10004953 0.25714448
0.00029672947 0.099967025 0.25717795
0.00032180385 0.099883795 0.25721192
0.081882685 0.098127328 0.2476956
0.081889503 0.098122619 0.24769734
0.081914641 0.098042525 0.24773386
0.081921555 0.098017544 0.24774365
0.081921555 0.098017536 0.24774365
0.081962071 0.097889923 0.24780381
0.081983894 0.097815715 0.24783067
0.082013026 0.097714111 0.24787626
0.12599777 0.092952125 0.23465601
0.12601542 0.092867158 0.23470056
0.12603089 0.092806242 0.23472874
0.12604983 0.092762791 0.23474243
0.12606452 0.0927241 0.23475975
0.12607884 0.092686608 0.23477408
0.12608942 0.092666887 0.23478009
0.12610713 0.092628844 0.23479411
0.12614547 0.092496149 0.23485972
0.12618858 0.092311695 0.2349593
0.12622616 0.092181154 0.23501992
0.12627685 0.091991164 0.23511277
-0.12616117 0.10993982 0.27677128
-0.12612925 0.10980997 0.27683219
-0.12609583 0.1096959 0.27688184
-0.12607224 0.10962967 0.27692261
-0.12604119 0.10956474 0.27697447
-0.12601 0.10945541 0.27704984
-0.12598003 0.10942492 0.27711752
-0.12595017 0.10935199 0.27721518
-0.12590575 0.10929003 0.27732262
-0.12586685 0.1092192 0.27739304
2.0803525e-06 0.10090841 0.25679886
3.2304524e-05 0.10081985 0.2568312
4.3293185e-05 0.10083552 0.25681382
7.0416427e-05 0.10074378 0.25684884
8.7581626e-05 0.10068845 0.25687167
0.00011335159 0.10061014 0.25690526
0.0001391775 0.10053185 0.25693887
0.00016498758 0.1004705 0.25696501
0.00019679088 0.10038918 0.25699914
0.00021684075 0.10032532 0.25702584
0.00025018709 0.10022368 0.25707051
0.08181826 0.098494992 0.247528
0.081835113 0.098464556 0.24754342
0.081849836 0.098411411 0.24756527
0.081864916 0.098358698 0.24758811
0.081864901 0.098358713 0.24758811
0.081885509 0.098282523 0.2476254
0.081896499 0.098232925 0.24764529
0.08193212 0.098107658 0.24769995
0.12591763 0.093333282 0.23445033
0.12593165 0.093231678 0.23450959
0.12594949 0.093188517 0.2345235
0.12596941 0.093129173 0.23454988
0.12598196 0.093089804 0.23456725
0.1259955 0.093068764 0.23456769
0.12600002 0.093069509 0.23456313
0.12601747 0.093031608 0.23457657
0.12605387 0.092919312 0.23462841
0.12609473 0.092735887 0.23472963
0.12612955 0.092625611 0.23477958
-0.12624605 0.11035421 0.27657673
-0.1262286 0.11028331 0.27661401
-0.12620214 0.11024405 0.27664688
-0.12616713 0.11013401 0.27671635
-0.12613563 0.1100465 0.27676773
-0.12611003 0.10998391 0.27683038
-0.12607969 0.10992943 0.27690241
-0.12604639 0.10990918 0.27698565
-0.12599754 0.10980178 0.27711546
-0.12595369 0.10970464 0.27718458
-4.870888e-05 0.10119119 0.25666952
-3.3075627e-05 0.10114142 0.25668633
-2.5610716e-05 0.1011763 0.25665572
-1.1331307e-05 0.10112063 0.25667778
1.6772306e-05 0.1010258 0.25671709
4.3627973e-05 0.10094816 0.25675136
6.522215e-05 0.10088949 0.25677842
9.0486072e-05 0.10082838 0.25680634
0.00011258175 0.10076688 0.25683579
0.00014215718 0.10066596 0.25688055
0.00017840623 0.10057961 0.25691539
0.081759453 0.098838292 0.24736671
0.081768163 0.098855957 0.24735653
0.08178252 0.098802753 0.2473774
0.081786111 0.098800056 0.24736983
0.081802346 0.098747216 0.24739161
0.081816696 0.098672926 0.24743327
0.081827976 0.098623805 0.2474542
0.081842229 0.098549902 0.2474864
0.12583567 0.093710072 0.23424639
0.12585355 0.093589053 0.23431446
0.12587242 0.093546078 0.23432675
0.12588567 0.093506925 0.2343435
0.12589251 0.093488239 0.23435104
0.12591355 0.093431003 0.23437497
0.12592526 0.093410186 0.23437594
0.12593687 0.093390629 0.23438171
0.12596013 0.093336888 0.23439927
0.12598377 0.093211621 0.23447637
-0.12638175 0.11091954 0.27630398
-0.12634949 0.11087689 0.27633905
-0.12631112 0.11078806 0.27640048
-0.1262822 0.11069796 0.27645066
-0.12626456 0.11067723 0.27649999
-0.12623586 0.11061434 0.27654526
-0.12619907 0.11050739 0.27661386
-0.12616949 0.11047892 0.27669179
-0.1261365 0.11043391 0.2767711
-0.12607889 0.11029865 0.27687836
-0.00012213395 0.10157265 0.25647753
-0.00010208669 0.10156606 0.25647128
-9.0832531e-05 0.10151116 0.25649497
-7.616201e-05 0.10145666 0.25651747
-5.6821475e-05 0.10138039 0.25655136
-3.6865731e-05 0.10134118 0.25656685
-8.3863124e-06 0.10128201 0.25659233
2.4491839e-05 0.10118274 0.25664058
4.7303081e-05 0.10112093 0.25667045
7.7582859e-05 0.10102063 0.25671768
0.081699006 0.099155128 0.24722981
0.081709996 0.099191822 0.24719989
0.081716925 0.099163428 0.24720907
0.081733175 0.099109821 0.24722688
0.081737623 0.099109784 0.24721836
0.081750371 0.099035926 0.24725987
0.081762038 0.098987423 0.24728219
0.081776671 0.098914169 0.24731582
0.12581497 0.093801945 0.23419629
0.12578483 0.093924053 0.23412471
0.12580501 0.093866751 0.23414917
0.12581755 0.093828157 0.23416664
0.1258315 0.093805909 0.23416868
0.12584454 0.093769446 0.23418416
0.12584729 0.093785964 0.234166
0.12586486 0.093751006 0.23417614
0.12588307 0.093680434 0.23421521
-0.12648483 0.11150175 0.27608153
-0.12643678 0.11139146 0.27613741
-0.12640044 0.11132541 0.27618432
-0.12636785 0.11121272 0.27624509
-0.12633315 0.11112383 0.27630657
-0.12631889 0.11112984 0.27632728
-0.12630329 0.11113689 0.27637586
-0.12626767 0.11108497 0.27644914
-0.1262103 0.11094915 0.27654323
-0.12616549 0.11080378 0.27662101
-0.00017434961 0.10196739 0.25627348
-0.00015775346 0.10189644 0.25630534
-0.00014595618 0.1018609 0.25631952
-0.00013205723 0.1018071 0.25634253
-0.00011555653 0.10176784 0.25635886
-9.1442147e-05 0.10167457 0.25640342
-8.0635444e-05 0.1016532 0.2564128
-4.555317e-05 0.10153301 0.25647464
-2.4329212e-05 0.10147023 0.25650415
-2.4459182e-06 0.10142729 0.25652707
0.081629768 0.099575259 0.24704055
0.081634857 0.099544927 0.24705122
0.081642106 0.099577449 0.24700993
0.081648901 0.099549152 0.24701874
0.081664473 0.099495091 0.24703459
0.081671 0.099469796 0.24704368
0.081676826 0.099445328 0.24705505
0.081702419 0.099321239 0.24711753
0.081717044 0.099243082 0.24715045
0.12578966 0.093925327 0.23415738
0.12569757 0.094291896 0.23391698
0.12570517 0.094274148 0.23392582
0.12572764 0.094218507 0.23395067
0.1257492 0.094162643 0.23397557
0.1257633 0.094122209 0.23398854
0.12576587 0.094141126 0.2339724
0.12577805 0.09412457 0.23397589
-0.12658224 0.11201978 0.27585706
-0.12653226 0.11189151 0.27590868
-0.12651393 0.11184938 0.27593422
-0.12645793 0.11171631 0.27603665
-0.12642686 0.11165163 0.27608266
-0.12639272 0.11163728 0.27614322
-0.12638304 0.11164293 0.27617311
-0.12634557 0.11156438 0.27622423
-0.12630282 0.11144593 0.27629104
-0.00030190364 0.10236498 0.25605416
-0.00021363789 0.10222663 0.25613889
-0.00020158105 0.10217344 0.25616279
-0.00018725483 0.10213874 0.25617632
-0.00017202184 0.1020823 0.25620419
-0.00014754372 0.10199006 0.2562483
-0.0001331298 0.10198668 0.25625035
-0.00010919023 0.10192424 0.25628155
-8.2434424e-05 0.10186171 0.25631562
0.081567548 0.099924497 0.24686158
0.081572615 0.099958412 0.24681528
0.081579477 0.099930465 0.24682426
0.081595503 0.099877313 0.24684165
0.08160232 0.099852465 0.24685171
0.081608325 0.099828266 0.24686369
0.081634603 0.099705465 0.24692839
0.081654586 0.099600688 0.24697497
0.12560509 0.094657987 0.23371078
0.12561795 0.0946206 0.23372893
0.12564112 0.094565995 0.23375504
0.1256611 0.094490252 0.2337925
0.12567624 0.094472013 0.23379424
0.12568247 0.094489448 0.2337755
0.12571488 0.094386049 0.2338402
-0.12668349 0.11264084 0.27561429
-0.12666073 0.11259386 0.27565384
-0.1266252 0.11248195 0.27571484
-0.12660457 0.1124404 0.27574691
-0.12655891 0.11236101 0.27579105
-0.12652962 0.112253 0.27585191
-0.12648319 0.11215315 0.27592635
-0.12646696 0.11211076 0.27595142
-0.12642434 0.11199185 0.27601346
-0.12638669 0.11191463 0.27605224
-0.00038257212 0.10276221 0.255858
-0.00032301285 0.10268057 0.25591147
-0.00025690813 0.10255172 0.2559782
-0.00023768155 0.10247749 0.25601193
-0.00021883755 0.10242148 0.25603941
-0.00019526173 0.10238394 0.25605956
-0.00018338644 0.10233981 0.25608122
-0.00015358193 0.10229548 0.25611052
-0.00010177057 0.10229749 0.25612319
0.081496872 0.10030127 0.24666324
0.081500448 0.10033365 0.24661244
0.081507392 0.10030604 0.24662171
0.081507392 0.10030606 0.24662173
0.081524067 0.10025406 0.24664117
0.081537552 0.100206 0.24666537
0.081559204 0.10011358 0.24672352
0.081589416 0.099981099 0.24678028
0.12550949 0.095000267 0.23351456
0.12553141 0.094946563 0.23354222
0.12555291 0.094893068 0.23357089
0.12557842 0.094818942 0.2336072
0.12559983 0.094780482 0.23361862
0.12559584 0.094816178 0.23359391
0.12561211 0.094782382 0.23361112
-0.12674184 0.11305342 0.27542469
-0.12672248 0.11302732 0.2754513
-0.12669647 0.11293721 0.27550086
-0.12667908 0.11291555 0.27551076
-0.12665088 0.11283442 0.27556449
-0.12662177 0.11275251 0.27561659
-0.12659307 0.1126966 0.27566034
-0.12655616 0.11257644 0.27573216
-0.12651828 0.11248183 0.27578542
-0.12646873 0.1123649 0.27583918
-0.0005801873 0.10332412 0.25557113
-0.00050021749 0.1032076 0.25563443
-0.00041451905 0.10307831 0.25571379
-0.00035179005 0.10297023 0.25577858
-0.00030495218 0.10291408 0.25581273
-0.00026474302 0.10283855 0.25585037
-0.00024111863 0.10277801 0.25588155
-0.00022818877 0.10273385 0.25590476
-0.00018620407 0.10272297 0.25591898
-0.00013941042 0.10272944 0.25593111
0.081401899 0.10080893 0.24635747
0.081417121 0.10072935 0.24639472
0.081442669 0.10065117 0.24642514
0.081451334 0.10062714 0.24643663
0.08146517 0.10057961 0.24646209
0.081500031 0.10043146 0.24654151
0.081522763 0.10032989 0.24659203
0.12560286 0.094817489 0.23369063
0.12538959 0.095399305 0.23327212
0.12541687 0.095346272 0.23329483
0.12543429 0.095341235 0.23328567
0.12546232 0.095292427 0.23331191
0.12547098 0.09529154 0.23330545
0.12549883 0.09524361 0.23333073
0.12553306 0.09515477 0.23337539
-0.12680368 0.11347701 0.27519709
-0.12678155 0.11340833 0.27523863
-0.1267647 0.11338632 0.27524748
-0.12674929 0.11336284 0.27525604
-0.12672304 0.11328376 0.27531374
-0.12669599 0.113204 0.27537006
-0.12667289 0.11310591 0.27544016
-0.12662736 0.11297427 0.27553135
-0.12659335 0.11285464 0.27559298
-0.12655397 0.11276197 0.27564615
-0.00065448135 0.10382532 0.25537834
-0.00057617115 0.10368454 0.25545427
-0.00052593905 0.1035833 0.25549781
-0.0004494829 0.10343299 0.25557473
-0.00039541276 0.10340127 0.25560287
-0.00033672393 0.10329406 0.2556574
-0.00028754081 0.10323238 0.25568751
-0.00024232779 0.10320117 0.2557101
-0.00020713668 0.10319313 0.25572228
-0.00015969272 0.10321604 0.25572115
0.081316262 0.1012269 0.24612652
0.08134184 0.10109585 0.24618888
0.08136899 0.10102166 0.24622175
0.081376471 0.10099801 0.24623421
0.08139281 0.10095152 0.24625872
0.081429079 0.10079949 0.24633294
0.081450008 0.10070232 0.24638768
0.12533446 0.095555797 0.2332311
0.12525724 0.095820166 0.23304567
0.12526336 0.095868863 0.23298427
0.12528944 0.095830999 0.23299056
0.12529615 0.095828503 0.23298298
0.12533432 0.095813267 0.23297535
0.12537265 0.095768347 0.23299651
0.12539999 0.09572462 0.23302338
-0.12687404 0.11389831 0.27495182
-0.12684877 0.11380816 0.27499813
-0.12682262 0.11372516 0.27505159
-0.12680648 0.11370722 0.27506366
-0.12678167 0.11362827 0.27512127
-0.12675941 0.11357749 0.27517912
-0.12674285 0.1135032 0.27524531
-0.12670578 0.11339261 0.27532595
-0.1266775 0.11327382 0.27539042
-0.12663959 0.11320366 0.27543142
-0.00072678691 0.10432632 0.25521424
-0.00066723861 0.10417394 0.2552819
-0.00060714094 0.10405782 0.25533062
-0.00055299554 0.10401706 0.25535214
-0.00050302746 0.103972 0.25537792
-0.00041227488 0.10386021 0.25541842
-0.00036072009 0.10380416 0.255454
-0.00030509118 0.10373594 0.25549623
-0.00025139147 0.10367595 0.25553203
0.081227273 0.10161611 0.24591944
0.081262298 0.10148975 0.24598147
0.081289649 0.10141659 0.2460154
0.081297062 0.10139305 0.24602784
0.081318453 0.10132024 0.24606514
0.081345327 0.10121925 0.24611142
0.081374876 0.10112255 0.24615793
0.12502824 0.096461855 0.23276211
0.12506682 0.096414268 0.23275906
0.12508877 0.096403278 0.2327399
0.12510832 0.096434094 0.23268805
0.12514828 0.096376352 0.23268422
0.12517409 0.096392415 0.23265779
0.12519144 0.096393287 0.23264304
0.12521528 0.096364208 0.23264462
0.12526251 0.096274152 0.23268674
-0.12696095 0.11434173 0.27470663
-0.12693644 0.11427166 0.27474007
-0.12691493 0.11421188 0.27478004
-0.12689431 0.11414327 0.2748127
-0.12688239 0.11410887 0.27484429
-0.12685616 0.11403047 0.27490091
-0.12683326 0.11395629 0.27495953
-0.12680241 0.11387157 0.27504596
-0.12677163 0.11380086 0.27514023
-0.12674484 0.11370145 0.27518943
-0.00077010505 0.10485472 0.25503075
-0.00070953218 0.10474593 0.25507858
-0.00067046587 0.10463029 0.25512269
-0.00062074309 0.10464426 0.25510469
-0.00058519014 0.10458366 0.25512683
-0.00051966915 0.10444306 0.25517339
-0.00045892227 0.10436629 0.25522172
-0.00039061077 0.10426992 0.2552813
-0.00032829755 0.10417727 0.25535199
0.081129521 0.10205474 0.24569529
0.081142738 0.10200434 0.24571985
0.08118391 0.10188226 0.24578127
0.08120127 0.10183319 0.24580358
0.081220023 0.10178784 0.24582794
0.081236079 0.10174181 0.24585232
0.081268579 0.10161597 0.24591298
0.081297696 0.10151961 0.24595873
0.1249165 0.097005904 0.23247759
0.12494053 0.097006679 0.23245621
0.12497411 0.096981421 0.23244861
0.12499757 0.096924856 0.23244882
0.12503026 0.096873656 0.23244546
0.12503596 0.096920416 0.23241475
0.12507713 0.096876547 0.23240998
0.1251078 0.096832454 0.23240873
0.125135 0.096753761 0.23243764
0.12518132 0.096626699 0.23249391
-0.12701297 0.11467904 0.27450874
-0.12700149 0.11465438 0.2745249
-0.12697881 0.11461074 0.27455747
-0.12695965 0.11457134 0.27459082
-0.1269414 0.11451492 0.27463481
-0.12693575 0.11449885 0.27465177
-0.12690344 0.11441375 0.2747412
-0.12687153 0.11430366 0.27482557
-0.12683877 0.11421873 0.27493617
-0.12681884 0.11414817 0.27498165
-0.00082602282 0.10540613 0.25478613
-0.00078395871 0.1052647 0.25484586
-0.0007542097 0.10520026 0.2548621
-0.00071707868 0.10520568 0.25483817
-0.00066263205 0.10510772 0.2548807
-0.00061262288 0.10499345 0.25494862
-0.00055947353 0.10489645 0.25500894
-0.00048528559 0.10479823 0.25508094
-0.00042979475 0.10470001 0.25515541
0.081047565 0.10244086 0.24550231
0.081062347 0.1023915 0.24552707
0.081080049 0.10234357 0.24555109
0.08110638 0.10226985 0.24558482
0.081126161 0.10222524 0.24560881
0.081143357 0.10218015 0.24563307
0.081183255 0.10206049 0.24569243
0.081219181 0.1019401 0.24575219
0.1248218 0.097557552 0.23222306
0.12484425 0.097528532 0.23222256
0.12486952 0.097477004 0.23224398
0.12488103 0.097414494 0.23225474
0.12491454 0.097373836 0.23224978
0.12495431 0.097312145 0.23225096
0.12497181 0.097311579 0.23222834
0.12499994 0.09725187 0.23223582
0.12504421 0.097145826 0.23226337
0.12509316 0.097016208 0.23230496
0.12514049 0.096877433 0.23236097
-0.12711009 0.11517081 0.27426255
-0.12708905 0.11510181 0.27428958
-0.12707227 0.11506017 0.27431875
-0.12704679 0.11499466 0.27434978
-0.12702049 0.11491816 0.2744078
-0.12701063 0.11494815 0.27443293
-0.12698273 0.1148287 0.27451357
-0.12696722 0.11483719 0.27456379
-0.12693846 0.11477186 0.2746706
-0.12693457 0.11484106 0.27470559
-0.12691781 0.11474796 0.27476308
-0.00092864438 0.10596185 0.25450718
-0.00088575104 0.10589055 0.25454637
-0.00085577485 0.10578491 0.25458995
-0.00083941658 0.10579271 0.25457406
-0.00080081046 0.10575175 0.25458658
-0.00078295165 0.10568445 0.25461689
-0.00070927874 0.10555106 0.2547023
-0.00064498262 0.10536734 0.25481299
-0.00058197748 0.10527301 0.25489065
-0.00051413418 0.1051759 0.2549701
0.08095175 0.10284863 0.24529412
0.080965392 0.10279977 0.24531937
0.080974944 0.10277613 0.2453316
0.080990702 0.10275187 0.24534227
0.081007682 0.10272768 0.24535261
0.081026837 0.10265645 0.24538834
0.081054673 0.10256507 0.2454351
0.081094578 0.10244662 0.24549507
0.081130505 0.10232747 0.24555539
0.12474326 0.098004393 0.2320331
0.1247656 0.097979382 0.23204176
0.12479082 0.097902812 0.23206995
0.12481062 0.097861432 0.23207985
0.12483551 0.097819686 0.23207322
0.12484971 0.097801827 0.23206811
0.12487102 0.097753339 0.2320623
0.12491838 0.097668238 0.23205774
0.12495033 0.09759108 0.23207368
0.12499855 0.097468771 0.23211008
0.1250446 0.097361438 0.23214367
-0.12718031 0.11554001 0.27408621
-0.12715927 0.11549542 0.27411282
-0.12713537 0.11542895 0.27414134
-0.12711753 0.11533457 0.27417806
-0.12709397 0.11529443 0.27421546
-0.12707655 0.11528149 0.27427009
-0.12705967 0.11534041 0.2743237
-0.12703823 0.11528818 0.27440864
-0.12705822 0.11543036 0.27444571
-0.12703608 0.11537108 0.27456251
-0.12703143 0.11537132 0.27459651
-0.00099786732 0.10642853 0.25426286
-0.00096324662 0.10634758 0.25430253
-0.00097102631 0.10639413 0.25427163
-0.0009305242 0.10634319 0.25430471
-0.00091028929 0.10627555 0.25433451
-0.00087302725 0.10617042 0.25439033
-0.0008112081 0.10600778 0.25448835
-0.00073229155 0.10582507 0.25460657
-0.00067065319 0.10570022 0.25469494
0.080862731 0.10325328 0.24507996
0.08087635 0.10320459 0.24510483
0.080892652 0.10315643 0.24512942
0.080897637 0.10317882 0.24511191
0.08091718 0.10313077 0.24513346
0.080928244 0.1030621 0.24517307
0.080955394 0.10299252 0.24520795
0.081001759 0.10285225 0.24527885
0.081030853 0.10275871 0.24532634
0.12466619 0.098453782 0.23185386
0.12469329 0.098410726 0.23186184
0.12472471 0.098332904 0.23189043
0.12473737 0.098339297 0.23188797
0.12476033 0.098299228 0.23189022
0.12477137 0.098249018 0.23190404
0.12479402 0.098215826 0.23189303
0.12482137 0.098107032 0.23190866
0.12486194 0.098001651 0.23193361
0.1249163 0.097844608 0.23197068
0.12495741 0.097760089 0.23199238
0.12500325 0.097645558 0.23202518
-0.12724276 0.11594091 0.27392671
-0.12722354 0.11587024 0.2739549
-0.12719671 0.11577609 0.27400488
-0.1271753 0.11572966 0.27402687
-0.1271639 0.11571079 0.27405584
-0.12715381 0.11576041 0.27407292
-0.12713033 0.11576274 0.2741603
-0.12714919 0.1158237 0.27422291
-0.12713569 0.11584073 0.27432439
-0.12711301 0.11578331 0.27444607
-0.0010914147 0.10697041 0.2539905
-0.0010732134 0.10693148 0.25400978
-0.001046434 0.10686821 0.25404096
-0.0010262079 0.1068254 0.25406086
-0.00099856965 0.10673696 0.25410277
-0.00094943558 0.10661566 0.25417525
-0.00089816953 0.10642201 0.25428677
-0.00082092796 0.10625526 0.25439018
-0.00076485518 0.10609821 0.25448054
0.080769226 0.1036518 0.24486044
0.080785275 0.10360423 0.24488381
0.08080145 0.10355613 0.24490777
0.080811791 0.103533 0.24491787
0.080829039 0.10348547 0.24494065
0.080846816 0.10343856 0.24496496
0.080869399 0.10336781 0.24499933
0.080895089 0.1032721 0.24504778
0.080933057 0.10315673 0.24510539
0.12459989 0.098880343 0.23168549
0.12463186 0.098788224 0.23173007
0.12464607 0.098806888 0.23171757
0.12466899 0.09876626 0.23172647
0.1246926 0.098714627 0.23172949
0.12471015 0.098647743 0.23175386
0.12472644 0.098598264 0.23176105
0.12474514 0.098522551 0.23176223
0.12476923 0.098428033 0.23178057
0.12481939 0.098305911 0.23181032
0.12486189 0.098185077 0.23183861
0.12490416 0.098070286 0.23186931
-0.12730822 0.11637368 0.27376786
-0.12728681 0.11628606 0.27380815
-0.12726945 0.11621898 0.27383602
-0.12725542 0.11621952 0.27386203
-0.12722909 0.11613498 0.27390593
-0.1272264 0.11621135 0.27391571
-0.12721238 0.11619242 0.27396265
-0.12720457 0.11618362 0.27408525
-0.1271867 0.11616854 0.27421027
-0.12716748 0.11611263 0.27433297
-0.0011841842 0.10746554 0.25374749
-0.0011523442 0.10737919 0.2537874
-0.0011146606 0.10731735 0.25381556
-0.0011041532 0.1072718 0.25383693
-0.0010763921 0.10718317 0.25387934
-0.0010382506 0.10707727 0.25393704
-0.00098731287 0.10688242 0.25404835
-0.00092114095 0.10675189 0.25412464
-0.00086920708 0.10657284 0.25422484
0.080656871 0.10407874 0.24463014
0.08066716 0.10405052 0.24463983
0.080682188 0.10402336 0.24464734
0.080693804 0.10399776 0.24465734
0.080719411 0.10392889 0.24469274
0.080736622 0.10388163 0.24471545
0.080759548 0.10380945 0.24475157
0.080787539 0.10371449 0.24479899
0.080802128 0.10366896 0.24482125
0.080836535 0.10355391 0.2448813
0.12452712 0.099306814 0.23152889
0.12456445 0.099228635 0.23156756
0.12457617 0.099218547 0.23155893
0.12459381 0.099180289 0.23157617
0.12462522 0.099094354 0.23159766
0.1246295 0.099078268 0.23159571
0.12465205 0.098996244 0.23162113
0.12467393 0.098931283 0.23163496
0.12469288 0.098835729 0.2316606
0.12472292 0.098738715 0.23168266
0.12476084 0.098640919 0.23169258
0.12481169 0.098467678 0.2317362
-0.1273932 0.11692381 0.27357164
-0.127371 0.11680879 0.2736164
-0.12734881 0.11670365 0.27365199
-0.1273421 0.11668097 0.27366093
-0.1273192 0.11661912 0.2737152
-0.12730102 0.11658317 0.27374959
-0.12729421 0.11661618 0.27376017
-0.12728606 0.11660266 0.27377898
-0.12725686 0.1165361 0.27393779
-0.12724313 0.11646431 0.27409402
-0.12721324 0.1163956 0.2742295
-0.0013165348 0.10802887 0.25348717
-0.0012756328 0.10794037 0.25352153
-0.0012427921 0.10785249 0.25355923
-0.0012039143 0.10778818 0.25358301
-0.0011642514 0.10767986 0.25363621
-0.0011351728 0.10759189 0.25367966
-0.0011164655 0.10752441 0.25371251
-0.0010778323 0.10734623 0.25380906
-0.0010231064 0.10726061 0.25386056
-0.00098412507 0.10712438 0.25393474
0.080574095 0.10443053 0.24443856
0.080581494 0.10442274 0.24443056
0.080576174 0.10444612 0.2444185
0.080597453 0.10437404 0.24445307
0.08062648 0.10430308 0.24448617
0.080649264 0.10423072 0.24452178
0.080662243 0.10418228 0.24454448
0.080696575 0.10408814 0.24458984
0.080711134 0.10404265 0.24461244
0.080741942 0.1039505 0.2446585
0.12443271 0.099816754 0.23134595
0.12445426 0.099732354 0.2313797
0.12450019 0.099628866 0.23141022
0.12452517 0.099559776 0.23143935
0.12454654 0.099476844 0.23146127
0.12456182 0.099425018 0.23147374
0.12458549 0.099343151 0.23149647
0.12460154 0.099279016 0.23151597
0.12462102 0.099199101 0.231535
0.12464178 0.099104077 0.23156404
0.12467735 0.099000037 0.23157947
0.12471017 0.098918989 0.23159306
-0.12746248 0.11736003 0.27337268
-0.12744886 0.11731195 0.27338845
-0.1274275 0.11722459 0.2734316
-0.12742089 0.11717704 0.2734476
-0.12740041 0.11709414 0.27349582
-0.12739004 0.11705315 0.27351815
-0.12736686 0.11700091 0.27357122
-0.12736149 0.11703424 0.27357933
-0.12734616 0.11698116 0.27362314
-0.12732218 0.11692214 0.2737546
-0.12727614 0.11679439 0.27398631
-0.12724051 0.11685848 0.27410448
-0.0013958837 0.10845931 0.25328368
-0.00136518 0.1083933 0.25330743
-0.0013335951 0.10832633 0.2533313
-0.0012949986 0.108239 0.2533668
-0.001254968 0.1081291 0.25341719
-0.0012257885 0.10804044 0.25345981
-0.0011831786 0.10790771 0.25352618
-0.0011574437 0.10779469 0.25358415
-0.0011270049 0.10772613 0.25361791
-0.0010946657 0.10765941 0.25365299
0.080480233 0.10484243 0.24423374
0.080496937 0.10478633 0.24425168
0.080506533 0.1047581 0.24425833
0.080522396 0.10470938 0.24428008
0.080530293 0.10468455 0.24429107
0.080537505 0.10463413 0.24431682
0.080560751 0.10456097 0.24434939
0.080578037 0.10451202 0.24437203
0.080595665 0.10446598 0.24439241
0.080607958 0.10444398 0.24440008
0.080639422 0.10435092 0.24444453
0.12435649 0.10010583 0.23122269
0.12438525 0.10001995 0.23126109
0.12441728 0.099934936 0.23129918
0.12442586 0.099899106 0.23131526
0.12445671 0.099814072 0.23134167
0.1244858 0.099729292 0.23136504
0.12450334 0.099678561 0.23138322
0.12453191 0.099579111 0.23140031
0.12455084 0.099515721 0.23142201
0.12457351 0.099435717 0.23143861
0.12458751 0.099391468 0.23144129
0.12461268 0.099338509 0.23144241
-0.12753117 0.11776215 0.27316114
-0.12750769 0.11769944 0.27319852
-0.12749718 0.11771787 0.27318823
-0.12748189 0.11762659 0.27322352
-0.12747243 0.11755561 0.27324778
-0.12745732 0.11749311 0.2732839
-0.12743992 0.11743552 0.27332309
-0.12741742 0.1173583 0.27337876
-0.12741239 0.11737297 0.27340078
-0.12740183 0.11734813 0.27344859
-0.12736867 0.11723975 0.27359399
-0.12730944 0.11723927 0.27385604
-0.12728678 0.11729302 0.27401125
-0.0014709096 0.1088875 0.25306988
-0.0014405169 0.10880119 0.25310957
-0.0014018986 0.10871435 0.25314429
-0.0013771735 0.10864736 0.25317225
-0.001346827 0.1085583 0.25321147
-0.0013104746 0.10844608 0.25326309
-0.0012667952 0.10831162 0.25332674
-0.0012497972 0.10824324 0.25336084
-0.0012131751 0.10817458 0.25338793
-0.0011769804 0.10812429 0.2534017
0.080454521 0.10500459 0.24413875
0.080467798 0.10495548 0.24416056
0.080484949 0.10488288 0.24419846
0.080497891 0.10480908 0.24423692
0.080501668 0.10478369 0.24424812
0.080516063 0.10473455 0.24426968
0.080521621 0.10473269 0.24426493
0.080519699 0.10475652 0.24425055
0.080536418 0.10470788 0.24427153
0.080551498 0.10468645 0.24427921
0.12430168 0.10030019 0.23113634
0.1243282 0.10023187 0.23116498
0.124364 0.10012899 0.23121287
0.12436932 0.10011096 0.23121941
0.12439708 0.10004287 0.23124939
0.12440824 0.1000072 0.23126365
0.12443446 0.099939145 0.23128279
0.12445985 0.099869937 0.23130549
0.12447106 0.099835426 0.23131166
0.12449601 0.099754483 0.2313228
0.12450457 0.099740647 0.23132125
0.12452818 0.099665359 0.23132266
-0.12759876 0.11817163 0.27292642
-0.12757897 0.11812913 0.27294827
-0.12755173 0.11805142 0.2729995
-0.12754545 0.118022 0.2729995
-0.12752672 0.11793943 0.27304503
-0.12751845 0.11789432 0.27306339
-0.12751429 0.11787059 0.27307081
-0.12749302 0.11779265 0.27312553
-0.12747641 0.11773512 0.27316767
-0.12745412 0.11764234 0.27324235
-0.12744185 0.11764741 0.2732954
-0.12742169 0.11757453 0.273417
-0.12735383 0.11758972 0.27372369
-0.12732881 0.11765019 0.2738733
-0.0015069917 0.10920394 0.25288591
-0.0014813835 0.10906899 0.25296172
-0.0014505317 0.10898137 0.25300345
-0.0014278331 0.10891435 0.25303304
-0.0014013083 0.10884829 0.25306186
-0.0013838611 0.10880324 0.25308034
-0.0013561528 0.10873519 0.25310847
-0.0013294748 0.10868674 0.25312221
-0.0012917207 0.10861441 0.25314474
-0.001260807 0.10854612 0.25317246
0.080414504 0.10519991 0.24403873
0.080429122 0.10512687 0.24407728
0.080447726 0.10505491 0.24411449
0.080458917 0.10500605 0.24413875
0.080477543 0.10493215 0.24417216
0.08048404 0.10490715 0.24418275
0.080484048 0.10490715 0.24418277
0.080483422 0.10493048 0.24416792
0.080489792 0.1049294 0.24416518
0.080489784 0.10492941 0.24416515
0.1242554 0.10049807 0.23105069
0.12428405 0.10041141 0.23108806
0.12430019 0.10035874 0.23111106
0.12431641 0.10030528 0.2311326
0.12432663 0.10026892 0.23114647
0.12435754 0.1002018 0.23117669
0.1243629 0.10018349 0.23118342
0.1243873 0.10013252 0.23120534
0.12439426 0.10011441 0.23121172
