# .PCD v0.7 - Point Cloud Data file format
VERSION 0.7
FIELDS x y z
SIZE 4 4 4
TYPE F F F
COUNT 1 1 1
WIDTH 1383
HEIGHT 1
VIEWPOINT 0 0 0 1 0 0 0
POINTS 1383
DATA ascii
0.097393446 0.080403276 0.20851848
0.0974067 0.080351353 0.20852977
0.097423233 0.080296136 0.20855434
0.097456262 0.080161892 0.20856003
0.097478345 0.080075465 0.20857336
0.097508542 0.079971589 0.20858465
0.097542562 0.079831697 0.20860362
0.097591154 0.079622321 0.20862736
0.097603284 0.079605527 0.20858362
-0.16921248 0.10412859 0.2740145
-0.16910595 0.10432371 0.27423617
-0.16896656 0.10464965 0.27452657
-0.16882552 0.10493205 0.27481687
-0.16869879 0.1051086 0.2750681
-0.16860297 0.10529057 0.27526784
-0.16847125 0.1055157 0.27553493
-0.16831799 0.10574332 0.27583554
-0.1681675 0.10602387 0.27613664
-0.16802458 0.10626864 0.27641582
-0.16788024 0.10658794 0.27671659
-0.1677354 0.10677139 0.2769998
-0.16759534 0.10689226 0.27726784
-0.16744711 0.10709417 0.27755883
-0.16727763 0.10725851 0.27788782
-0.16713126 0.10742372 0.27817726
-0.16692224 0.10756723 0.27857319
-0.16669264 0.10778639 0.27901652
-0.16639337 0.10800581 0.27956775
-0.16608085 0.10823864 0.28014335
-0.16575804 0.10857653 0.28073299
-0.16545339 0.10878132 0.2812669
-0.16517156 0.10892786 0.28175077
-0.16496778 0.10908896 0.28210536
-0.16469346 0.10922606 0.28258821
-0.16446409 0.10938662 0.28299618
-0.16419028 0.10953872 0.28348356
-0.16389866 0.10977091 0.28401485
-0.16358112 0.11004592 0.28459141
-0.16319463 0.11034612 0.28527284
-0.16279308 0.11069328 0.28594384
-0.1625095 0.11089177 0.28642237
-0.16224141 0.11111147 0.28689197
-0.16205738 0.11121935 0.28720701
-0.16189773 0.111271 0.28746489
-0.1617303 0.1113262 0.28774473
-0.16158065 0.11134035 0.28799063
-0.16146477 0.11134221 0.28818485
-0.16132142 0.11140619 0.28842336
-0.16113421 0.11152564 0.28872582
-0.16091937 0.11163286 0.28908437
-0.16071327 0.11185063 0.28943118
-0.16052383 0.1119767 0.28975874
-0.16036189 0.11210477 0.29003444
-0.16021053 0.11221792 0.29027805
-0.1600987 0.11221913 0.29045951
-0.15998696 0.11223784 0.29063687
-0.017983429 0.10020731 0.260185
-0.017793749 0.10004067 0.26021552
-0.017572908 0.099860974 0.26023835
-0.017363302 0.099670291 0.26027066
-0.017198268 0.099567898 0.26028824
-0.017007789 0.099457465 0.26031214
-0.016864918 0.099344857 0.26038328
-0.016727449 0.09925814 0.26041928
-0.016566394 0.099161379 0.26044175
-0.016370252 0.099057205 0.26040587
-0.016123539 0.0989144 0.26036564
-0.015854081 0.098783441 0.26030841
-0.01562799 0.09870711 0.26023087
-0.015418398 0.098646529 0.26016569
-0.015156528 0.098578855 0.26009083
-0.014913348 0.098550007 0.26002666
-0.014645212 0.098472238 0.25997329
-0.014310196 0.098450765 0.25985533
-0.013842555 0.098397113 0.25967953
-0.013116572 0.098427542 0.2592634
-0.012261103 0.098429143 0.2588411
-0.011495071 0.098362751 0.25855839
-0.010954663 0.098315507 0.25839585
-0.010344411 0.098229185 0.25817636
-0.0096985204 0.098236762 0.25785056
-0.008855138 0.098343864 0.25724459
-0.0077866022 0.098451719 0.25645477
-0.0066635339 0.098446451 0.25577354
-0.0057814643 0.098425403 0.25522509
-0.0052932152 0.098441109 0.25493097
-0.004830745 0.098434664 0.25467259
-0.0042419792 0.098429523 0.2542938
-0.0035467772 0.098431103 0.25388631
-0.0029238968 0.098452672 0.25349844
-0.0023693203 0.098487288 0.25315049
-0.0019633935 0.098502725 0.25294238
-0.0015688038 0.09850885 0.25276977
-0.0012608665 0.098510474 0.25263152
-0.00086670683 0.098522767 0.25244963
-0.00045133391 0.098539732 0.25226232
9.9763827e-05 0.098561719 0.25195792
0.00055520475 0.098564342 0.2517066
0.00081046898 0.098572202 0.25156906
0.00095077569 0.098573439 0.25151768
0.0011628732 0.098575301 0.2514174
0.0016725056 0.098592222 0.25112051
0.0020933636 0.098590516 0.25091586
0.0027103308 0.098599076 0.25056505
0.0033220463 0.09860222 0.2502048
0.0037226274 0.098600589 0.25001666
0.0039890157 0.098601118 0.24990073
0.0042014169 0.098598726 0.24981202
0.0045739603 0.098593093 0.24965368
0.097284459 0.080948152 0.20837654
0.097304851 0.080863953 0.20839654
0.097316645 0.080813847 0.20841371
0.097329281 0.080776967 0.20843475
0.097346857 0.080708139 0.20845072
0.097363725 0.080638841 0.20846511
0.097388908 0.080538802 0.20846394
0.097421333 0.08041779 0.20847784
0.097465873 0.080243848 0.20849995
0.097513109 0.080082662 0.2084927
0.097545184 0.079937041 0.20850866
-0.16931361 0.10463536 0.27386114
-0.16924457 0.10477575 0.2740114
-0.16911826 0.10494042 0.27427453
-0.16899697 0.10518507 0.27453443
-0.16889437 0.10541221 0.27475536
-0.16877528 0.10561568 0.27499765
-0.16865395 0.10578869 0.27524185
-0.16852611 0.10598559 0.2754977
-0.16836041 0.10627104 0.27582467
-0.16820325 0.10659276 0.27613765
-0.16806085 0.10679389 0.27641484
-0.16792499 0.10699946 0.27668068
-0.16778135 0.10718073 0.27696159
-0.16763684 0.10739524 0.27725381
-0.16748701 0.10764948 0.27756211
-0.1673194 0.10781403 0.27788889
-0.167115 0.10802551 0.27829507
-0.16691814 0.10820818 0.27867806
-0.16670507 0.10837065 0.2790812
-0.16639885 0.1086183 0.27964386
-0.16607153 0.10889851 0.28024036
-0.16575426 0.10922492 0.2808148
-0.1654771 0.10932193 0.28128216
-0.16523924 0.10944063 0.28168917
-0.16502418 0.10947302 0.2820569
-0.16476007 0.10961815 0.28252009
-0.16453099 0.1098115 0.28292367
-0.16423917 0.11007253 0.28344706
-0.16394736 0.11030993 0.28397289
-0.16358151 0.1105767 0.28462622
-0.16322885 0.11089533 0.28523734
-0.16283134 0.11123353 0.28589636
-0.16256598 0.11146194 0.28635067
-0.16230515 0.11167411 0.28680289
-0.16209607 0.11180461 0.28715083
-0.16192658 0.1118396 0.28743351
-0.16174698 0.11191197 0.28772628
-0.16159 0.11193711 0.28797856
-0.1614527 0.11197476 0.28820518
-0.16131155 0.1120159 0.28843161
-0.16113693 0.11210936 0.28872079
-0.16094385 0.11221766 0.28904071
-0.1607469 0.11240774 0.28937557
-0.16057119 0.11251699 0.28968057
-0.16042256 0.11263527 0.28993517
-0.1602903 0.11271016 0.29015389
-0.1601806 0.11269403 0.29033083
-0.16009064 0.11274564 0.290481
-0.017922085 0.1004043 0.26009908
-0.017703829 0.10019697 0.26012427
-0.017536586 0.10005131 0.26016411
-0.017329926 0.099882983 0.26018831
-0.01716576 0.099782243 0.26021951
-0.016986124 0.099672236 0.26026863
-0.016867114 0.099586353 0.26030353
-0.016700003 0.099473149 0.26033157
-0.01647165 0.099368557 0.26031068
-0.016247084 0.099210717 0.26027566
-0.015955823 0.099075235 0.26021224
-0.015697151 0.098954022 0.26015359
-0.015529924 0.098884918 0.26013869
-0.015302151 0.098828293 0.26008186
-0.015030033 0.098780498 0.26002538
-0.014785196 0.098732173 0.25998217
-0.014473489 0.098672256 0.25991842
-0.014075218 0.098598853 0.25973031
-0.013407066 0.098561093 0.2594468
-0.01263237 0.098552063 0.25903887
-0.011991398 0.09855476 0.25873604
-0.011452091 0.098472878 0.25861338
-0.010824075 0.098400794 0.25840896
-0.010063079 0.098364979 0.25806221
-0.0092355171 0.098385125 0.25751129
-0.0081182579 0.098469548 0.25668493
-0.0069284886 0.098494053 0.25594154
-0.0057921996 0.098453365 0.25524753
-0.0052424627 0.098445185 0.25487387
-0.0047096349 0.098447807 0.25456214
-0.0041111717 0.098445803 0.25418869
-0.0034617924 0.098445013 0.25378489
-0.002808417 0.098463938 0.25341597
-0.0022010619 0.09850876 0.25304204
-0.0018038426 0.098523669 0.25283647
-0.0013860345 0.098508805 0.25264049
-0.0010947022 0.098511845 0.25252557
-0.00075589353 0.098532312 0.25237659
-0.0001608828 0.098544575 0.25208578
0.00046534068 0.098565795 0.2517302
0.00082779612 0.098578282 0.2515415
0.0011649904 0.098578811 0.25136581
0.0014300609 0.09859322 0.25123215
0.0016638399 0.098599225 0.25110736
0.0019856375 0.098592177 0.25095755
0.0025226178 0.098591328 0.2506538
0.0031539463 0.098603964 0.25026706
0.0035814908 0.09861201 0.25005606
0.0039048563 0.098608606 0.2499132
0.004225601 0.098599389 0.24976353
0.0043576625 0.09860158 0.24970983
0.0047629341 0.098585829 0.24954158
0.0051367991 0.098591648 0.24938446
0.0056918096 0.098605603 0.24910626
0.0059919432 0.098614134 0.24900119
0.0064246366 0.098628514 0.2488147
0.09721341 0.081341162 0.20829234
0.097222775 0.081307761 0.20830207
0.097242802 0.081222102 0.20832106
0.097252488 0.081188075 0.20833018
0.097271033 0.081103951 0.20835444
0.097282976 0.081051938 0.20836627
0.097310796 0.080963857 0.20836721
0.097337209 0.080844246 0.20836979
0.09738794 0.08065436 0.20839354
0.097441502 0.080493078 0.20837674
0.097453453 0.080442891 0.20839475
-0.16930237 0.1053729 0.27393904
-0.16922466 0.10544944 0.27410561
-0.16911905 0.10560077 0.27433264
-0.16901171 0.1057994 0.27456844
-0.16891325 0.10598601 0.2747789
-0.16882001 0.1061378 0.27497822
-0.16868684 0.10634479 0.27524763
-0.16852972 0.10661417 0.27556551
-0.16836235 0.10686693 0.27589259
-0.16821139 0.10713539 0.27617708
-0.16809264 0.10731503 0.27640826
-0.16797069 0.10751171 0.27664685
-0.16783667 0.10761741 0.27690163
-0.16769646 0.10781975 0.27718592
-0.1675269 0.10813381 0.27754816
-0.16735056 0.10836603 0.27790812
-0.16713811 0.10862058 0.27833751
-0.16691501 0.10890242 0.27878442
-0.16664439 0.10912931 0.27929142
-0.16636476 0.10934649 0.279796
-0.16606486 0.10960698 0.28033847
-0.16577305 0.10981122 0.28084773
-0.16551265 0.10988979 0.28128436
-0.16528387 0.11000863 0.28167596
-0.16505727 0.11003539 0.28206125
-0.16482344 0.11016309 0.28246647
-0.16454491 0.11036266 0.28295428
-0.16425483 0.11062673 0.28346932
-0.16392899 0.1109138 0.28404954
-0.16358551 0.11121185 0.28466156
-0.16315725 0.11159575 0.28537977
-0.16285691 0.11186092 0.28587794
-0.16259426 0.11209065 0.28632444
-0.16237675 0.11222639 0.28668994
-0.16217177 0.11228532 0.28703645
-0.16196683 0.11238652 0.28737634
-0.16178033 0.11246236 0.28767422
-0.16163325 0.11248129 0.28791112
-0.16148371 0.11251102 0.28814933
-0.16132566 0.11260278 0.28840545
-0.16113229 0.11269037 0.28872502
-0.16095082 0.11285842 0.28903094
-0.16077285 0.11298328 0.28933513
-0.16061614 0.1130641 0.28960624
-0.16047096 0.11314277 0.28985387
-0.16035067 0.11321808 0.29005519
-0.16025512 0.11319192 0.29021767
-0.16015141 0.11323345 0.29038221
-0.018080914 0.10079831 0.25998995
-0.01791417 0.10062962 0.26002273
-0.017706444 0.10042629 0.26005208
-0.017489618 0.10024181 0.2600722
-0.01730638 0.10013344 0.2600978
-0.017136898 0.10001505 0.26012403
-0.016999811 0.099911578 0.26018411
-0.016803686 0.099799588 0.26020864
-0.016595483 0.099696293 0.26019895
-0.016346443 0.099519484 0.26016921
-0.016129768 0.099373616 0.2601333
-0.015868019 0.099217422 0.26012042
-0.015624083 0.099177182 0.26004761
-0.015422853 0.099119484 0.26002651
-0.015212961 0.099071965 0.26000136
-0.014955363 0.099008635 0.25999761
-0.014657835 0.098964535 0.25996876
-0.01419766 0.098880209 0.2597959
-0.013527375 0.098731808 0.25949186
-0.012735338 0.098704785 0.25908169
-0.012165952 0.098687626 0.25887105
-0.011806427 0.098633185 0.25881118
-0.011240329 0.098580733 0.25861761
-0.010363699 0.098466329 0.25821117
-0.0093470663 0.098483205 0.25751483
-0.0084396321 0.098510385 0.2568849
-0.007154285 0.098523527 0.2561
-0.0061358837 0.098508008 0.25545773
-0.0051444415 0.098474249 0.25480866
-0.0045760684 0.098471873 0.25445035
-0.0040172567 0.098461121 0.25411716
-0.0033174758 0.098467588 0.25368428
-0.0027240552 0.098481469 0.2533491
-0.002176645 0.098515831 0.25303096
-0.0017778962 0.098522663 0.2528252
-0.0012665557 0.098523594 0.25256693
-0.00081918662 0.098537445 0.25237519
-0.00046740458 0.09855222 0.2521992
6.8884707e-05 0.09856876 0.25192282
0.00064277783 0.098569848 0.25163069
0.0010702481 0.098575108 0.2513907
0.0014112464 0.098596826 0.25121152
0.0016225312 0.098601036 0.25110433
0.0019446877 0.098589152 0.25095466
0.0023336709 0.098604828 0.25073743
0.0029256132 0.098603293 0.25040215
0.0035021582 0.098610327 0.25009978
0.0038200642 0.098618649 0.24993472
0.0041681598 0.098607257 0.24976723
0.0044904291 0.098602593 0.24962482
0.0046532354 0.098600313 0.24955294
0.0049232352 0.098595731 0.24944414
0.0053709201 0.098608077 0.24923049
0.0058000116 0.098620661 0.24904203
0.0061842049 0.098629065 0.24889669
0.0065536611 0.098651394 0.24873053
0.0070540188 0.09867312 0.24847594
0.0076385592 0.098703288 0.24819554
0.0084211165 0.098766118 0.24773948
0.097126879 0.081802949 0.20818508
0.097143076 0.081735075 0.20820518
0.097160935 0.081651591 0.20822851
0.097179025 0.081582502 0.20824392
0.097191453 0.081530504 0.20825534
0.097214416 0.081427306 0.20826013
0.097232848 0.081373729 0.20826015
0.097258858 0.081253037 0.20826173
0.09730611 0.081062153 0.20828547
0.097369902 0.08087045 0.20827253
0.097341917 0.080925718 0.2083043
-0.16927081 0.10609317 0.2740708
-0.16922435 0.10612154 0.27416945
-0.1691248 0.10623174 0.27438059
-0.16903567 0.10643969 0.27458444
-0.16892892 0.10659882 0.27481195
-0.16883188 0.1067386 0.27501327
-0.168714 0.10698105 0.27526498
-0.16851491 0.10724573 0.27565897
-0.16836545 0.10752162 0.27594799
-0.16824096 0.10771532 0.27618095
-0.16811803 0.10785264 0.27641237
-0.16802736 0.10798728 0.27659345
-0.16789937 0.10814657 0.27684322
-0.16773772 0.10833544 0.27717102
-0.16757739 0.10857546 0.27750543
-0.16740493 0.10888258 0.27786887
-0.16714501 0.10924851 0.27841127
-0.16688676 0.10951379 0.27891028
-0.16665421 0.10978349 0.27935773
-0.16634153 0.1100127 0.27991745
-0.16604836 0.11020948 0.28043404
-0.16574351 0.1104451 0.28096265
-0.16553657 0.11050718 0.28131473
-0.16532074 0.11054464 0.28167042
-0.16510779 0.11059949 0.28203267
-0.16486822 0.11073697 0.28244522
-0.16453841 0.11099555 0.28302062
-0.16422382 0.11127901 0.28357533
-0.16390377 0.11158317 0.28414375
-0.1635347 0.11186477 0.28479281
-0.16313198 0.11224313 0.28545105
-0.16282241 0.11251327 0.28596598
-0.16259116 0.11267664 0.28634745
-0.16240251 0.11279003 0.28666461
-0.16220182 0.11286198 0.28699565
-0.16199024 0.11296466 0.28734052
-0.1618318 0.11299606 0.28758991
-0.16166027 0.11305767 0.28786576
-0.16149101 0.11305537 0.28813308
-0.16131398 0.11317753 0.28842118
-0.16114454 0.11330072 0.2887086
-0.16096167 0.11344282 0.28902292
-0.16080047 0.1135784 0.28929666
-0.16066375 0.11363927 0.28953317
-0.16051985 0.11370335 0.28977811
-0.16040812 0.11370516 0.28996196
-0.16031106 0.11375515 0.29012606
-0.16022177 0.11368527 0.29026917
-0.018239321 0.10121474 0.2598691
-0.018073911 0.101078 0.25988996
-0.017874535 0.10087021 0.2599133
-0.017632592 0.10062875 0.2599436
-0.017435027 0.10052661 0.25995836
-0.017245229 0.10039391 0.25997642
-0.017078806 0.1002846 0.26003352
-0.016919402 0.10015643 0.26005444
-0.016713237 0.10000426 0.26006028
-0.01647985 0.0998611 0.26004985
-0.016210441 0.099696994 0.2600154
-0.015983393 0.0995792 0.25998753
-0.015731698 0.099492773 0.25995228
-0.015489937 0.09944205 0.25992149
-0.015312667 0.099381939 0.2599245
-0.015062484 0.099334128 0.25995287
-0.011408417 0.09874209 0.25868452
-0.01045979 0.098602191 0.25819749
-0.0093255173 0.098569281 0.25747538
-0.0085228272 0.098554805 0.25693446
-0.0073391609 0.098570675 0.25620428
-0.0063166325 0.098561041 0.25555944
-0.005088055 0.098488182 0.25474823
-0.0043526189 0.098473132 0.25427818
-0.0036025487 0.098481603 0.25381455
-0.0030857455 0.098481201 0.25352257
-0.0026115922 0.098493695 0.25326183
-0.00214378 0.098517954 0.25299034
-0.0016414865 0.098527983 0.25275829
-0.0011774201 0.098530151 0.25249848
-0.00067749305 0.098545112 0.25227976
-0.00017095979 0.098561868 0.25201675
0.00027094217 0.098580249 0.25180337
0.00074180914 0.098581374 0.2515727
0.001198791 0.0985872 0.25131789
0.0015175515 0.098601595 0.25115842
0.0016744551 0.098611794 0.25107723
0.0020218145 0.098596841 0.25090924
0.0024829791 0.098608695 0.25064537
0.0030992178 0.09861353 0.25029114
0.0036862541 0.098609075 0.24999599
0.0040586577 0.09860906 0.24980831
0.0043806043 0.098605685 0.24965791
0.0046258578 0.09859696 0.24955355
0.0050379145 0.098616682 0.24933192
0.0053314837 0.098620005 0.24919853
0.0056328992 0.098625198 0.2490813
0.0061326302 0.098645017 0.2488372
0.0065376149 0.098656051 0.24866503
0.0068604629 0.098673061 0.24853539
0.0073393141 0.098704062 0.24831606
0.0079367626 0.09874367 0.24800827
0.0085240491 0.098779947 0.24767508
0.0090021491 0.098801382 0.24744341
0.0095166294 0.098818161 0.24716207
0.010086407 0.098824702 0.24684182
0.010676883 0.098816328 0.24645816
0.011424941 0.09882649 0.2459902
0.097020365 0.08232969 0.20811744
0.097036839 0.082237847 0.20814462
0.09706863 0.082113445 0.20813556
0.097096302 0.08200977 0.20815302
0.097118787 0.081907347 0.20815314
0.097142257 0.08182063 0.2081687
0.097167231 0.081717029 0.20817252
0.097187184 0.081625096 0.20815641
0.097227894 0.081451893 0.20817776
0.097272389 0.08132837 0.20816264
0.097255655 0.081337012 0.20821473
-0.16928312 0.10671922 0.27411658
-0.16921404 0.10676011 0.27425501
-0.16914269 0.10687643 0.27440494
-0.16904287 0.10703729 0.27462298
-0.16894278 0.10728171 0.27484313
-0.16882224 0.10746009 0.27509692
-0.16866568 0.10765573 0.27541634
-0.16851093 0.10787132 0.27572346
-0.16838035 0.10811135 0.27597496
-0.16824953 0.10830022 0.27622116
-0.16814464 0.10842289 0.27642047
-0.16804348 0.10853274 0.27661565
-0.16793178 0.10870431 0.27684462
-0.16779044 0.108943 0.27714342
-0.16761915 0.1091599 0.2774986
-0.16739017 0.10956986 0.2779834
-0.16714254 0.10986801 0.27848184
-0.16689712 0.11016274 0.27896178
-0.1666185 0.11039713 0.27947369
-0.16630945 0.11060712 0.28002536
-0.1660192 0.11084387 0.28054392
-0.16579065 0.11096282 0.28093392
-0.16557354 0.11103878 0.28130093
-0.16535389 0.11112181 0.28167239
-0.16510142 0.11122163 0.28209743
-0.16484629 0.11137215 0.28253245
-0.16454066 0.11163196 0.28306702
-0.16421567 0.11195125 0.28364366
-0.16388318 0.1122334 0.28423727
-0.16347687 0.11259087 0.28493518
-0.16311316 0.11288937 0.28551292
-0.1628008 0.11314769 0.28602317
-0.16257657 0.11326344 0.28639358
-0.16237187 0.11338294 0.28672785
-0.16220224 0.11344913 0.28700429
-0.16201074 0.11351317 0.28730863
-0.16186038 0.11353066 0.28754479
-0.16170515 0.11354607 0.2877894
-0.16150784 0.11361641 0.28810906
-0.16131011 0.11378601 0.28843838
-0.16115706 0.11391613 0.28870207
-0.16100752 0.11402541 0.28895941
-0.16084591 0.1141269 0.28923842
-0.16071869 0.11419859 0.28945485
-0.16058578 0.1141907 0.28967595
-0.16046645 0.11425424 0.28987339
-0.16036536 0.11426109 0.29004034
-0.1602689 0.11411853 0.29018778
-0.018461574 0.10175131 0.25973728
-0.018288134 0.10154867 0.25977182
-0.01804282 0.10130592 0.25979304
-0.017819455 0.10106654 0.25981456
-0.017600741 0.10092833 0.25981116
-0.017347392 0.10073361 0.25983542
-0.017201765 0.10059236 0.25986981
-0.016986659 0.10047907 0.25987497
-0.016803805 0.10034478 0.25989813
-0.016614283 0.10021663 0.2598879
-0.016320158 0.10004441 0.25987527
-0.01608702 0.099931523 0.25984243
-0.015769074 0.099806324 0.25982606
-0.0155537 0.099750496 0.25980926
-0.0091853775 0.098625883 0.25731331
-0.0084426496 0.098607875 0.25683424
-0.0073146075 0.098624162 0.25615248
-0.0062621217 0.098581336 0.2555114
-0.0049698427 0.098510958 0.25466543
-0.0040953034 0.098481432 0.25408435
-0.0035026453 0.098485142 0.25371328
-0.0028702978 0.098491386 0.25333631
-0.002401859 0.098505214 0.2531043
-0.0021176699 0.098522648 0.2529752
-0.0016265062 0.098529898 0.25273508
-0.0010951881 0.098528169 0.25246111
-0.00056784879 0.098553039 0.25219151
-7.7414428e-05 0.098567106 0.25194919
0.00029771074 0.098584861 0.25178829
0.00076838688 0.098586358 0.25155783
0.0011171313 0.098608777 0.25135809
0.0014889846 0.098613486 0.25116476
0.0016744552 0.098611809 0.25107723
0.0020713885 0.0986057 0.25087744
0.0024122223 0.098609902 0.25069442
0.0030727568 0.098617382 0.25030524
0.0037120613 0.098612137 0.24998134
0.0040846416 0.098611727 0.24979337
0.0044331951 0.098609835 0.24963
0.004890217 0.098620765 0.24937129
0.0052354247 0.098617531 0.2492141
0.0056915972 0.098632306 0.24900919
0.0061761341 0.098651886 0.24879637
0.0064735664 0.098668024 0.24866356
0.0068787439 0.098690376 0.24848598
0.0072255558 0.098713323 0.24833615
0.0077189705 0.098744564 0.24808975
0.0082079219 0.098766454 0.24783409
0.0086807469 0.098793738 0.24759325
0.0091486387 0.098817222 0.24733704
0.0095967595 0.098820336 0.24711585
0.010139462 0.098821558 0.2468029
0.010857821 0.098821312 0.24632888
0.011498685 0.098852374 0.24593996
0.012139696 0.098887071 0.24557412
0.012754673 0.098933123 0.24522531
0.096949637 0.082756393 0.20807511
0.096977241 0.082557365 0.20803566
0.097004525 0.082467437 0.20804167
0.097031981 0.082347512 0.20805031
0.097060323 0.082226895 0.20805299
0.097090974 0.082105547 0.20805925
0.097117335 0.081998177 0.20806397
0.097144917 0.081875391 0.20806085
0.097180754 0.0817516 0.20804691
0.097191349 0.081688918 0.20808885
-0.16930558 0.10734063 0.27415118
-0.16922434 0.10739131 0.27430376
-0.16915199 0.10749961 0.27445924
-0.16906317 0.10767459 0.27464879
-0.16894534 0.10792919 0.27490193
-0.16881011 0.10812353 0.27518788
-0.16867368 0.10831312 0.27546844
-0.1685355 0.10847789 0.27573299
-0.16840477 0.10868538 0.27598989
-0.16827412 0.10887145 0.2762396
-0.16817676 0.10897574 0.27642247
-0.16807298 0.1090964 0.27662298
-0.16793939 0.10930125 0.27689704
-0.16779515 0.10955913 0.27720413
-0.1676259 0.10986411 0.27755472
-0.16739362 0.11019649 0.27803433
-0.16716047 0.11048359 0.27849886
-0.16691312 0.11068774 0.27896708
-0.16666703 0.11089908 0.2794266
-0.16633169 0.11116748 0.28003258
-0.16607775 0.11132195 0.28048471
-0.16582668 0.11142508 0.28091922
-0.16561006 0.11154315 0.28128833
-0.16537227 0.11167943 0.28169063
-0.16511272 0.11186228 0.28213525
-0.1648006 0.11208349 0.28267321
-0.16446882 0.11237378 0.28325465
-0.16414364 0.1127025 0.28383797
-0.16379347 0.11296335 0.28445584
-0.16339453 0.11324713 0.28509071
-0.16306028 0.11353861 0.28562152
-0.16282143 0.11370596 0.28601366
-0.16259316 0.11383744 0.2863794
-0.16240092 0.11390284 0.28669193
-0.16221683 0.11399921 0.28698528
-0.16207612 0.11402008 0.28721055
-0.16191462 0.11404195 0.2874628
-0.16172338 0.11412453 0.28776646
-0.16152067 0.11420131 0.28810138
-0.16133778 0.11436092 0.28841606
-0.1611883 0.11456161 0.28867891
-0.16102852 0.11465076 0.28894943
-0.16088058 0.11467088 0.28919634
-0.16076615 0.11469426 0.28938958
-0.16062666 0.11471004 0.28961694
-0.160512 0.11472514 0.28979489
-0.16045414 0.11461579 0.28988931
-0.16036829 0.114514 0.29002652
-0.018609947 0.10218927 0.25961694
-0.018426411 0.10198779 0.25964153
-0.018159408 0.10166612 0.25967073
-0.017933832 0.10144923 0.25967517
-0.017705491 0.10125574 0.25967935
-0.017478112 0.10108033 0.2596885
-0.017313175 0.10092653 0.25973764
-0.01711636 0.10078805 0.25972384
-0.016892988 0.10067306 0.25973803
-0.016709235 0.10058641 0.25971025
-0.016460318 0.10045792 0.2596927
-0.016196854 0.10032317 0.25967708
-0.01590441 0.10021503 0.25963864
-0.0071983091 0.098656185 0.25602657
-0.0061534024 0.098618552 0.25537777
-0.0049181078 0.098516986 0.254632
-0.003894917 0.098500475 0.2539182
-0.0032886798 0.098516919 0.25352094
-0.0026385582 0.098526128 0.25319314
-0.0022971616 0.098533168 0.25304046
-0.001909722 0.098538354 0.25283265
-0.0015674223 0.098540761 0.25268227
-0.00095436384 0.098537505 0.25236687
-0.0004870157 0.098568708 0.25215423
-2.2679596e-05 0.098573193 0.25192493
0.00027159485 0.098585524 0.25179914
0.00061601511 0.09860339 0.25163752
0.0010914581 0.098619737 0.25136527
0.0015141619 0.098619379 0.25114977
0.0016744552 0.098611809 0.2510772
0.002043539 0.098616853 0.25088799
0.0023350865 0.098619007 0.25074118
0.0029620063 0.098626085 0.25035131
0.0035814098 0.098623551 0.25005451
0.0040846411 0.09861175 0.24979337
0.0044780979 0.098613612 0.2495932
0.0049179783 0.098620877 0.24936143
0.0053333561 0.098628551 0.24914907
0.0058178455 0.098643638 0.24892986
0.006331902 0.098673999 0.24870692
0.0067648496 0.098694824 0.24852473
0.0071661267 0.098720483 0.24834517
0.0075806011 0.098746076 0.24813247
0.0079907486 0.098767474 0.24791901
0.0084646586 0.098790213 0.24768536
0.0088114468 0.098805323 0.2475204
0.0092525082 0.098825656 0.24728349
0.0097759711 0.098838888 0.24699876
0.010367845 0.098827384 0.24663632
0.011087723 0.098841496 0.24618179
0.01178248 0.098864757 0.24577633
0.012241521 0.098901995 0.24551517
0.01279951 0.098951541 0.24518377
0.013212191 0.098976292 0.24494292
0.013498009 0.098993905 0.24478032
0.096897051 0.082914509 0.2079197
0.096921369 0.082842909 0.20793253
0.096942961 0.082771562 0.2079398
0.096965544 0.082667746 0.20794593
0.097003475 0.082525522 0.20794295
0.097028241 0.082421072 0.20794971
0.097062454 0.082281813 0.2079495
0.097080484 0.082192518 0.20793796
0.097115546 0.082108505 0.20794247
-0.16933027 0.10795536 0.27418396
-0.16927002 0.10796513 0.27429879
-0.16918392 0.10815846 0.27447537
-0.16907665 0.10834407 0.27469704
-0.168971 0.10850105 0.27491871
-0.16883041 0.10872111 0.27521223
-0.168714 0.10887777 0.27544722
-0.16857721 0.10906211 0.2757147
-0.16845137 0.10918511 0.27594772
-0.16833194 0.10933891 0.2761845
-0.16821134 0.10947099 0.27642015
-0.16809867 0.10966156 0.27664575
-0.16797519 0.10989333 0.27689746
-0.16781785 0.11017636 0.27721655
-0.16761251 0.11051906 0.27763805
-0.16740164 0.11075691 0.27805614
-0.16717122 0.11099844 0.27850786
-0.16694576 0.1111638 0.27893043
-0.1666719 0.1114731 0.27945453
-0.16639608 0.11164447 0.27995113
-0.16611367 0.11181387 0.2804552
-0.16588496 0.11191693 0.28085628
-0.16564676 0.11206243 0.28126699
-0.16539429 0.11224476 0.2817027
-0.16509232 0.11247286 0.28222334
-0.16479644 0.11270604 0.28273448
-0.16444333 0.11311889 0.28337055
-0.16410513 0.11334263 0.28397039
-0.16375625 0.11360796 0.2845622
-0.1633468 0.11388697 0.28518206
-0.16308782 0.11408797 0.28560334
-0.16286586 0.11422885 0.28595892
-0.16263896 0.11433034 0.28632575
-0.16245176 0.1144458 0.28662673
-0.16229457 0.11451133 0.28687799
-0.16213401 0.1145749 0.28713152
-0.16196507 0.11460771 0.28739652
-0.16179349 0.11462735 0.28766924
-0.1615576 0.11478391 0.28806919
-0.16137594 0.1149539 0.28838661
-0.16122657 0.11510254 0.28864589
-0.16107301 0.11523496 0.28891063
-0.16091585 0.11527319 0.28916639
-0.16079673 0.11524414 0.28935763
-0.16068886 0.11524621 0.28952977
-0.16058441 0.11517783 0.28969026
-0.16055332 0.11500119 0.28972784
-0.16046934 0.11489998 0.28985703
-0.018878648 0.10279032 0.25947064
-0.018738983 0.1026294 0.25949791
-0.018516326 0.10233564 0.25954017
-0.018292498 0.10201713 0.25957084
-0.018077327 0.10180413 0.2595689
-0.017861363 0.10160436 0.25957313
-0.017664231 0.10145279 0.25957543
-0.017531028 0.10134606 0.25960308
-0.017385351 0.10123872 0.25963542
-0.017223427 0.10119911 0.2596404
-0.016873479 0.10097867 0.25961456
-0.016606735 0.10087337 0.25954041
-0.016316965 0.10070506 0.25949922
-0.0025347911 0.098534629 0.25309056
-0.0022496847 0.098545335 0.25296864
-0.0018826214 0.098547444 0.25280842
-0.0015158381 0.098561063 0.25264132
-0.00093157007 0.098566495 0.25234053
-0.00043765557 0.098587014 0.25211307
3.4384968e-06 0.098582439 0.25191003
0.00021845725 0.09859056 0.25182393
0.00058302726 0.098615229 0.25163984
0.0010811141 0.098620526 0.25139198
0.0015413788 0.098624341 0.25113744
0.0016758541 0.098617069 0.25108019
0.001960278 0.098642312 0.25091913
0.002309191 0.098619819 0.25075674
0.0028688973 0.098623551 0.25042322
0.0034142458 0.098634101 0.25012425
0.0039515956 0.098628826 0.2498605
0.0044331942 0.098609835 0.24963
0.0049443841 0.098624803 0.24934919
0.0053008636 0.098640397 0.24914266
0.0059243622 0.098658167 0.24887852
0.0064642271 0.098687038 0.24864206
0.0069626728 0.098716892 0.24840215
0.0073969513 0.098744623 0.24817948
0.0078276172 0.098765075 0.2479887
0.0081706457 0.098778136 0.24782038
0.0086002452 0.09879522 0.24762402
0.0090163723 0.098814227 0.2473978
0.0094044982 0.098840192 0.24718036
0.009975927 0.098844811 0.24685727
0.010698902 0.098856665 0.24641648
0.011371582 0.098862365 0.24601205
0.011883073 0.098883159 0.24571782
0.012414168 0.098930404 0.24540213
0.012799965 0.098957598 0.24518068
0.013186406 0.098981842 0.24495593
0.013498649 0.099000797 0.24477838
0.013892538 0.099014454 0.2445481
0.014250948 0.099034905 0.24431305
0.01471207 0.099063762 0.24398814
0.015140563 0.099083498 0.24366535
0.015428768 0.099096596 0.24346299
0.015891297 0.099109165 0.24312349
0.096819229 0.083303422 0.20779768
0.096847184 0.083194755 0.20780656
0.096863553 0.083143957 0.20781848
0.096866548 0.083137892 0.2078094
0.096901633 0.083017193 0.20782232
0.096936062 0.082874231 0.20781665
0.096968807 0.082718618 0.20782207
0.097003765 0.082582049 0.20782436
0.097033896 0.082498364 0.20780988
-0.16935402 0.10853973 0.27421576
-0.16927168 0.10861559 0.27437145
-0.16920601 0.10875058 0.27450797
-0.16910785 0.1089408 0.27470845
-0.16900235 0.10907909 0.27492303
-0.16887245 0.10922196 0.27518836
-0.16875531 0.10940657 0.27542034
-0.16863218 0.10952894 0.27565619
-0.16851421 0.1096842 0.27588746
-0.16838628 0.1098535 0.27614194
-0.16824341 0.11006634 0.276427
-0.1681257 0.11023881 0.27665442
-0.16798173 0.11047526 0.27693975
-0.16782969 0.11073155 0.27724168
-0.16762415 0.11106037 0.2776624
-0.16741881 0.11129217 0.27806473
-0.16723305 0.11152492 0.27842399
-0.16695595 0.11175108 0.27894929
-0.16670567 0.11197808 0.27942017
-0.16639222 0.11223681 0.27999693
-0.16612968 0.11237539 0.28046659
-0.16587803 0.11247963 0.28090781
-0.16566302 0.11262219 0.28128111
-0.16537294 0.11287326 0.28178817
-0.16509052 0.1131222 0.28227893
-0.16480806 0.11332991 0.28277913
-0.16444045 0.11371265 0.28343815
-0.16409002 0.11396563 0.28404704
-0.16366035 0.11434066 0.28475326
-0.16333769 0.11448789 0.285227
-0.16311049 0.11464576 0.28559434
-0.16292568 0.11474993 0.28588888
-0.16274591 0.11483494 0.28617945
-0.16256604 0.11494089 0.28646737
-0.16240144 0.11500188 0.28672677
-0.16222288 0.11507748 0.28701109
-0.16205136 0.11510155 0.28728315
-0.16186564 0.11520693 0.28758281
-0.16162363 0.11535072 0.28799707
-0.16145514 0.11542849 0.28828856
-0.16130081 0.11559021 0.28855488
-0.16115753 0.11570847 0.28880247
-0.16098584 0.11577753 0.28907928
-0.16082375 0.11577693 0.28932935
-0.1607383 0.11582245 0.28946558
-0.16066529 0.11564932 0.28956535
-0.16060661 0.1155173 0.28964788
-0.16054568 0.11527657 0.28972813
-0.019115901 0.10336928 0.25932655
-0.01895923 0.10319727 0.25935906
-0.018823378 0.10297552 0.25940278
-0.018616986 0.10266986 0.25944439
-0.018402748 0.10239495 0.25946215
-0.018202795 0.10219385 0.25946006
-0.018004553 0.10201465 0.25945997
-0.017825911 0.10189592 0.25945333
-0.017820422 0.10189889 0.25947636
-0.017865784 0.10200814 0.2594693
-0.017791418 0.10199484 0.259482
-0.01730229 0.10165266 0.25948745
0.0014635847 0.098623671 0.25118148
0.0016502521 0.098634258 0.25108987
0.001911108 0.098640323 0.2509568
0.0023321202 0.09862832 0.2507388
0.0027677908 0.098624118 0.25049108
0.0034142451 0.098634101 0.25012419
0.0038712202 0.098625138 0.249906
0.0043763579 0.098620273 0.24965735
0.0048897294 0.098624043 0.24937423
0.0052487175 0.098633066 0.24917457
0.005810021 0.098662965 0.24891327
0.0063801664 0.098688155 0.24867551
0.0069070789 0.098720014 0.24842469
0.0074243988 0.098747656 0.24816857
0.0078561632 0.098764911 0.24798076
0.0083031543 0.098788962 0.24775773
0.0086002452 0.09879522 0.24762402
0.0090411883 0.098818555 0.24738315
0.0095105749 0.098843247 0.24711813
0.010210512 0.098850437 0.24672203
0.010957096 0.098866791 0.24624906
0.011471613 0.098873198 0.24594732
0.01195678 0.098908029 0.24566743
0.012437687 0.098943964 0.24538131
0.012847048 0.098968402 0.24514574
0.013255446 0.098999143 0.24489987
0.013675026 0.099018648 0.24465956
0.014011282 0.099034213 0.24445146
0.014275822 0.099046059 0.24429046
0.014685174 0.099067241 0.24400382
0.015065686 0.09908583 0.24371874
0.015427125 0.099095032 0.24346532
0.015915181 0.099113025 0.24310343
0.016476413 0.099144019 0.2427002
0.096731827 0.083695918 0.20764545
0.096754678 0.083625495 0.20764509
0.096774273 0.083557896 0.207662
0.096789829 0.083505638 0.20767747
0.096809797 0.083454661 0.20768729
0.096839145 0.083331972 0.2076935
0.096865617 0.083207384 0.20768762
0.096912481 0.083021469 0.20770122
0.096948259 0.082922667 0.20768896
-0.16937457 0.10921942 0.27424547
-0.16929325 0.10927551 0.27440473
-0.16921039 0.10942752 0.2745741
-0.16910946 0.10946328 0.2747727
-0.16900048 0.10965064 0.27499762
-0.16889495 0.10973958 0.27520081
-0.16879193 0.10986273 0.27540296
-0.16867213 0.1100368 0.2756359
-0.16856699 0.11016143 0.27584839
-0.16841799 0.11043526 0.27615225
-0.16829519 0.11059154 0.27638319
-0.16814695 0.11080547 0.27666563
-0.16800636 0.11102463 0.27693975
-0.16780615 0.11132173 0.27734211
-0.1676275 0.11163357 0.27769789
-0.16743723 0.11184893 0.27806959
-0.16724141 0.11207467 0.27844778
-0.16696925 0.11239929 0.27896705
-0.16669056 0.1126098 0.27948457
-0.16641065 0.11277315 0.27999443
-0.16613597 0.11294931 0.28049287
-0.16590136 0.11305726 0.28090465
-0.16563872 0.11327069 0.28136921
-0.16535375 0.11351577 0.28187421
-0.16506906 0.11377263 0.28238109
-0.16479753 0.11396717 0.28286165
-0.16443454 0.11433382 0.28350434
-0.16408113 0.1145764 0.28410709
-0.16365577 0.11493161 0.28475785
-0.16339876 0.11507325 0.28515089
-0.16321309 0.11517025 0.28545076
-0.16303854 0.11519601 0.28572729
-0.1628405 0.11528809 0.28604528
-0.16266882 0.11537883 0.28632277
-0.16248882 0.1154861 0.28661287
-0.1623175 0.11557169 0.28688639
-0.16212536 0.11568528 0.28719717
-0.16192108 0.11576877 0.28752616
-0.16172618 0.11583767 0.28785589
-0.16154507 0.11595667 0.28817633
-0.16139987 0.11603377 0.2884188
-0.16122229 0.11612726 0.28871304
-0.16105786 0.11625434 0.28897971
-0.16090401 0.11632484 0.28921393
-0.16078103 0.11632934 0.28940281
-0.16072412 0.1161942 0.28947237
-0.16067483 0.11603735 0.2895312
-0.16058962 0.11578377 0.28964871
-0.019228723 0.10383263 0.2592108
-0.019080164 0.10360411 0.25925922
-0.018941505 0.10339179 0.25929543
-0.018744897 0.10310915 0.25932837
-0.018549459 0.1028771 0.25933775
-0.018360892 0.10266078 0.25934157
-0.018171232 0.10248496 0.25934497
-0.018018914 0.10238257 0.2593286
-0.018226579 0.10264321 0.25933459
-0.018312138 0.10300345 0.25925624
-0.018457051 0.10401652 0.2591804
0.0018559012 0.098639809 0.2509833
0.0022683148 0.098640747 0.25074834
0.0028378919 0.098641761 0.25043255
0.0033654394 0.098646194 0.25015405
0.0038977608 0.098627262 0.24989472
0.004296314 0.098628536 0.24970095
0.0047514886 0.098636754 0.24943401
0.0051329806 0.098636605 0.24926998
0.0056594093 0.098649584 0.24900968
0.0061939401 0.098679982 0.24876411
0.0068372297 0.098719813 0.24847205
0.0073341331 0.09875083 0.24823169
0.0078230575 0.098774083 0.24798048
0.0082711158 0.098800376 0.24775912
0.0086524803 0.098800637 0.24759574
0.0091205491 0.098822385 0.24733798
0.0096635716 0.09884797 0.24703114
0.010514389 0.098869711 0.24651428
0.011111313 0.098875806 0.24615631
0.01159496 0.098895431 0.24586812
0.012002535 0.098932594 0.24562915
0.012383576 0.098946825 0.24540715
0.012867933 0.098978542 0.24512365
0.013305604 0.099003367 0.24486563
0.01379556 0.099036902 0.2445693
0.014087932 0.099042073 0.24439967
0.014400776 0.099055596 0.24419616
0.014602229 0.099070452 0.24404885
0.014983269 0.09909153 0.24377076
0.015521174 0.099111311 0.24337594
0.016117353 0.099124514 0.2429564
0.016696077 0.099186577 0.24254546
0.017189886 0.099222146 0.24223897
0.017991837 0.099237666 0.24178012
0.018643396 0.099281952 0.24145338
0.019181484 0.099345043 0.24116167
0.019720124 0.099402517 0.2408918
0.096652485 0.084062032 0.2075143
0.096678101 0.083977334 0.20753366
0.096689917 0.083944485 0.20754567
0.096706405 0.083874568 0.20755176
0.096733913 0.08377286 0.20757762
0.096750543 0.083720393 0.20758374
0.096774988 0.083613761 0.20757227
0.096816868 0.083476171 0.20756659
0.096870132 0.083291501 0.20758413
-0.1693932 0.10979589 0.27427357
-0.16931248 0.10986199 0.27443653
-0.16922407 0.1100009 0.27461573
-0.16912398 0.11008838 0.27481794
-0.16902432 0.11019136 0.27501249
-0.16891177 0.11031507 0.27523726
-0.16883376 0.11037251 0.27538708
-0.16870062 0.11057805 0.27565134
-0.16857557 0.11078593 0.27590787
-0.16843361 0.11101906 0.27618128
-0.16831318 0.11117376 0.27640811
-0.16815744 0.11140673 0.27670699
-0.16799062 0.11169531 0.27704024
-0.16781464 0.11194746 0.27738816
-0.167649 0.11218248 0.27771059
-0.16745232 0.11247008 0.27809384
-0.16726081 0.11268861 0.27845788
-0.16699351 0.11302914 0.27896792
-0.16669285 0.11323752 0.2795226
-0.16639997 0.11343404 0.28005755
-0.16615093 0.11353051 0.280505
-0.16590935 0.11365846 0.28093487
-0.16563338 0.11392371 0.28142983
-0.16538042 0.11407399 0.28187543
-0.16509269 0.11433855 0.28239223
-0.1647816 0.1146055 0.28294405
-0.16443546 0.11493964 0.28354755
-0.16406418 0.1152245 0.28415588
-0.16368453 0.11546148 0.28471923
-0.16346538 0.11556462 0.28506103
-0.16328171 0.11563487 0.28535271
-0.16311859 0.11567331 0.28561962
-0.162939 0.11575797 0.2859115
-0.16276731 0.11580867 0.28618681
-0.16256858 0.11595346 0.28650847
-0.16237378 0.11605897 0.28682148
-0.16217609 0.1161957 0.287141
-0.16199116 0.1162702 0.28745008
-0.16180563 0.1164045 0.28776428
-0.16164349 0.11644188 0.28803986
-0.16149373 0.11654759 0.28829658
-0.16131586 0.11666991 0.28859401
-0.16112703 0.11679596 0.28889248
-0.1609557 0.11685171 0.28914937
-0.16081396 0.1168655 0.28936473
-0.16076711 0.11673832 0.28942227
-0.16072004 0.1165755 0.28945801
-0.019501071 0.10454099 0.25905153
-0.019364877 0.10430528 0.25909659
-0.019258333 0.10418696 0.25912198
-0.019077377 0.10392087 0.25916323
-0.018911729 0.10367653 0.25919282
-0.018693628 0.10336726 0.25921339
-0.018544389 0.10320538 0.25921789
-0.018355003 0.10301664 0.25921795
-0.018167973 0.10282642 0.25921986
-0.01831121 0.10311881 0.25918636
-0.018403087 0.103632 0.25911966
0.0028910118 0.098649845 0.25039977
0.0033927879 0.098656118 0.25014523
0.0038723254 0.098642573 0.2499128
0.0043579242 0.098643489 0.24964562
0.0047825603 0.098638609 0.24943174
0.0050533083 0.098636359 0.24931526
0.0055761589 0.098649807 0.2490537
0.0061127627 0.098675415 0.2488039
0.0066510839 0.098707728 0.24856852
0.0071344599 0.098735109 0.24835385
0.007688392 0.098782241 0.24803895
0.0082728323 0.098799706 0.24776322
0.0086504286 0.098806515 0.24759573
0.0090912711 0.098826595 0.2473558
0.0097079249 0.098858193 0.2469916
0.01056575 0.098880015 0.24647923
0.011159691 0.098898672 0.24612461
0.011568826 0.098898128 0.24588209
0.012002535 0.098932602 0.24562922
0.012405957 0.098952241 0.24538855
0.012891881 0.0989834 0.24510641
0.013431111 0.099019587 0.24478471
0.013897608 0.099042028 0.24450251
0.014133793 0.099050082 0.24435811
0.014421991 0.099059843 0.24417487
0.014650986 0.099077709 0.24401234
0.015060331 0.099094704 0.24371393
0.015625101 0.099121951 0.24330296
0.016262725 0.099156894 0.24284275
0.016929379 0.099202156 0.24240342
0.017500356 0.099237636 0.2420574
0.018096888 0.099248588 0.24174178
0.01866501 0.099298045 0.24143597
0.019177381 0.099350512 0.24117032
0.019716544 0.099401332 0.24090214
0.020201115 0.099455483 0.24067275
0.020532146 0.099499732 0.24051854
0.096605301 0.084365234 0.20750412
0.096573308 0.084411465 0.20738743
0.096588239 0.084360279 0.20740217
0.096606053 0.084293388 0.20742567
0.096626908 0.084207959 0.20744681
0.096653827 0.084106721 0.2074683
0.096663244 0.084102474 0.20744586
0.096696094 0.083987474 0.20746993
0.096718118 0.083948769 0.2074407
0.096769229 0.083741412 0.20746598
-0.1694124 0.11035177 0.27429757
-0.16933677 0.11040333 0.27444869
-0.1692636 0.11052676 0.27460486
-0.16914576 0.11066998 0.27485248
-0.16900867 0.1108658 0.27513084
-0.16892624 0.11093391 0.27529928
-0.16881286 0.11110446 0.27552193
-0.16869183 0.11127146 0.27575096
-0.16856594 0.11148673 0.2759943
-0.16843309 0.11164652 0.27624467
-0.16829966 0.11186288 0.27650812
-0.16813979 0.11210495 0.27682361
-0.16797681 0.1123639 0.277147
-0.1678118 0.1126171 0.27746347
-0.16765726 0.11283287 0.2777586
-0.16748217 0.11303099 0.27808854
-0.16725932 0.11331638 0.27851179
-0.16705589 0.1135421 0.27890092
-0.16672017 0.11382777 0.27952018
-0.16641369 0.113974 0.28007129
-0.16619152 0.11406223 0.2804687
-0.16596134 0.11419935 0.28088215
-0.16567366 0.1144146 0.28139883
-0.16537918 0.11473181 0.28193429
-0.16509879 0.11494382 0.28243473
-0.16478629 0.11523897 0.28298423
-0.16445599 0.1154989 0.28354499
-0.16413175 0.11571623 0.28406447
-0.16376807 0.11590014 0.28459832
-0.16354202 0.11602771 0.28494775
-0.16337387 0.11606958 0.28522357
-0.16318099 0.11619206 0.28554177
-0.16299562 0.11625978 0.28584099
-0.16280964 0.11638972 0.28614724
-0.16262108 0.11645424 0.28644896
-0.16244052 0.11657198 0.28674415
-0.16221575 0.11673263 0.2871128
-0.16202702 0.1168244 0.28743079
-0.16186167 0.116886 0.2877073
-0.16170901 0.11694866 0.28796354
-0.16156469 0.11710235 0.28821579
-0.16138148 0.11716943 0.28851482
-0.16121055 0.11729714 0.28877729
-0.16101025 0.11739327 0.28907743
-0.16088977 0.11737856 0.289253
-0.16082023 0.11726325 0.28933272
-0.019622559 0.10506452 0.25893328
-0.019496687 0.10486592 0.25897753
-0.019368341 0.10466917 0.25900307
-0.019209877 0.10444654 0.2590296
-0.01906235 0.10420842 0.25906622
-0.018903721 0.10396348 0.25909105
-0.018694256 0.10372903 0.25909567
-0.018515289 0.10352033 0.25910261
-0.018301163 0.10332795 0.25909591
-0.018297702 0.10339484 0.25909036
0.0070799673 0.09873791 0.24838431
0.0076924618 0.098773122 0.24805376
0.0083003724 0.098808289 0.2477528
0.0086950194 0.098811649 0.24756214
0.009138505 0.098837487 0.24732392
0.0097060343 0.098873056 0.24698706
0.010592286 0.098894984 0.24646592
0.011188178 0.098905779 0.24611442
0.011568773 0.09892033 0.24588147
0.012023687 0.098939143 0.24561043
0.012484267 0.09896262 0.24534585
0.012986689 0.099001668 0.24503648
0.013559126 0.099034481 0.24470443
0.01410656 0.09905386 0.24437305
0.01435992 0.099068969 0.24419676
0.014595159 0.099077314 0.24404137
0.014822056 0.099089652 0.24387306
0.015260345 0.099109076 0.24356019
0.015795914 0.099131145 0.2431657
0.016563101 0.099188656 0.24263594
0.017215958 0.0992264 0.24222536
0.017787278 0.099256448 0.24189684
0.01832865 0.099269629 0.2416119
0.018817523 0.099319182 0.24135819
0.019328646 0.099369824 0.24109747
0.019762026 0.099419124 0.24088037
0.020147467 0.099460676 0.24070455
0.020556681 0.099511057 0.240514
0.020944603 0.099540122 0.24034078
0.021305019 0.09956716 0.2401817
0.096497416 0.084829122 0.20733361
0.096492037 0.084788747 0.2072823
0.096503884 0.084745839 0.20727165
0.096522532 0.084676512 0.20728542
0.096532792 0.084625416 0.20730364
0.096549749 0.084558159 0.20732526
0.096572831 0.084474638 0.20734906
0.096586838 0.084421381 0.20734404
0.09660624 0.084369309 0.20734367
0.096623033 0.084315933 0.20733663
0.09665899 0.084233157 0.20733877
-0.16945645 0.11080019 0.27426809
-0.16938019 0.11093801 0.2744287
-0.16927008 0.1111382 0.27467516
-0.16914566 0.11128993 0.27493888
-0.16901375 0.11153509 0.27521434
-0.168898 0.11165009 0.27543208
-0.16879864 0.11170979 0.27561209
-0.16869006 0.11187755 0.27581638
-0.16857275 0.11209276 0.27604729
-0.16842097 0.11237369 0.27635416
-0.16828057 0.1126 0.27663249
-0.16812891 0.11281316 0.27692515
-0.16796423 0.11303936 0.27724031
-0.16779235 0.11328283 0.27756351
-0.16765215 0.11347566 0.27782857
-0.16746907 0.11366859 0.27817035
-0.16730094 0.11384219 0.27848744
-0.16707975 0.11405425 0.27890182
-0.16678749 0.11433554 0.27944306
-0.1665034 0.11450312 0.27995402
-0.1662468 0.11461744 0.28041172
-0.16603169 0.1147607 0.28080171
-0.16572841 0.11498623 0.281344
-0.16537166 0.11527507 0.28199109
-0.16508593 0.11559169 0.2825048
-0.16479492 0.11583923 0.28301048
-0.16450036 0.11603428 0.28349519
-0.16419236 0.11621989 0.2839818
-0.16385511 0.11635659 0.28447986
-0.16363968 0.11646398 0.28482088
-0.1634215 0.11656059 0.2851679
-0.16322473 0.11666506 0.28549004
-0.16303125 0.11677538 0.28580719
-0.1628432 0.11690938 0.28611588
-0.16265921 0.11699459 0.28642207
-0.16243491 0.11718305 0.28679168
-0.16225342 0.11734299 0.28710291
-0.16205893 0.11744653 0.28743142
-0.16190039 0.11751874 0.28769571
-0.16175306 0.11761275 0.28794
-0.16161419 0.1176927 0.28816217
-0.16144145 0.11772846 0.28843531
-0.1612826 0.1178499 0.2886728
-0.16113296 0.11785163 0.28889212
-0.16098535 0.11784863 0.28910103
-0.019724127 0.105539 0.25884581
-0.019604331 0.1053164 0.25888282
-0.019487454 0.10518403 0.25889644
-0.019350275 0.10496385 0.2589229
-0.019198338 0.10474278 0.25894547
-0.019039635 0.10451419 0.25897002
-0.018880572 0.10424483 0.25899744
-0.018714214 0.10406965 0.25900367
-0.018436057 0.10373304 0.2590203
-0.018167458 0.10346922 0.25901142
0.0091377841 0.0988454 0.24733654
0.0097034937 0.098882198 0.24700461
0.010462139 0.098908342 0.24654715
0.011210429 0.09892416 0.24609597
0.011638282 0.098937839 0.24583325
0.012046382 0.098954424 0.24559148
0.012557952 0.098975129 0.24529825
0.013122084 0.099011436 0.24496789
0.013683653 0.09905193 0.24461868
0.014173095 0.099066623 0.24430959
0.01458338 0.099086218 0.24402677
0.014710231 0.099094048 0.24393395
0.015097517 0.099105746 0.2436602
0.015455408 0.099131174 0.24339691
0.016141934 0.099183246 0.2429
0.01685214 0.099223144 0.24246365
0.017472373 0.099254057 0.24208024
0.01803821 0.099271163 0.24175648
0.018534899 0.099291123 0.24150386
0.019023547 0.09933608 0.2412499
0.019378591 0.099378541 0.24106966
0.019811001 0.099432252 0.24086218
0.020169888 0.099475786 0.24069452
0.020607581 0.099520393 0.24049631
0.020970294 0.099543884 0.24033213
0.021432951 0.099593192 0.24012862
0.021868374 0.099637948 0.23993692
0.096384346 0.085258551 0.20712231
0.096401267 0.08519017 0.20714305
0.096416317 0.085134439 0.20714928
0.096436441 0.085066348 0.20716749
0.09645161 0.084997483 0.20718868
0.096467212 0.08492846 0.20720582
0.096488044 0.084847905 0.207238
0.096504115 0.084779158 0.20725594
0.096518382 0.084724948 0.20725758
0.096528836 0.084704474 0.20723926
0.096554622 0.084618501 0.20724854
0.096575521 0.084548369 0.20724644
-0.16948341 0.11140915 0.27429456
-0.1694016 0.11151107 0.27447104
-0.1692857 0.11170735 0.27472562
-0.16914728 0.11199256 0.27502841
-0.16903092 0.11219445 0.2752589
-0.16890438 0.11231497 0.27549231
-0.16880818 0.11245985 0.27567211
-0.16869713 0.11255768 0.27587786
-0.16857055 0.11285464 0.27613565
-0.16842557 0.1130933 0.27642331
-0.16827807 0.11332344 0.27671272
-0.16812837 0.11348571 0.27699062
-0.16795219 0.11371706 0.27732256
-0.16778648 0.11392636 0.27762964
-0.16764082 0.11412612 0.27791277
-0.16747895 0.1143224 0.27821755
-0.16732082 0.11443432 0.27850783
-0.16710468 0.11465666 0.27890933
-0.16684604 0.11488255 0.27938083
-0.16653986 0.11505044 0.27992818
-0.16630505 0.11515602 0.28034621
-0.16607901 0.11531446 0.28075755
-0.1657684 0.11554602 0.2813209
-0.165371 0.11587482 0.2820341
-0.16504821 0.11621936 0.28261143
-0.16475493 0.11647171 0.28311148
-0.1644977 0.11660749 0.28351721
-0.16425522 0.11668768 0.28389475
-0.16393226 0.11679002 0.28438202
-0.16372035 0.11689084 0.28471425
-0.1634824 0.11705682 0.28509703
-0.16323937 0.11716972 0.28549027
-0.16304721 0.11728617 0.28580552
-0.16285564 0.11742755 0.28613091
-0.16267233 0.11757544 0.28643614
-0.16247009 0.11779017 0.28678605
-0.16227889 0.11797848 0.28711948
-0.16210221 0.11811841 0.28741327
-0.16194095 0.11815213 0.28767142
-0.16178897 0.11821903 0.28791228
-0.16163936 0.1182977 0.28814182
-0.16149886 0.11829732 0.28835189
-0.16137274 0.11830598 0.28853539
-0.16124448 0.11820684 0.28870168
-0.16114068 0.11826259 0.28885385
-0.019863164 0.10607783 0.25874561
-0.019751646 0.10592258 0.25877133
-0.019604558 0.10566214 0.25880185
-0.019448541 0.1054346 0.25883132
-0.019316806 0.10525468 0.25884759
-0.019214289 0.10514925 0.25886005
-0.019074788 0.10492212 0.25888857
-0.018922469 0.10468855 0.25890759
-0.018614337 0.10426603 0.25892878
0.013683652 0.09905193 0.24461868
0.014343854 0.099085122 0.24417759
0.014731606 0.099097535 0.24391089
0.015042675 0.099113151 0.24369183
0.015349117 0.099131562 0.24346828
0.015732098 0.099141292 0.24318752
0.016382774 0.099198446 0.24275529
0.016975073 0.099227704 0.24236992
0.017651999 0.099262528 0.24197045
0.018299144 0.099284135 0.24161746
0.018787444 0.099329382 0.24136746
0.019222546 0.099372074 0.24113956
0.019502364 0.099400468 0.24100699
0.019860256 0.099443994 0.24083506
0.020220151 0.099488363 0.2406764
0.020632887 0.099527389 0.2404881
