# .PCD v0.7 - Point Cloud Data file format
VERSION 0.7
FIELDS x y z
SIZE 4 4 4
TYPE F F F
COUNT 1 1 1
WIDTH 1358
HEIGHT 1
VIEWPOINT 0 0 0 1 0 0 0
POINTS 1358
DATA ascii
0.12828726 0.0046301689 0.22170213
0.12892492 0.0046368344 0.22202128
0.12962589 0.0046457215 0.22244681
0.13032858 0.0046546082 0.22287235
0.1307833 0.0046546082 0.22287235
0.13105011 0.0046479432 0.22255319
0.13118988 0.0046368344 0.22202128
0.13132748 0.0046257251 0.22148935
0.13158952 0.0046190601 0.22117022
0.13197725 0.0046168379 0.22106382
0.13255575 0.0046212818 0.2212766
0.13300723 0.0046212818 0.2212766
0.13339454 0.0046190601 0.22117022
0.13395436 0.0045612939 0.21840425
0.1343345 0.0045590722 0.21829787
-0.16853735 0.0061604707 0.2687234
-0.16798906 0.0061604707 0.2687234
-0.16744079 0.0061604707 0.2687234
-0.1668925 0.0061604707 0.2687234
-0.16641009 0.0061629098 0.26882979
-0.1660585 0.0061702263 0.26914895
-0.16583644 0.0061824205 0.26968086
-0.16554701 0.0061921757 0.27010638
-0.16519086 0.0061994921 0.27042553
-0.16489819 0.0062092477 0.27085108
-0.16466832 0.0062214416 0.27138299
-0.16456494 0.0062385132 0.27212766
-0.16445853 0.0062555848 0.27287233
-0.16434908 0.0062726568 0.27361703
-0.16410923 0.0062848511 0.27414894
-0.16380373 0.0062946063 0.27457446
-0.16349652 0.0063043619 0.27500001
-0.16312453 0.0063116783 0.27531916
-0.16281404 0.0063214335 0.27574468
-0.16250183 0.0063311891 0.27617022
-0.16218787 0.0063409437 0.27659574
-0.16187219 0.0063506993 0.27702129
-0.1616167 0.0063628936 0.2775532
-0.1614825 0.0063799652 0.27829787
-0.16140679 0.006399476 0.27914894
-0.1612663 0.0064165471 0.27989361
-0.16106169 0.0064311805 0.28053191
-0.16079362 0.0064433743 0.28106382
-0.16034144 0.0064482521 0.28127658
-0.15994883 0.0064555686 0.28159574
-0.15961513 0.0064653242 0.28202128
-0.15939967 0.0064799567 0.28265956
-0.15918161 0.0064945896 0.28329787
-0.15896095 0.006509223 0.28393617
-0.15861899 0.0065189777 0.28436169
-0.15833442 0.006531172 0.2848936
-0.15804769 0.0065433667 0.28542554
-0.15781747 0.0065579992 0.28606382
-0.15752617 0.006570193 0.28659573
-0.15723272 0.0065823877 0.28712767
-0.15693708 0.006594582 0.28765959
-0.15669708 0.0066092145 0.28829786
-0.1565697 0.0066287252 0.28914893
-0.15643886 0.0066482355 0.28999999
-0.1563617 0.0066701854 0.29095745
-0.15610979 0.0066848183 0.29159576
-0.15568504 0.0066921343 0.29191488
-0.15514596 0.0066945734 0.29202127
-0.15471905 0.0067018899 0.29234043
-0.15434693 0.0067116451 0.29276595
-0.1540848 0.006726278 0.29340425
-0.15387572 0.0067433496 0.29414892
-0.15366362 0.0067604217 0.29489362
-0.15344846 0.0067774933 0.29563829
-0.15323028 0.0067945658 0.29638299
-0.15289947 0.0068067596 0.29691491
-0.15251194 0.0068165148 0.29734042
-0.15212266 0.0068262704 0.29776597
-0.15167752 0.0068335864 0.29808509
-0.15133892 0.0068457811 0.29861704
-0.15105182 0.0068604136 0.29925531
-0.15092258 0.006882363 0.30021277
-0.15078941 0.0069043119 0.3011702
-0.15054627 0.0069213845 0.3019149
-0.15008876 0.006928701 0.30223405
-0.14952472 0.0069311392 0.30234042
-0.14896025 0.0069335783 0.30244681
-0.1484997 0.0069408948 0.30276597
-0.14814176 0.006953089 0.30329788
-0.14788514 0.0069701606 0.30404255
-0.14762551 0.0069872327 0.30478725
-0.14720887 0.0069969879 0.30521277
-0.14673942 0.0070043043 0.30553192
-0.14637043 0.0070164986 0.30606383
-0.14610057 0.0070335697 0.3068085
-0.14587812 0.0070530805 0.30765957
-0.14560199 0.0070701526 0.30840427
-0.14532278 0.0070872242 0.30914894
-0.14509036 0.0071067349 0.31
-0.14485446 0.0071262456 0.31085107
-0.1445657 0.0071433173 0.31159574
-0.14422479 0.0071579502 0.31223404
-0.14383236 0.0071701445 0.31276596
-0.14348646 0.0071847774 0.31340426
-0.14313793 0.0071994099 0.31404254
-0.14278682 0.0072140428 0.31468084
-0.14243309 0.0072286762 0.31531915
-0.14207678 0.0072433092 0.31595746
-0.14171784 0.0072579416 0.31659573
-0.1413089 0.0072701359 0.31712765
-0.1408978 0.0072823307 0.31765959
-0.14048451 0.0072945245 0.3181915
-0.14016257 0.0073115961 0.31893617
-0.0014148768 0.0066433582 0.28978723
-0.00082241092 0.006633603 0.28936172
-0.00023151078 0.0066189701 0.28872341
0.00035691643 0.0066067758 0.2881915
0.00094456831 0.0066043371 0.2880851
0.0015346154 0.0066140927 0.28851065
0.0021287478 0.0066311643 0.28925532
0.012435413 0.0071262456 0.31085107
0.013118847 0.0071530729 0.31202129
0.013778917 0.0071652667 0.3125532
0.014441159 0.0071774609 0.31308511
0.015110695 0.0071920939 0.31372342
0.015804198 0.007216482 0.31478724
0.016529834 0.0072530643 0.31638297
0.017302409 0.0073067187 0.31872341
0.096994229 0.0054873554 0.2393617
0.097439282 0.0054849167 0.23925532
0.097840346 0.0054800389 0.23904255
0.09819679 0.005472722 0.2387234
0.098551929 0.005465406 0.23840426
0.098994158 0.0054629673 0.23829788
0.099480361 0.0054629673 0.23829788
0.099966563 0.0054629673 0.23829788
0.10036308 0.0054580895 0.23808511
0.10062353 0.0054458953 0.23755319
0.10088182 0.0054337014 0.23702128
0.10113793 0.0054215067 0.23648936
0.10152902 0.0054166294 0.2362766
0.10191923 0.0054117516 0.23606382
0.10240088 0.0054117516 0.23606382
0.10292889 0.0054141907 0.23617022
0.10345733 0.0054166294 0.2362766
0.10398621 0.005419068 0.23638298
0.10437448 0.0054141907 0.23617022
0.10471464 0.0054068742 0.23585106
0.1049586 0.00539468 0.23531915
0.10529573 0.0053873635 0.235
0.10572731 0.0053849248 0.23489362
0.10625467 0.0053873635 0.235
0.10678246 0.0053898022 0.23510638
0.10716508 0.0053849248 0.23489362
0.10744933 0.0053751697 0.23446809
0.10768288 0.0053629754 0.23393618
0.10796344 0.0053532203 0.23351064
0.10829166 0.0053459033 0.23319149
0.10876744 0.0053459033 0.23319149
0.10919339 0.0053434647 0.23308511
0.10966896 0.0053434647 0.23308511
0.11009424 0.0053410255 0.23297872
0.11046862 0.0053361482 0.23276596
0.11079141 0.0053288317 0.2324468
0.11106199 0.0053190761 0.23202127
0.11138198 0.0053117601 0.23170213
0.111752 0.0053068823 0.23148936
0.11206959 0.0052995658 0.23117021
0.11238588 0.0052922494 0.23085107
0.11264886 0.0052824942 0.23042554
0.1129101 0.0052727386 0.23
0.1131696 0.0052629835 0.22957447
0.11353268 0.0052581057 0.2293617
0.11394778 0.005255667 0.22925532
0.11446863 0.0052581057 0.2293617
0.11498991 0.0052605448 0.22946809
0.11540456 0.0052581057 0.2293617
0.11576505 0.0052532284 0.22914894
0.11612466 0.0052483506 0.22893617
0.11648341 0.0052434728 0.22872341
0.11695007 0.0052434728 0.22872341
0.11747135 0.0052459119 0.22882979
0.11799306 0.0052483506 0.22893617
0.11846016 0.0052483506 0.22893617
0.118872 0.0052459119 0.22882979
0.11917245 0.005238595 0.22851063
0.11952729 0.0052337176 0.22829787
0.11982534 0.0052264011 0.22797872
0.12000982 0.0052142069 0.22744681
0.12013579 0.0051995739 0.2268085
0.12031572 0.0051873797 0.22627659
0.12060706 0.0051800637 0.22595745
0.12101108 0.0051776245 0.22585106
0.12147188 0.0051776245 0.22585106
0.12193269 0.0051776245 0.22585106
0.12245115 0.0051800637 0.22595745
0.12291218 0.0051800637 0.22595745
0.12331511 0.0051776245 0.22585106
0.12371761 0.0051751859 0.22574468
0.12411968 0.0051727472 0.2256383
0.12452132 0.0051703081 0.22553192
0.12498148 0.0051703081 0.22553192
0.12526412 0.0051629916 0.22521277
0.12554546 0.0051556751 0.22489361
0.12576589 0.00514592 0.22446808
0.12616406 0.0051434813 0.2243617
0.12656179 0.0051410422 0.22425532
0.12695909 0.005138603 0.22414893
0.127235 0.005131287 0.22382979
0.12738824 0.0051190928 0.22329788
0.12753929 0.0051068985 0.22276595
0.12762706 0.005092266 0.22212766
0.12789625 0.0050849491 0.22180851
0.12834881 0.0050849491 0.22180851
0.12892492 0.0050898269 0.22202128
0.12962589 0.0050995825 0.22244681
0.13020416 0.0051044598 0.22265957
0.13065845 0.0051044598 0.22265957
0.13092482 0.0050971434 0.22234042
0.13106416 0.0050849491 0.22180851
0.1312644 0.0050751939 0.22138298
0.13152622 0.0050678775 0.22106382
0.13197725 0.0050678775 0.22106382
0.13242829 0.0050678775 0.22106382
0.13287933 0.0050678775 0.22106382
0.13320205 0.0050629997 0.22085106
0.13333075 0.0050508059 0.22031915
0.13339269 0.0050361725 0.21968085
0.13338721 0.0050191013 0.21893618
0.13363881 0.0050117844 0.21861702
0.13408487 0.0050117844 0.21861702
0.13446544 0.0050093457 0.21851064
0.13477992 0.0050044679 0.21829787
0.13489582 0.0049922741 0.21776596
0.13507566 0.0049825185 0.21734042
-0.16833718 0.0067007826 0.26840425
-0.16778955 0.0067007826 0.26840425
-0.16730821 0.0067034387 0.26851064
-0.16676037 0.0067034387 0.26851064
-0.16627838 0.0067060953 0.26861703
-0.1660585 0.0067193746 0.26914895
-0.16590185 0.006735309 0.26978722
-0.16574262 0.0067512444 0.27042553
-0.16545081 0.0067618685 0.27085108
-0.16509247 0.0067698355 0.2711702
-0.16479741 0.0067804595 0.27159575
-0.16462928 0.0067963949 0.27223405
-0.16452265 0.006814986 0.27297872
-0.16428518 0.0068282653 0.27351063
-0.16404554 0.0068415445 0.27404255
-0.16380373 0.0068548238 0.27457446
-0.16349652 0.0068654479 0.27500001
-0.16318755 0.006876071 0.27542552
-0.16281404 0.0068840384 0.27574468
-0.16250183 0.0068946625 0.27617022
-0.16225025 0.0069079418 0.27670214
-0.16199651 0.006921221 0.27723405
-0.16174059 0.0069345003 0.27776596
-0.16160595 0.0069530914 0.27851063
-0.16152981 0.0069743386 0.2793617
-0.16138889 0.0069929301 0.2801064
-0.16112277 0.0070062093 0.28063831
-0.16079362 0.0070168325 0.28106382
-0.16046274 0.0070274565 0.28148937
-0.16019055 0.0070407358 0.28202128
-0.15991618 0.0070540151 0.2825532
-0.15963964 0.0070672943 0.28308511
-0.15936093 0.0070805736 0.28361702
-0.15908006 0.0070938529 0.28414893
-0.15873767 0.0071044769 0.28457448
-0.15845267 0.0071177562 0.28510639
-0.1581066 0.0071283793 0.28553191
-0.15781747 0.0071416586 0.28606382
-0.15746771 0.0071522826 0.28648937
-0.15711619 0.0071629058 0.28691489
-0.15676296 0.0071735298 0.28734043
-0.15652362 0.0071894643 0.28797871
-0.1563969 0.0072107115 0.28882977
-0.15626669 0.0072319587 0.28968084
-0.15619019 0.0072558615 0.2906383
-0.15599588 0.0072744526 0.29138297
-0.15568504 0.0072877319 0.29191488
-0.155259 0.0072956998 0.29223403
-0.15477537 0.0073010121 0.29244682
-0.15434693 0.0073089791 0.29276595
-0.15402895 0.0073222592 0.29329789
-0.15370879 0.0073355385 0.2938298
-0.15344188 0.007351473 0.29446808
-0.15328281 0.0073727202 0.29531914
-0.15306528 0.0073913117 0.29606384
-0.15278989 0.0074072466 0.29670212
-0.15245736 0.0074205259 0.29723403
-0.15206832 0.0074311499 0.29765958
-0.15167752 0.0074417731 0.29808509
-0.15133892 0.0074550528 0.29861704
-0.15105182 0.0074709877 0.29925531
-0.15092258 0.0074948911 0.30021277
-0.15078941 0.0075187935 0.3011702
-0.15049322 0.0075347289 0.30180851
-0.15003592 0.0075426968 0.30212766
-0.1494721 0.0075453529 0.30223405
-0.14890784 0.0075480081 0.30234042
-0.1484997 0.0075586322 0.30276597
-0.14819372 0.0075745671 0.30340424
-0.14804038 0.00759847 0.3043617
-0.14778008 0.007617061 0.30510637
-0.1474141 0.0076303403 0.30563828
-0.14694379 0.0076383082 0.30595744
-0.14647217 0.0076462757 0.30627659
-0.14610057 0.0076595549 0.3068085
-0.14582768 0.0076781469 0.3075532
-0.14555176 0.0076967375 0.30829787
-0.14532278 0.0077179847 0.30914894
-0.14509036 0.0077392319 0.31
-0.14490403 0.0077631352 0.31095746
-0.1445657 0.0077790697 0.31159574
-0.14417565 0.007792349 0.31212765
-0.14378342 0.0078056282 0.31265956
-0.14338905 0.0078189084 0.3131915
-0.14308944 0.0078374995 0.31393617
-0.14278682 0.0078560906 0.31468084
-0.14243309 0.0078720255 0.31531915
-0.14207678 0.0078879613 0.31595746
-0.14167023 0.0079012401 0.31648937
-0.1411667 0.0079092085 0.31680852
-0.14075623 0.0079224873 0.31734043
-0.14039057 0.0079384223 0.31797871
-0.14006907 0.0079570143 0.31872341
-0.0014153963 0.0072372709 0.28989363
-0.00082331791 0.0072319587 0.28968084
-0.00023185198 0.0072186794 0.28914893
0.00035744344 0.0072053997 0.28861701
0.00094596361 0.0072027445 0.28851065
0.0015363129 0.0072107115 0.28882977
0.0021287478 0.0072213355 0.28925532
0.013145683 0.0078056282 0.31265956
0.013802367 0.0078162523 0.31308511
0.014470601 0.0078321882 0.31372342
0.015146562 0.0078507783 0.31446809
0.015830904 0.0078720255 0.31531915
0.016546508 0.0079065524 0.31670213
0.017302409 0.0079570143 0.31872341
0.10642953 0.0059571369 0.23861702
0.10534339 0.0058694929 0.23510638
0.10577519 0.0058668368 0.235
0.10625467 0.0058668368 0.235
0.10673414 0.0058668368 0.235
0.10711655 0.0058615254 0.23478724
0.10735182 0.0058482457 0.23425531
0.1076339 0.0058376221 0.23382978
0.10796344 0.0058296546 0.23351064
0.10834106 0.0058243428 0.23329787
0.10881706 0.0058243428 0.23329787
0.10929306 0.0058243428 0.23329787
0.10971901 0.0058216872 0.23319149
0.11014452 0.005819031 0.23308511
0.1105696 0.0058163749 0.23297872
0.11089283 0.0058084079 0.23265958
0.11116384 0.0057977843 0.23223405
0.11148425 0.0057898164 0.23191489
0.11180336 0.0057818489 0.23159574
0.11217274 0.0057765371 0.23138298
0.11243767 0.0057659135 0.23095745
0.11264886 0.0057526343 0.23042554
0.1129101 0.0057420107 0.23
0.11322204 0.0057340432 0.22968085
0.11358535 0.0057287314 0.22946809
0.11400066 0.0057260753 0.2293617
0.11457481 0.0057313871 0.22957447
0.11514983 0.0057366989 0.22978723
0.11561868 0.0057366989 0.22978723
0.11598003 0.0057313871 0.22957447
0.11617862 0.0057181078 0.22904256
0.11648341 0.0057101403 0.22872341
0.11695007 0.0057101403 0.22872341
0.11741674 0.0057101403 0.22872341
0.11793824 0.005712796 0.22882979
0.11835007 0.0057101403 0.22872341
0.11865095 0.0057021724 0.22840425
0.11895052 0.0056942045 0.2280851
0.11930449 0.0056888931 0.22787234
0.11971352 0.0056862375 0.22776596
0.12012209 0.0056835813 0.22765957
0.12041754 0.0056756139 0.22734043
0.12065513 0.0056649903 0.2269149
0.12094775 0.0056570224 0.22659574
0.12129608 0.005651711 0.22638299
0.12170075 0.0056490549 0.22627659
0.12216242 0.0056490549 0.22627659
0.12256645 0.0056463988 0.22617021
0.12297004 0.0056437431 0.22606383
0.12331511 0.0056384313 0.22585106
0.12360101 0.0056304638 0.22553192
0.12394413 0.005625152 0.22531915
0.12440385 0.005625152 0.22531915
0.12486357 0.005625152 0.22531915
0.1253233 0.005625152 0.22531915
0.12566423 0.0056198402 0.22510639
0.12594472 0.0056118728 0.22478724
0.12634353 0.0056092166 0.22468086
0.12668186 0.0056039048 0.22446808
0.12701935 0.0055985935 0.22425532
0.127235 0.0055879699 0.22382979
0.12744893 0.0055773463 0.22340426
0.12760021 0.005564067 0.22287235
0.12781043 0.0055534435 0.22244681
0.12808028 0.0055454755 0.22212766
0.12841037 0.0055401637 0.22191489
0.12898669 0.0055454755 0.22212766
0.12956388 0.0055507873 0.22234042
0.13007975 0.0055534435 0.22244681
0.13047117 0.0055507873 0.22234042
0.13073689 0.0055428199 0.22202128
0.13093844 0.0055321963 0.22159575
0.13120133 0.0055242288 0.2212766
0.13146292 0.0055162609 0.22095744
0.13191374 0.0055162609 0.22095744
0.13230084 0.0055136052 0.22085106
0.13268749 0.0055109491 0.22074468
0.13294539 0.0055029816 0.22042553
0.13313761 0.005492358 0.22
0.1332635 0.0054790787 0.21946809
0.13351683 0.0054711108 0.21914893
0.13389894 0.0054684551 0.21904255
0.1344111 0.0054711108 0.21914893
0.13472731 0.0054657995 0.21893618
0.13491128 0.0054551759 0.21851064
0.13496171 0.0054392405 0.21787234
0.13514178 0.0054286169 0.2174468
0.13545276 0.0054233051 0.21723405
0.13602909 0.0054286169 0.2174468
0.13858557 0.0054418966 0.21797873
-0.16813701 0.0072397925 0.26808509
-0.16759004 0.0072397925 0.26808509
-0.16710936 0.0072426656 0.26819149
-0.16656215 0.0072426656 0.26819149
-0.16621253 0.0072512846 0.26851064
-0.16599286 0.0072656493 0.26904255
-0.16596727 0.0072886324 0.26989362
-0.16580783 0.0073058703 0.27053192
-0.16551578 0.0073173619 0.27095744
-0.16515724 0.0073259808 0.27127659
-0.16486198 0.0073374729 0.27170214
-0.16462928 0.0073518376 0.27223405
-0.16445853 0.0073690745 0.27287233
-0.16428518 0.0073863124 0.27351063
-0.16404554 0.0074006771 0.27404255
-0.16380373 0.0074150413 0.27457446
-0.16349652 0.0074265334 0.27500001
-0.16318755 0.007438025 0.27542552
-0.16281404 0.0074466439 0.27574468
-0.16250183 0.007458136 0.27617022
-0.16225025 0.0074725007 0.27670214
-0.16199651 0.0074868654 0.27723405
-0.16186447 0.0075069754 0.27797872
-0.16172943 0.0075270864 0.27872342
-0.16159132 0.0075471969 0.27946809
-0.16138889 0.0075644348 0.2801064
-0.16112277 0.007578799 0.28063831
-0.16079362 0.0075902906 0.28106382
-0.16052337 0.0076046553 0.28159574
-0.16037183 0.0076247663 0.28234044
-0.16015701 0.0076420032 0.28297871
-0.15987961 0.007656368 0.28351063
-0.15954027 0.00766786 0.28393617
-0.15919918 0.0076793511 0.28436169
-0.15885636 0.0076908437 0.28478724
-0.15857092 0.0077052079 0.28531915
-0.1582244 0.0077166995 0.28574467
-0.15787616 0.0077281916 0.28617021
-0.15752617 0.0077396827 0.28659573
-0.15711619 0.0077483016 0.28691489
-0.15670492 0.0077569205 0.28723404
-0.15640798 0.0077712853 0.28776595
-0.15622409 0.0077913962 0.28851065
-0.15609454 0.0078143794 0.28936172
-0.15601867 0.0078402357 0.29031914
-0.15588197 0.0078632189 0.29117021
-0.15557157 0.0078775836 0.29170212
-0.15514596 0.007886203 0.29202127
-0.15471905 0.0078948215 0.29234043
-0.15434693 0.0079063131 0.29276595
-0.15397307 0.0079178056 0.29319149
-0.15359747 0.0079292962 0.29361701
-0.15333101 0.0079465341 0.29425532
-0.15311715 0.0079666451 0.29499999
-0.15295526 0.0079896282 0.29585105
-0.15278989 0.0080126114 0.29670212
-0.15245736 0.0080269761 0.29723403
-0.15212266 0.0080413418 0.29776597
-0.15167752 0.0080499593 0.29808509
-0.15128499 0.0080614518 0.29851064
-0.15105182 0.0080815619 0.29925531
-0.15092258 0.0081074191 0.30021277
-0.15078941 0.0081332745 0.3011702
-0.15049322 0.0081505124 0.30180851
-0.15003592 0.0081591317 0.30212766
-0.1494721 0.0081620049 0.30223405
-0.14901263 0.0081706224 0.30255318
-0.14865623 0.0081849881 0.30308512
-0.14840157 0.0082050981 0.30382979
-0.14824736 0.0082309553 0.30478725
-0.1480377 0.0082539376 0.30563828
-0.14767067 0.0082683032 0.30617023
-0.14719926 0.0082769217 0.30648935
-0.14667569 0.008282668 0.30670214
-0.14625254 0.0082941595 0.30712765
-0.14587812 0.0083085243 0.30765957
-0.14560199 0.0083286352 0.30840427
-0.14537281 0.0083516184 0.30925533
-0.14514016 0.0083746016 0.3101064
-0.14495359 0.0084004579 0.31106383
-0.14461507 0.0084176958 0.31170213
-0.14422479 0.0084320605 0.31223404
-0.14378342 0.0084435521 0.31265956
-0.14343774 0.008460789 0.31329787
-0.14308944 0.0084780268 0.31393617
-0.14278682 0.0084981378 0.31468084
-0.14243309 0.0085153757 0.31531915
-0.14207678 0.0085326135 0.31595746
-0.14167023 0.0085469773 0.31648937
-0.1411667 0.0085555967 0.31680852
-0.14070904 0.0085670883 0.31723404
-0.14034361 0.0085843261 0.31787235
-0.14006907 0.0086073093 0.31872341
-0.0014153963 0.0078287441 0.28989363
-0.00082331791 0.0078229979 0.28968084
-0.0002320226 0.0078143794 0.28936172
0.00035810217 0.0078086331 0.28914893
0.00094805635 0.0078086331 0.28914893
0.0015385764 0.0078115067 0.28925532
0.013150156 0.0084464252 0.31276596
0.013807057 0.0084579168 0.3131915
0.014480414 0.0084780268 0.31393617
0.015167058 0.0085038831 0.3148936
0.015846927 0.0085239941 0.3156383
0.01654095 0.0085498504 0.31659573
0.017279306 0.0085958168 0.31829786
0.10620657 0.0063434374 0.23489362
0.10663751 0.0063405647 0.23478724
0.10701948 0.0063348184 0.23457447
0.10730308 0.0063233268 0.23414893
0.1076339 0.0063147079 0.23382978
0.10796344 0.0063060895 0.23351064
0.10834106 0.0063003432 0.23329787
0.10876744 0.0062974705 0.23319149
0.10924322 0.0062974705 0.23319149
0.10966896 0.0062945979 0.23308511
0.11014452 0.0062945979 0.23308511
0.1105696 0.0062917243 0.23297872
0.11094353 0.0062859789 0.23276596
0.11121476 0.0062744869 0.23234043
0.11148425 0.0062629953 0.23191489
0.11180336 0.0062543764 0.23159574
0.11212117 0.0062457579 0.2312766
0.11233409 0.0062313927 0.23074467
0.11254484 0.0062170285 0.23021276
0.11285787 0.0062084096 0.22989361
0.1131696 0.0061997911 0.22957447
0.11358535 0.006196918 0.22946809
0.11405354 0.006196918 0.22946809
0.11457481 0.0061997911 0.22957447
0.11520314 0.0062084096 0.22989361
0.11572573 0.0062112827 0.23
0.11608751 0.0062055364 0.22978723
0.1163405 0.0061940448 0.2293617
0.11664594 0.0061854264 0.22904256
0.11700447 0.0061796801 0.22882979
0.11752596 0.0061825532 0.22893617
0.11793824 0.0061796801 0.22882979
0.11829503 0.0061739343 0.22861703
0.11854043 0.0061624427 0.22819149
0.11883956 0.0061538238 0.22787234
0.11919309 0.006148078 0.22765957
0.11971352 0.0061509511 0.22776596
0.12023436 0.0061538238 0.22787234
0.12064294 0.0061509511 0.22776596
0.12099452 0.0061452049 0.22755319
0.12134524 0.0061394591 0.22734043
0.12169508 0.0061337133 0.22712766
0.12204406 0.0061279675 0.2269149
0.12244959 0.0061250944 0.2268085
0.12279706 0.0061193486 0.22659574
0.12308577 0.0061107296 0.22627659
0.12331511 0.0060992381 0.22585106
0.1235427 0.006087746 0.22542553
0.12388561 0.0060820007 0.22521277
0.12428638 0.0060791275 0.22510639
0.12486357 0.0060848733 0.22531915
0.12538245 0.006087746 0.22542553
0.12584239 0.006087746 0.22542553
0.12618314 0.0060820007 0.22521277
0.12652299 0.0060762544 0.22499999
0.12680195 0.006067636 0.22468086
0.12707959 0.006059017 0.2243617
0.12729548 0.0060475254 0.22393617
0.12750961 0.0060360334 0.22351064
0.12772201 0.0060245418 0.22308511
0.12799381 0.0060159229 0.22276595
0.12826429 0.0060073044 0.22244681
0.12859504 0.0060015582 0.22223404
0.12904847 0.0060015582 0.22223404
0.12950189 0.0060015582 0.22223404
0.12989311 0.0059986855 0.22212766
0.13028389 0.0059958128 0.22202128
0.1306116 0.0059900666 0.22180851
0.13087557 0.0059814476 0.22148935
0.13120133 0.0059757018 0.2212766
0.13152622 0.0059699561 0.22106382
0.13185023 0.0059642103 0.22085106
0.13223711 0.0059613376 0.22074468
0.13249566 0.0059527187 0.22042553
0.13275291 0.0059440997 0.22010638
0.13300885 0.0059354813 0.21978724
0.1332635 0.0059268624 0.21946809
0.13371128 0.0059268624 0.21946809
0.13415906 0.0059268624 0.21946809
0.13467209 0.005929735 0.21957447
0.13498917 0.0059239892 0.21936171
0.13510832 0.0059096245 0.21882978
0.1351594 0.0058923867 0.21819149
0.13534012 0.0058808951 0.21776596
0.13565177 0.0058751493 0.2175532
0.13616219 0.0058780224 0.21765958
0.13667305 0.0058808951 0.21776596
0.13725133 0.0058866413 0.21797873
0.13769609 0.0058866413 0.21797873
0.13814083 0.0058866413 0.21797873
0.13858557 0.0058866413 0.21797873
0.13909817 0.005889514 0.21808511
-0.16813701 0.0077867699 0.26808509
-0.16752355 0.0077836802 0.26797873
-0.16697678 0.0077836802 0.26797873
-0.16643003 0.0077836802 0.26797873
-0.16608082 0.0077929506 0.26829788
-0.16592722 0.0078114895 0.26893616
-0.16583644 0.0078331204 0.26968086
-0.16567743 0.0078516603 0.27031916
-0.16538581 0.0078640198 0.27074468
-0.16502772 0.0078732902 0.27106383
-0.16473286 0.0078856498 0.27148935
-0.16456494 0.0079041896 0.27212766
-0.16445853 0.0079258196 0.27287233
-0.16434908 0.0079474496 0.27361703
-0.16410923 0.0079628993 0.27414894
-0.16386721 0.0079783499 0.27468085
-0.16349652 0.0079876194 0.27500001
-0.16318755 0.007999979 0.27542552
-0.16275123 0.0080061601 0.27563831
-0.16243923 0.0080185188 0.27606383
-0.16212548 0.0080308784 0.27648935
-0.16199651 0.0080525093 0.27723405
-0.16186447 0.0080741392 0.27797872
-0.16179115 0.0080988584 0.27882978
-0.16165282 0.0081204884 0.27957445
-0.16132759 0.0081328489 0.28
-0.16100061 0.0081452085 0.28042552
-0.1606719 0.008157569 0.28085107
-0.16046274 0.0081761088 0.28148937
-0.16037183 0.0082008289 0.28234044
-0.16027744 0.008225549 0.2831915
-0.16005959 0.0082440879 0.28382978
-0.15965982 0.0082533583 0.28414893
-0.15925874 0.0082626287 0.28446808
-0.15891568 0.0082749883 0.2848936
-0.15857092 0.0082873479 0.28531915
-0.15828332 0.0083027985 0.28585106
-0.15799354 0.0083182482 0.28638297
-0.15764312 0.0083306087 0.28680852
-0.15717445 0.008336788 0.28702128
-0.15670492 0.0083429683 0.28723404
-0.15635017 0.0083553279 0.28765959
-0.15616648 0.0083769578 0.28840426
-0.15603715 0.0084016779 0.28925532
-0.15596151 0.0084294882 0.29021278
-0.1557111 0.0084480271 0.29085106
-0.15540136 0.0084634777 0.29138297
-0.1549764 0.0084727472 0.29170212
-0.15460646 0.0084851077 0.29212767
-0.15429085 0.0085005574 0.29265958
-0.15386134 0.0085098278 0.29297873
-0.15348618 0.0085221874 0.29340425
-0.15322015 0.0085407272 0.29404256
-0.15300672 0.0085623572 0.29478723
-0.15290026 0.0085901674 0.29574469
-0.15273513 0.0086148875 0.29659575
-0.15245736 0.0086334264 0.29723403
-0.15212266 0.008648877 0.29776597
-0.15173166 0.0086612366 0.29819149
-0.15133892 0.0086735971 0.29861704
-0.15110552 0.0086952271 0.29936171
-0.15097605 0.0087230364 0.30031914
-0.15078941 0.0087477565 0.3011702
-0.15044019 0.0087632071 0.30170214
-0.14998309 0.0087724756 0.30202127
-0.14952472 0.008781746 0.30234042
-0.14916982 0.0087971957 0.30287233
-0.14886494 0.0088157365 0.30351064
-0.1486094 0.0088373655 0.30425531
-0.14840259 0.0088620856 0.30510637
-0.14819229 0.0088868057 0.30595744
-0.14782459 0.0089022554 0.30648935
-0.14735253 0.0089115258 0.3068085
-0.14687918 0.0089207953 0.30712765
-0.14640452 0.0089300657 0.30744681
-0.14602944 0.0089455154 0.30797872
-0.14565219 0.0089609651 0.30851063
-0.14537281 0.008982596 0.30925533
-0.14514016 0.0090073161 0.3101064
-0.14490403 0.0090320362 0.31095746
-0.14461507 0.0090536652 0.31170213
-0.14422479 0.0090691149 0.31223404
-0.14383236 0.0090845656 0.31276596
-0.14343774 0.0091000153 0.31329787
-0.14308944 0.0091185551 0.31393617
-0.14278682 0.0091401851 0.31468084
-0.14243309 0.0091587249 0.31531915
-0.14207678 0.0091772648 0.31595746
-0.14167023 0.0091927154 0.31648937
-0.1412615 0.0092081651 0.31702128
-0.14080341 0.0092205247 0.3174468
-0.14043754 0.0092390645 0.3180851
-0.14006907 0.0092576044 0.31872341
-0.001413838 0.0084109483 0.28957447
-0.00082241092 0.0084047681 0.28936172
-0.0002319373 0.0084016779 0.28925532
0.00035836571 0.0084047681 0.28936172
0.00094945164 0.0084109483 0.28957447
0.0015408398 0.0084140375 0.28968084
0.013145683 0.0090814745 0.31265956
0.013797677 0.0090907449 0.31297871
0.014475507 0.009115465 0.31382978
0.015161934 0.0091432752 0.31478724
0.015836244 0.009161815 0.31542554
0.016518718 0.009183445 0.31617022
0.017238881 0.0092236148 0.31755319
0.10697094 0.006810334 0.23446809
0.10730308 0.0068010637 0.23414893
0.10758493 0.0067887041 0.2337234
0.10796344 0.0067825243 0.23351064
0.10834106 0.006776344 0.23329787
0.10876744 0.0067732539 0.23319149
0.10919339 0.0067701642 0.23308511
0.10961889 0.0067670736 0.23297872
0.11004397 0.006763984 0.23287234
0.11046862 0.0067608943 0.23276596
0.11084213 0.0067547145 0.2325532
0.11111292 0.0067423545 0.23212767
0.11133083 0.0067269038 0.23159574
0.11159793 0.0067145443 0.23117021
0.11186329 0.0067021842 0.23074467
0.11212692 0.0066898242 0.23031914
0.11238881 0.0066774641 0.22989361
0.11275342 0.0066712843 0.22968085
0.1131696 0.0066681947 0.22957447
0.11358535 0.0066651045 0.22946809
0.11405354 0.0066651045 0.22946809
0.11457481 0.0066681947 0.22957447
0.11514983 0.0066743745 0.22978723
0.1156722 0.0066774641 0.22989361
0.11608751 0.0066743745 0.22978723
0.11639447 0.0066651045 0.22946809
0.11675429 0.0066589243 0.22925532
0.11711326 0.0066527445 0.22904256
0.11758058 0.0066527445 0.22904256
0.11799306 0.0066496544 0.22893617
0.11829503 0.0066403849 0.22861703
0.11859569 0.0066311145 0.22829787
0.11883956 0.0066187545 0.22787234
0.11919309 0.0066125747 0.22765957
0.11965759 0.0066125747 0.22765957
0.12023436 0.0066187545 0.22787234
0.12075564 0.0066218446 0.22797872
0.12127735 0.0066249343 0.2280851
0.12162915 0.0066187545 0.22787234
0.12198007 0.0066125747 0.22765957
0.12233014 0.0066063949 0.22744681
0.12267933 0.0066002146 0.22723404
0.12297001 0.0065909447 0.2269149
0.12320152 0.0065785847 0.22648937
0.1233732 0.006563135 0.22595745
0.12360101 0.0065507749 0.22553192
0.12382709 0.0065384149 0.22510639
0.12428638 0.0065384149 0.22510639
0.12486357 0.0065445947 0.22531915
0.12544164 0.0065507749 0.22553192
0.12596118 0.006553865 0.2256383
0.12636195 0.0065507749 0.22553192
0.12664263 0.006541505 0.22521277
0.12686199 0.0065291449 0.22478724
0.12707959 0.0065167849 0.2243617
0.12729548 0.0065044248 0.22393617
0.1275703 0.0064951549 0.22361702
0.12784383 0.0064858855 0.22329788
0.12823831 0.0064827949 0.22319148
0.12850967 0.0064735254 0.22287235
0.12884127 0.0064673452 0.22265957
0.12917203 0.0064611654 0.22244681
0.12943991 0.0064518955 0.22212766
0.12976868 0.0064457152 0.22191489
0.13009661 0.0064395354 0.22170213
0.13048632 0.0064364453 0.22159575
0.13087557 0.0064333552 0.22148935
0.13120133 0.0064271754 0.2212766
0.13152622 0.0064209951 0.22106382
0.13185023 0.0064148153 0.22085106
0.13217339 0.0064086355 0.2206383
0.13243172 0.0063993656 0.22031915
0.13268875 0.0063900957 0.22
0.13300885 0.0063839159 0.21978724
0.13345729 0.0063839159 0.21978724
0.13390572 0.0063839159 0.21978724
0.13441919 0.0063870056 0.21989362
0.13486785 0.0063870056 0.21989362
0.13518555 0.0063808253 0.21968085
0.13537104 0.0063684653 0.21925531
0.135423 0.0063499259 0.21861702
0.13560459 0.0063375658 0.21819149
0.1359171 0.006331386 0.21797873
0.13636185 0.006331386 0.21797873
0.13680659 0.006331386 0.21797873
0.13731831 0.0063344757 0.21808511
0.13776328 0.0063344757 0.21808511
0.13820824 0.0063344757 0.21808511
0.13858557 0.006331386 0.21797873
0.13903032 0.006331386 0.21797873
0.13947506 0.006331386 0.21797873
-0.1680703 0.0083304411 0.26797873
-0.16752355 0.0083304411 0.26797873
-0.16691048 0.008327133 0.26787233
-0.16643003 0.0083304411 0.26797873
-0.16608082 0.0083403615 0.26829788
-0.16586159 0.0083568972 0.26882979
-0.16570561 0.0083767399 0.2694681
-0.16548182 0.0083932746 0.27000001
-0.16519086 0.0084065022 0.27042553
-0.16483341 0.0084164236 0.27074468
-0.1645392 0.0084296511 0.2711702
-0.16443628 0.008452801 0.2719149
-0.16433029 0.00847595 0.27265957
-0.16428518 0.008502407 0.27351063
-0.1641729 0.008525556 0.27425531
-0.16386721 0.0085387845 0.27468085
-0.16349652 0.0085487058 0.27500001
-0.16312453 0.0085586272 0.27531916
-0.16268842 0.0085652405 0.27553192
-0.16231404 0.0085751619 0.27585107
-0.16200073 0.0085883895 0.27627659
-0.16181001 0.0086082323 0.27691489
-0.16174059 0.0086346883 0.27776596
-0.16172943 0.0086644525 0.27872342
-0.16152981 0.0086842943 0.2793617
-0.16120501 0.0086975228 0.27978724
-0.16081738 0.0087074442 0.2801064
-0.16048932 0.0087206718 0.28053191
-0.16028081 0.0087405136 0.28117022
-0.16025096 0.0087702768 0.28212765
-0.16021723 0.0088000409 0.28308511
-0.15999961 0.0088198828 0.28372341
-0.15965982 0.0088331113 0.28414893
-0.15925874 0.0088430317 0.28446808
-0.15885636 0.0088529531 0.28478724
-0.15857092 0.0088694887 0.28531915
-0.15834223 0.0088893306 0.28595746
-0.15811092 0.0089091724 0.28659573
-0.15776007 0.0089224009 0.28702128
-0.15729097 0.0089290151 0.28723404
-0.15676296 0.0089323223 0.28734043
-0.15640798 0.0089455498 0.28776595
-0.15616648 0.0089653926 0.28840426
-0.15609454 0.0089951567 0.28936172
-0.15596151 0.0090216128 0.29021278
-0.15565416 0.0090381484 0.29074469
-0.15517442 0.0090447618 0.29095745
-0.15480684 0.0090579893 0.29138297
-0.15449384 0.009074525 0.29191488
-0.15423477 0.0090943668 0.29255319
-0.15391721 0.0091109024 0.2930851
-0.15354183 0.0091241309 0.29351065
-0.15327556 0.0091439728 0.29414892
-0.15306194 0.0091671227 0.29489362
-0.15284526 0.0091902716 0.29563829
-0.15268034 0.0092167277 0.29648936
-0.1524028 0.0092365704 0.29712766
-0.15212266 0.0092564132 0.29776597
-0.15173166 0.0092696408 0.29819149
-0.15139282 0.0092861755 0.2987234
-0.15115921 0.0093093244 0.29946807
-0.15102954 0.0093390886 0.30042553
-0.15073617 0.0093589313 0.30106384
-0.15038712 0.009375466 0.30159575
-0.14998309 0.0093886936 0.30202127
-0.14962994 0.0094052292 0.30255318
-0.14932701 0.0094250711 0.30319148
-0.14907366 0.009448221 0.30393618
-0.14881726 0.0094713699 0.30468085
-0.14855783 0.0094945189 0.30542552
-0.14829536 0.0095176687 0.30617023
-0.14787591 0.0095308973 0.30659574
-0.14740364 0.0095408186 0.3069149
-0.14698093 0.0095540462 0.30734041
-0.14650585 0.0095639676 0.30765957
-0.1460799 0.0095771961 0.30808511
-0.14560199 0.0095871175 0.30840427
-0.14527278 0.0096069584 0.30904254
-0.14499077 0.0096301083 0.30978724
-0.14480487 0.0096598715 0.31074467
-0.1445657 0.0096863275 0.31159574
-0.14422479 0.0097061703 0.31223404
-0.14388128 0.0097260131 0.31287235
-0.14353515 0.009745854 0.31351063
-0.14318642 0.0097656967 0.31414893
-0.1428351 0.0097855395 0.31478724
-0.14248116 0.0098053822 0.31542554
-0.14212461 0.0098252231 0.31606382
-0.14176546 0.0098450659 0.31670213
-0.1413563 0.0098616015 0.31723404
-0.14094497 0.0098781362 0.31776595
-0.14057845 0.009897979 0.31840426
-0.14016257 0.0099145137 0.31893617
-0.0014107216 0.0089819282 0.28893617
-0.00082029437 0.0089720068 0.28861701
-0.00023134019 0.0089686997 0.28851065
0.0003578387 0.0089819282 0.28893617
0.0009491028 0.0089984629 0.28946808
0.0015408398 0.0090050772 0.28968084
0.013792988 0.0097260131 0.31287235
0.014460785 0.009745854 0.31351063
0.015141438 0.009772311 0.31436169
0.015820222 0.0097954609 0.31510639
0.016502043 0.0098186098 0.31585106
0.017198456 0.009848373 0.31680852
0.017940721 0.0099012861 0.31851065
0.10758493 0.0072655729 0.2337234
0.10796344 0.0072589586 0.23351064
0.10834106 0.0072523444 0.23329787
0.10871782 0.0072457306 0.23308511
0.10914355 0.007242423 0.23297872
0.10956884 0.0072391164 0.23287234
0.1099937 0.0072358092 0.23276596
0.11041813 0.0072325026 0.23265958
0.11069001 0.0072192741 0.23223405
0.11096015 0.007206046 0.23180851
0.11112627 0.0071862037 0.23117021
0.11134115 0.0071696686 0.2306383
0.11155386 0.0071531334 0.23010638
0.11181618 0.0071399054 0.22968085
0.11218079 0.0071332911 0.22946809
0.11264898 0.0071332911 0.22946809
0.1131696 0.0071365982 0.22957447
0.11363801 0.0071365982 0.22957447
0.11405354 0.0071332911 0.22946809
0.11446863 0.007129984 0.2293617
0.11498991 0.0071332911 0.22946809
0.11551162 0.0071365982 0.22957447
0.11598003 0.0071365982 0.22957447
0.11639447 0.0071332911 0.22946809
0.11680847 0.007129984 0.2293617
0.11727645 0.007129984 0.2293617
0.11763519 0.0071233702 0.22914894
0.1180479 0.0071200631 0.22904256
0.11840512 0.0071134488 0.22882979
0.11870621 0.0071035274 0.22851063
0.11895052 0.0070902994 0.2280851
0.1192488 0.0070803785 0.22776596
0.11960168 0.0070737642 0.22755319
0.12012209 0.0070770714 0.22765957
0.12069929 0.0070836856 0.22787234
0.12133392 0.0070936065 0.22819149
0.1217995 0.0070936065 0.22819149
0.12215108 0.0070869923 0.22797872
0.1225018 0.0070803785 0.22776596
0.1227942 0.0070704571 0.22744681
0.12308531 0.0070605362 0.22712766
0.12325938 0.007044001 0.22659574
0.12343128 0.0070274659 0.22606383
0.12360101 0.0070109307 0.22553192
0.12382709 0.0069977026 0.22510639
0.12428638 0.0069977026 0.22510639
0.12492252 0.0070076231 0.22542553
0.12555997 0.0070175445 0.22574468
0.12607995 0.0070208516 0.22585106
0.12648115 0.0070175445 0.22574468
0.12670246 0.0070043164 0.22531915
0.12680195 0.0069844741 0.22468086
0.12695909 0.0069679385 0.22414893
0.12717453 0.0069547109 0.22372341
0.12750961 0.0069480967 0.22351064
0.12790474 0.0069447896 0.22340426
0.12836055 0.0069447896 0.22340426
0.12875503 0.0069414829 0.22329788
0.12902595 0.0069315615 0.22297873
0.12923379 0.0069183335 0.22255319
0.12943991 0.006905105 0.22212766
0.12970649 0.0068951841 0.22180851
0.13003419 0.0068885703 0.22159575
0.13042367 0.0068852627 0.22148935
0.13087557 0.0068852627 0.22148935
0.1312644 0.0068819555 0.22138298
0.13158952 0.0068753418 0.22117022
0.13178672 0.0068621137 0.22074468
0.13198219 0.0068488857 0.22031915
0.13223988 0.0068389643 0.22
0.13262458 0.0068356572 0.21989362
0.13307324 0.0068356572 0.21989362
0.13358648 0.0068389643 0.22
0.13410017 0.006842271 0.22010638
0.13461429 0.0068455786 0.22021277
0.13506359 0.0068455786 0.22021277
0.13531649 0.0068356572 0.21989362
0.13550241 0.0068224291 0.21946809
0.1356207 0.006805894 0.21893618
0.13586906 0.0067959726 0.21861702
0.1361161 0.0067860517 0.21829787
0.1365615 0.0067860517 0.21829787
0.13700689 0.0067860517 0.21829787
0.13745229 0.0067860517 0.21829787
0.13789769 0.0067860517 0.21829787
0.13827565 0.0067827445 0.21819149
0.1386532 0.0067794374 0.21808511
0.13903032 0.0067761308 0.21797873
-0.1680703 0.008877201 0.26797873
-0.16745703 0.0088736769 0.26787233
-0.16691048 0.0088736769 0.26787233
-0.16643003 0.008877201 0.26797873
-0.16608082 0.0088877734 0.26829788
-0.16579595 0.0089018689 0.2687234
-0.16557476 0.0089194896 0.26925531
-0.16535141 0.0089371102 0.26978722
-0.16506089 0.0089512067 0.27021277
-0.16476864 0.0089653032 0.27063829
-0.16447467 0.0089793997 0.27106383
-0.16430761 0.0090005444 0.27170214
-0.16426618 0.0090287374 0.27255321
-0.16422127 0.0090569295 0.27340424
-0.16404554 0.0090780742 0.27404255
-0.16380373 0.0090956949 0.27457446
-0.16343327 0.0091062672 0.27489361
-0.16306148 0.0091168396 0.27521276
-0.16268842 0.009127412 0.27553192
-0.16225143 0.0091344602 0.27574468
-0.16193835 0.0091485567 0.27617022
-0.16174784 0.0091697006 0.2768085
-0.16167864 0.0091978936 0.27765957
-0.16160595 0.0092260865 0.27851063
-0.16140679 0.0092472313 0.27914894
-0.16102111 0.0092578037 0.27946809
-0.16057307 0.009264851 0.27968085
-0.16024588 0.0092789484 0.2801064
-0.16003823 0.0093000922 0.28074467
-0.16000926 0.0093318094 0.28170213
-0.16003659 0.0093670506 0.28276595
-0.15987961 0.0093917185 0.28351063
-0.15954027 0.009405815 0.28393617
-0.15913962 0.0094163883 0.28425533
-0.15873767 0.0094269607 0.28457448
-0.15851179 0.0094481045 0.28521276
-0.15828332 0.0094692493 0.28585106
-0.15811092 0.0094939172 0.28659573
-0.15781856 0.0095115388 0.28712767
-0.15734923 0.009518587 0.28734043
-0.15687904 0.0095256343 0.28755319
-0.15652362 0.0095397308 0.28797871
-0.1563393 0.0095643997 0.28872341
-0.15626669 0.0095961159 0.28968084
-0.15607585 0.0096207857 0.29042554
-0.1557111 0.0096348813 0.29085106
-0.15523115 0.0096419295 0.29106382
-0.15480684 0.0096525019 0.29138297
-0.15455015 0.0096736467 0.29202127
-0.15429085 0.0096947914 0.29265958
-0.15402895 0.0097159361 0.29329789
-0.15376443 0.00973708 0.29393616
-0.15344188 0.0097547006 0.29446808
-0.15317237 0.0097758453 0.29510638
-0.15284526 0.009793466 0.29563829
-0.15257077 0.0098146107 0.2962766
-0.1522391 0.0098322313 0.29680851
-0.15195961 0.0098533761 0.29744682
-0.15167752 0.0098745199 0.29808509
-0.15139282 0.0098956646 0.2987234
-0.15121292 0.0099238576 0.29957446
-0.15102954 0.0099520506 0.30042553
-0.15073617 0.0099731954 0.30106384
-0.15033408 0.0099872909 0.30148935
-0.14998309 0.010004912 0.30202127
-0.14968255 0.010026056 0.30265957
-0.14948419 0.010054249 0.30351064
-0.14928237 0.010082442 0.3043617
-0.1490251 0.01010711 0.30510637
-0.14871305 0.010128255 0.30574468
-0.14834687 0.010145876 0.30627659
-0.14787591 0.010156448 0.30659574
-0.14740364 0.01016702 0.3069149
-0.14698093 0.010181116 0.30734041
-0.14650585 0.010191689 0.30765957
-0.1460799 0.010205786 0.30808511
-0.14560199 0.010216358 0.30840427
-0.14517276 0.010230454 0.30882978
-0.14494099 0.010258647 0.30968085
-0.1447553 0.010290364 0.31063831
-0.14451636 0.010318557 0.31148937
-0.14422479 0.010343226 0.31223404
-0.14388128 0.01036437 0.31287235
-0.14358386 0.010389038 0.31361702
-0.1432834 0.010413707 0.31436169
-0.14293163 0.010434852 0.315
-0.1425292 0.010452472 0.31553191
-0.14217244 0.010473617 0.31617022
-0.14181308 0.010494762 0.31680852
-0.14149852 0.01051943 0.31755319
-0.14113373 0.010540575 0.3181915
-0.14071937 0.010558195 0.31872341
-0.14020933 0.010568768 0.31904256
-0.0019958226 0.0095503032 0.28829786
-0.0014060468 0.0095397308 0.28797871
-0.00081696844 0.0095221102 0.2874468
-0.00023040186 0.009518587 0.28734043
0.00035652117 0.0095362067 0.28787234
0.00094631233 0.0095608756 0.28861701
0.014446066 0.010374943 0.3131915
0.015126065 0.010403135 0.31404254
0.015809538 0.010431327 0.3148936
0.016490927 0.010455997 0.3156383
0.01716958 0.010477141 0.31627661
0.017874805 0.010512382 0.31734043
0.018627835 0.010572291 0.31914893
0.10791425 0.0077318689 0.23340425
0.10824226 0.007721297 0.23308511
0.10861858 0.0077142487 0.23287234
0.10904387 0.0077107246 0.23276596
0.10951879 0.0077107246 0.23276596
0.1099937 0.0077107246 0.23276596
0.11031716 0.0077001522 0.2324468
0.1105886 0.0076860557 0.23202127
0.11080738 0.0076684356 0.23148936
0.11092171 0.0076437667 0.23074467
0.11108436 0.0076226224 0.23010638
0.11129599 0.0076050018 0.22957447
0.11160902 0.0075944294 0.22925532
0.11207677 0.0075944294 0.22925532
0.11264898 0.0076014777 0.22946809
0.1131696 0.0076050018 0.22957447
0.11369067 0.0076085259 0.22968085
0.11405354 0.0076014777 0.22946809
0.11441553 0.0075944294 0.22925532
0.11482998 0.0075909053 0.22914894
0.11529751 0.0075909053 0.22914894
0.11581879 0.0075944294 0.22925532
0.1163405 0.0075979535 0.2293617
0.11686265 0.0076014777 0.22946809
0.11727645 0.0075979535 0.2293617
0.1176898 0.0075944294 0.22925532
0.11810273 0.0075909053 0.22914894
0.11851522 0.0075873816 0.22904256
0.11881674 0.0075768093 0.22872341
0.11906148 0.0075627128 0.22829787
0.11930449 0.0075486163 0.22787234
0.11960168 0.0075380439 0.22755319
0.12006596 0.0075380439 0.22755319
0.12064294 0.0075450921 0.22776596
0.12555997 0.0074781342 0.22574468
0.12613934 0.0074851825 0.22595745
0.12648115 0.0074781342 0.22574468
0.12670246 0.0074640377 0.22531915
0.12680195 0.0074428935 0.22468086
0.12695909 0.0074252724 0.22414893
0.12711406 0.0074076522 0.22361702
0.12744893 0.0074006044 0.22340426
0.12790474 0.0074006044 0.22340426
0.12842168 0.0074041281 0.22351064
0.12881637 0.0074006044 0.22340426
0.12914906 0.0073935557 0.22319148
0.12929557 0.0073759356 0.22265957
0.12950189 0.0073618391 0.22223404
0.12964427 0.0073442184 0.22170213
0.13003419 0.0073406948 0.22159575
0.13048632 0.0073406948 0.22159575
0.13093844 0.0073406948 0.22159575
0.13132748 0.0073371702 0.22148935
0.13152622 0.0073230737 0.22106382
0.13165969 0.0073054535 0.22053191
0.13185473 0.007291357 0.22010638
0.13211198 0.0072807851 0.21978724
0.13256042 0.0072807851 0.21978724
0.13307324 0.0072843088 0.21989362
0.13365108 0.007291357 0.22010638
0.13448904 0.0073125018 0.22074468
0.13578483 0.0073583149 0.22212766
0.13734727 0.0074182246 0.22393617
0.13907668 0.0073406948 0.22159575
0.1382561 0.0072737364 0.21957447
0.13809928 0.0072420198 0.21861702
0.13847792 0.0072384956 0.21851064
0.13872084 0.0072279233 0.21819149
-0.16787013 0.0094127376 0.26765957
-0.16739054 0.0094164796 0.26776597
-0.16691048 0.0094202198 0.26787233
-0.16643003 0.0094239609 0.26797873
-0.16608082 0.0094351852 0.26829788
-0.16586159 0.0094538908 0.26882979
-0.16564019 0.0094725965 0.2693617
-0.16541661 0.0094913021 0.26989362
-0.16519086 0.0095100077 0.27042553
-0.16489819 0.0095249731 0.27085108
-0.1645392 0.0095361955 0.2711702
-0.16430761 0.0095549021 0.27170214
-0.16413794 0.0095773479 0.27234042
-0.16402958 0.0096035367 0.27308512
-0.16385449 0.0096259834 0.27372339
-0.16367681 0.0096484302 0.2743617
-0.16337003 0.0096633956 0.27478725
-0.16312453 0.0096821012 0.27531916
-0.16281404 0.0096970648 0.27574468
-0.16243923 0.0097082891 0.27606383
-0.16206311 0.0097195124 0.27638298
-0.16187219 0.0097419592 0.27702129
-0.16167864 0.0097644059 0.27765957
-0.16154423 0.0097905947 0.27840427
-0.16128376 0.0098093003 0.27893618
-0.16089854 0.0098205237 0.27925533
-0.16045092 0.0098280059 0.27946809
-0.16000243 0.0098354882 0.27968085
-0.15979566 0.0098579349 0.28031915
-0.15976755 0.009891605 0.28127658
-0.15979576 0.0099290172 0.28234044
-0.15975963 0.0099626873 0.28329787
-0.15948048 0.0099813929 0.28382978
-0.15908006 0.0099926163 0.28414893
-0.15873767 0.010007582 0.28457448
-0.15845267 0.010026287 0.28510639
-0.1582244 0.010048733 0.28574467
-0.15799354 0.01007118 0.28638297
-0.1577016 0.010089885 0.28691489
-0.15729097 0.01010111 0.28723404
-0.15687904 0.010112333 0.28755319
-0.15663928 0.01013478 0.2881915
-0.1564545 0.010160968 0.28893617
-0.15643886 0.010198379 0.28999999
-0.15619019 0.010220827 0.2906383
-0.155825 0.01023579 0.29106382
-0.15534464 0.010243273 0.2912766
-0.15491989 0.010254498 0.29159576
-0.15460646 0.010273203 0.29212767
-0.15440302 0.01029939 0.29287234
-0.15419655 0.010325578 0.29361701
-0.15398704 0.010351767 0.29436171
-0.15366362 0.010370472 0.29489362
-0.15333803 0.010389178 0.29542553
-0.15290026 0.010400402 0.29574469
-0.15251598 0.010415366 0.2961702
-0.15212998 0.010430331 0.29659575
-0.15179656 0.010449037 0.29712766
-0.15151513 0.010471484 0.29776597
-0.15133892 0.010501414 0.29861704
-0.15110552 0.010527601 0.29936171
-0.15092258 0.01055753 0.30021277
-0.15062964 0.010579977 0.30085108
-0.15028104 0.010598683 0.30138299
-0.14998309 0.01062113 0.30202127
-0.14973517 0.010647318 0.30276597
-0.14958899 0.010680987 0.30372339
-0.14938672 0.010710917 0.30457446
-0.14918098 0.010740846 0.30542552
-0.14886829 0.010763293 0.30606383
-0.14839841 0.010774517 0.30638298
-0.14787591 0.010781999 0.30659574
-0.14735253 0.010789481 0.3068085
-0.14693007 0.010804446 0.30723405
-0.14655651 0.010823152 0.30776596
-0.14613032 0.010838117 0.30819148
-0.14565219 0.01084934 0.30851063
-0.14522278 0.010864305 0.30893618
-0.14494099 0.010890492 0.30968085
-0.14470573 0.010920422 0.31053191
-0.144467 0.010950351 0.31138298
-0.14417565 0.010976539 0.31212765
-0.1439302 0.011006468 0.31297871
-0.14363258 0.011032657 0.31372342
-0.14333189 0.011058845 0.31446809
-0.14297991 0.011081291 0.31510639
-0.1425292 0.011096256 0.31553191
-0.14217244 0.011118703 0.31617022
-0.14186069 0.01114489 0.31691489
-0.14159332 0.01117482 0.31776595
-0.14127529 0.011201009 0.31851065
-0.14086027 0.011219715 0.31904256
-0.0019884582 0.01010111 0.28723404
-0.0014003334 0.010086145 0.28680852
-0.00081394491 0.01007118 0.28638297
-0.00022954884 0.01006744 0.28627661
0.00035520367 0.010086145 0.28680852
0.00094282429 0.010112333 0.28755319
0.016496485 0.011103738 0.31574467
0.017163804 0.011118703 0.31617022
0.017856829 0.011148633 0.31702128
0.018578161 0.011193526 0.31829786
0.10809404 0.00818564 0.23276596
0.10846972 0.0081781577 0.2325532
0.10889436 0.0081744166 0.2324468
0.10941868 0.0081781577 0.2325532
0.10994343 0.0081818989 0.23265958
0.11031716 0.0081744166 0.2324468
0.11048719 0.0081519699 0.23180851
0.11065461 0.0081295222 0.23117021
0.11081944 0.0081070755 0.23053192
0.11098165 0.0080846287 0.22989361
0.11119284 0.0080659231 0.2293617
0.11150544 0.0080546997 0.22904256
0.11202476 0.0080584409 0.22914894
0.11259675 0.0080659231 0.2293617
0.1131696 0.0080734054 0.22957447
0.11358535 0.0080696642 0.22946809
0.11400066 0.0080659231 0.2293617
0.11436244 0.0080584409 0.22914894
0.11477667 0.0080546997 0.22904256
0.11519045 0.0080509586 0.22893617
0.11565755 0.0080509586 0.22893617
0.11623258 0.0080584409 0.22914894
0.11680847 0.0080659231 0.2293617
0.11733084 0.0080696642 0.22946809
0.11774441 0.0080659231 0.2293617
0.11815755 0.008062182 0.22925532
0.11857026 0.0080584409 0.22914894
0.118872 0.0080472175 0.22882979
0.11911696 0.008032253 0.22840425
0.11930449 0.0080135474 0.22787234
0.11960168 0.0080023231 0.22755319
0.13100129 0.0077965604 0.22170213
0.13132748 0.0077890777 0.22148935
0.13152622 0.0077741132 0.22106382
0.13159618 0.0077516665 0.22042553
0.13172728 0.0077329609 0.21989362
0.13198408 0.007721737 0.21957447
0.13243209 0.007721737 0.21957447
0.13307324 0.0077329609 0.21989362
0.13365108 0.0077404426 0.22010638
0.13468349 0.0077741132 0.22106382
-0.16780341 0.0099548884 0.26755318
-0.16732402 0.0099588465 0.26765957
-0.16691048 0.0099667627 0.26787233
-0.16656215 0.009978638 0.26819149
-0.16621253 0.0099905124 0.26851064
-0.16599286 0.010010304 0.26904255
-0.16583644 0.010034053 0.26968086
-0.16561222 0.010053844 0.27021277
-0.16538581 0.010073635 0.27074468
-0.16502772 0.01008551 0.27106383
-0.16466832 0.010097384 0.27138299
-0.16437194 0.010113217 0.27180851
-0.16407384 0.01012905 0.27223405
-0.16390178 0.010152798 0.27287233
-0.16372713 0.010176548 0.27351063
-0.16348641 0.010196339 0.27404255
-0.16330677 0.010220089 0.27468085
-0.16318755 0.010247796 0.27542552
-0.16293967 0.010267586 0.27595744
-0.16268961 0.010287377 0.27648935
-0.16231263 0.010299252 0.2768085
-0.16199651 0.010315086 0.27723405
-0.16180255 0.010338835 0.27787235
-0.16160595 0.010362583 0.27851063
-0.16134527 0.010382375 0.27904254
