# .PCD v0.7 - Point Cloud Data file format
VERSION 0.7
FIELDS x y z
SIZE 4 4 4
TYPE F F F
COUNT 1 1 1
WIDTH 1375
HEIGHT 1
VIEWPOINT 0 0 0 1 0 0 0
POINTS 1375
DATA ascii
0.0076409052 0.041163437 0.27542552
0.0081902286 0.041099843 0.27500001
0.0087310439 0.041004445 0.2743617
0.0092728576 0.040924948 0.27382979
0.0098125003 0.040845454 0.27329788
0.010354009 0.040781852 0.27287233
0.010898035 0.040734161 0.27255321
0.011449699 0.040718257 0.27244681
0.073535234 0.039144218 0.26191488
0.073227279 0.038699038 0.25893617
0.07372532 0.038683139 0.25882977
0.13491866 0.035344273 0.23648936
0.13552304 0.035376072 0.23670213
0.13606714 0.035391971 0.23680851
-0.020985382 0.045287166 0.29893616
-0.020339157 0.045206584 0.29840425
-0.019681036 0.045093771 0.29765958
-0.019046403 0.045029301 0.29723403
-0.018446507 0.045045421 0.29734042
-0.01785256 0.045077652 0.29755318
-0.017257744 0.045109887 0.29776597
0.0043002544 0.04203165 0.27744681
0.0048607774 0.041983299 0.27712765
0.005419998 0.041934948 0.2768085
0.0059802164 0.041902717 0.27659574
0.0065345326 0.041838251 0.27617022
0.0070925797 0.041806016 0.27595744
0.007643857 0.041741554 0.27553192
0.008193397 0.041677084 0.27510637
0.0087378146 0.041596502 0.27457446
0.0092800623 0.04151592 0.27404255
0.0098163197 0.041419223 0.27340424
0.010358046 0.041354757 0.27297872
0.010902288 0.04130641 0.27265957
0.011454171 0.041290294 0.27255321
0.012010306 0.041290294 0.27255321
0.012571346 0.04130641 0.27265957
0.013132822 0.041322526 0.27276596
0.013689391 0.041322526 0.27276596
0.073227279 0.039227389 0.25893617
0.07372532 0.039211269 0.25882977
0.13443612 0.035826821 0.23648936
0.13504004 0.035859056 0.23670213
0.13564485 0.035891287 0.23691489
0.13625053 0.035923522 0.23712766
-0.020985382 0.045897134 0.29893616
-0.020317404 0.045766465 0.29808509
-0.019652899 0.045635797 0.29723403
-0.019012319 0.045554131 0.29670212
-0.018413508 0.045570467 0.29680851
-0.017820645 0.045603134 0.29702127
-0.017233081 0.045652132 0.29734042
0.0054158322 0.042467102 0.27659574
0.0059756166 0.042434435 0.27638298
0.0065320153 0.042385433 0.27606383
0.0070925797 0.042369097 0.27595744
0.0076468084 0.042320102 0.27563831
0.0081965653 0.042254765 0.27521276
0.0087445863 0.042189434 0.27478725
0.009287267 0.042107761 0.27425531
0.0098277777 0.042026095 0.27372339
0.010370156 0.041960765 0.27329788
0.010910795 0.041895427 0.27287233
0.011463112 0.041879095 0.27276596
0.012014993 0.04186276 0.27265957
0.012571346 0.04186276 0.27265957
0.013127699 0.04186276 0.27265957
0.013684052 0.04186276 0.27265957
0.014223736 0.041813761 0.27234042
0.014762118 0.041764759 0.27202126
0.073227279 0.039755739 0.25893617
0.073695026 0.039723072 0.25872341
0.13443612 0.036309369 0.23648936
0.13504004 0.03634204 0.23670213
0.13570577 0.036391038 0.23702128
0.13631165 0.036423706 0.23723404
-0.021641463 0.046606407 0.29957446
-0.020985382 0.046507105 0.29893616
-0.020302903 0.046341598 0.29787233
-0.019631799 0.046192646 0.29691491
-0.018991869 0.046109892 0.29638299
-0.018393708 0.04612644 0.29648936
-0.01780788 0.046176095 0.29680851
-0.01722075 0.046225745 0.29712766
0.0065320153 0.042948734 0.27606383
0.0070925797 0.042932179 0.27595744
0.0076468084 0.042882532 0.27563831
0.0081997337 0.042832881 0.27531916
0.008751357 0.042783227 0.27500001
0.009298075 0.042717025 0.27457446
0.0098392367 0.042634271 0.27404255
0.010382266 0.042568069 0.27361703
0.010923557 0.042501867 0.27319148
0.011472053 0.042468768 0.27297872
0.012019682 0.042435665 0.27276596
0.012571346 0.042419113 0.27265957
0.013122578 0.042402565 0.27255321
0.013673373 0.042386014 0.27244681
0.014212624 0.04233636 0.27212766
0.014750571 0.042286709 0.27180851
0.015293207 0.04225361 0.27159575
0.01582256 0.042187404 0.2711702
0.016350176 0.042121205 0.27074468
0.016862772 0.0420219 0.27010638
0.017372765 0.041922599 0.2694681
0.017887225 0.041839842 0.26893616
0.073227279 0.04028409 0.25893617
0.073664717 0.040234439 0.25861701
0.1344966 0.036808472 0.23659575
0.13510074 0.036841571 0.23680851
0.13570577 0.036874674 0.23702128
0.13631165 0.036907773 0.23723404
-0.021672204 0.047284752 0.30000001
-0.020992851 0.047133841 0.29904255
-0.020302903 0.046949398 0.29787233
-0.019631799 0.04679849 0.29691491
-0.018991869 0.046714652 0.29638299
-0.01840031 0.046748187 0.29659575
-0.017827028 0.046832025 0.29712766
-0.017239248 0.046882328 0.29744682
0.0087547423 0.04336112 0.27510637
0.0093016773 0.043294054 0.27468085
0.0098506957 0.043243747 0.2743617
0.010390338 0.04315991 0.27382979
0.010932064 0.043092839 0.27340424
0.011476524 0.043042541 0.27308512
0.012024369 0.043009002 0.27287233
0.012576251 0.042992234 0.27276596
0.013122578 0.042958703 0.27255321
0.013668034 0.042925164 0.27234042
0.014212624 0.042891629 0.27212766
0.014756345 0.042858094 0.2719149
0.015293207 0.042807791 0.27159575
0.015828768 0.042757489 0.27127659
0.0163566 0.042690419 0.27085108
0.016862772 0.042573042 0.27010638
0.017372765 0.042472441 0.2694681
0.017887225 0.042388599 0.26893616
0.018421397 0.042355064 0.2687234
0.018992247 0.042405367 0.26904255
0.073774174 0.041416075 0.26276594
0.073287442 0.040845975 0.25914893
0.073695026 0.040778905 0.25872341
0.13443612 0.037274469 0.23648936
0.13504004 0.037308004 0.23670213
0.13564485 0.037341539 0.23691489
0.13625053 0.037375074 0.23712766
-0.022347562 0.048032772 0.30085108
-0.021687575 0.047930863 0.30021277
-0.021000318 0.047761016 0.29914895
-0.020302903 0.047557198 0.29787233
-0.019631799 0.047404338 0.29691491
-0.018998686 0.047336396 0.29648936
-0.018413508 0.04738735 0.29680851
-0.01785256 0.047506243 0.29755318
-0.017270075 0.047574181 0.29797873
0.009854516 0.04382056 0.27446809
0.010394376 0.043735638 0.27393618
0.010932064 0.043650709 0.27340424
0.011480995 0.043616742 0.27319148
0.012029057 0.043582775 0.27297872
0.012576251 0.043548808 0.27276596
0.013122578 0.043514837 0.27255321
0.013673373 0.043497849 0.27244681
0.01421818 0.043463882 0.27223405
0.014762118 0.043429911 0.27202126
0.015305188 0.04339594 0.27180851
0.01584118 0.043344986 0.27148935
0.016363025 0.043260064 0.27095744
0.016876057 0.043158159 0.27031916
0.017379623 0.043039262 0.26957446
0.017894302 0.042954341 0.26904255
0.018435981 0.042937353 0.26893616
0.018999757 0.042971324 0.26914895
0.019564399 0.043005295 0.2693617
0.020114023 0.043005295 0.2693617
0.020622842 0.04292037 0.26882979
0.072793245 0.041697469 0.26117021
0.073206685 0.041629534 0.26074469
0.073347621 0.041408733 0.25936171
0.073785931 0.041357778 0.25904256
0.13431516 0.03772305 0.2362766
0.13497937 0.037774004 0.23659575
0.13558394 0.037807971 0.23680851
-0.022347562 0.048646647 0.30085108
-0.021679888 0.048526231 0.30010638
-0.020992851 0.048354216 0.29904255
-0.020295652 0.048147794 0.29776597
-0.019631799 0.048010182 0.29691491
-0.019005504 0.047958575 0.29659575
-0.018426707 0.048027381 0.29702127
-0.017865326 0.048147794 0.29776597
-0.017288573 0.048233803 0.29829788
0.012029057 0.044139776 0.27297872
0.012576251 0.044105377 0.27276596
0.013127699 0.044088174 0.27265957
0.013678714 0.044070974 0.27255321
0.014229292 0.044053771 0.27244681
0.014773665 0.044019368 0.27223405
0.015317168 0.043984961 0.27202126
0.015853597 0.043933358 0.27170214
0.016375873 0.043847345 0.2711702
0.016889339 0.043744139 0.27053192
0.017400198 0.043640926 0.26989362
0.017915528 0.043554917 0.2693617
0.018450567 0.043520514 0.26914895
0.019007266 0.043537714 0.26925531
0.019564399 0.043554917 0.2693617
0.020106079 0.043537714 0.26925531
0.020622842 0.043468907 0.26882979
0.021129491 0.043382902 0.26829788
0.021625372 0.043279689 0.26765957
0.022118649 0.043176476 0.26702127
0.022654468 0.043159276 0.2669149
0.023199098 0.043159276 0.2669149
0.072496742 0.042058364 0.26010638
0.073027477 0.042058364 0.26010638
0.073467962 0.042006757 0.25978723
0.13365227 0.038153555 0.23595744
0.13425469 0.038187962 0.23617022
0.1354042 0.038377181 0.23734042
0.13619304 0.03846319 0.23787235
-0.022969557 0.049277939 0.30095744
-0.022315951 0.049190845 0.30042553
-0.021641463 0.049051493 0.29957446
-0.02095551 0.048877306 0.29851064
-0.020281149 0.048720535 0.29755318
-0.019624764 0.048598606 0.29680851
-0.019012319 0.048581183 0.29670212
-0.018439908 0.04866828 0.29723403
-0.017878091 0.048790213 0.29797873
-0.017294738 0.048859887 0.29840425
0.014234849 0.044627108 0.27255321
0.014779437 0.044592269 0.27234042
0.015323158 0.04455743 0.27212766
0.015859803 0.044505175 0.27180851
0.016395146 0.044452917 0.27148935
0.016915904 0.044365823 0.27095744
0.017434491 0.04427873 0.27042553
0.017950907 0.044191636 0.26989362
0.018479738 0.044139378 0.26957446
0.019022286 0.044121962 0.2694681
0.019564399 0.044104543 0.2693617
0.020106079 0.044087119 0.26925531
0.020622842 0.044017449 0.26882979
0.021137867 0.043947771 0.26840425
0.021633968 0.043843258 0.26776597
0.022145085 0.04377358 0.26734042
0.022672527 0.043738745 0.26712766
0.023217591 0.043738745 0.26712766
0.02377212 0.043756165 0.26723406
0.024327081 0.04377358 0.26734042
0.071966 0.042589102 0.26010638
0.072526395 0.042606521 0.26021278
0.073117085 0.042641357 0.26042554
0.073618382 0.042623937 0.26031914
0.13365227 0.038635019 0.23595744
0.13419421 0.038652439 0.23606382
0.13655736 0.039192423 0.2393617
-0.022961438 0.049874399 0.30085108
-0.022284344 0.049733315 0.30000001
-0.021587666 0.049539316 0.29882979
-0.020910701 0.049380593 0.29787233
-0.020252146 0.049257141 0.29712766
-0.019624764 0.049204234 0.29680851
-0.019025953 0.04922187 0.29691491
-0.018453108 0.049310051 0.29744682
-0.017890856 0.0494335 0.29819149
-0.017300904 0.04948641 0.29851064
0.015323158 0.045112699 0.27212766
0.015866011 0.045077428 0.2719149
0.016414421 0.045059789 0.27180851
0.016942471 0.044989247 0.27138299
0.017461926 0.044901069 0.27085108
0.01797921 0.044812892 0.27031916
0.018501615 0.044742342 0.26989362
0.019029794 0.044689436 0.26957446
0.019572128 0.044671804 0.2694681
0.020114023 0.044654164 0.2693617
0.020639163 0.044601258 0.26904255
0.021163002 0.044548348 0.2687234
0.021676943 0.044477805 0.26829788
0.022189146 0.04440726 0.26787233
0.022717671 0.044371989 0.26765957
0.023254575 0.044354353 0.26755318
0.023800509 0.044354353 0.26755318
0.024336763 0.044336718 0.26744682
0.024862684 0.044301447 0.26723406
0.025367508 0.044230901 0.26680851
0.025891257 0.04419563 0.26659575
0.026435237 0.04419563 0.26659575
0.026979217 0.04419563 0.26659575
0.071966 0.04311984 0.26010638
0.072585694 0.043172747 0.26042554
0.073176816 0.043208018 0.2606383
0.073738731 0.043225657 0.26074469
0.13371253 0.039134119 0.23606382
0.13425469 0.039151758 0.23617022
-0.022969557 0.050506126 0.30095744
-0.022268537 0.050309744 0.29978722
-0.021556925 0.050077654 0.29840425
-0.02088083 0.049916979 0.29744682
-0.020237643 0.049827717 0.29691491
-0.019624764 0.049809862 0.29680851
-0.019039588 0.04986342 0.29712766
-0.018472908 0.049970541 0.29776597
-0.017897241 0.050059803 0.29829788
0.016420845 0.045632262 0.2719149
0.016949112 0.045560848 0.27148935
0.017461926 0.045453731 0.27085108
0.01797921 0.045364466 0.27031916
0.018501615 0.045293052 0.26989362
0.019037306 0.045257349 0.26968086
0.01958758 0.045257349 0.26968086
0.02012991 0.045239493 0.26957446
0.020671809 0.045221642 0.2694681
0.021204891 0.045185935 0.26925531
0.021728512 0.045132373 0.26893616
0.022242019 0.045060962 0.26851064
0.022762818 0.045007404 0.26819149
0.023291562 0.044971701 0.26797873
0.023828899 0.044953845 0.26787233
0.024346441 0.044900287 0.26755318
0.024862684 0.044846732 0.26723406
0.025367508 0.044775315 0.26680851
0.025891257 0.044739611 0.26659575
0.026424687 0.044721756 0.26648936
0.026979217 0.044739611 0.26659575
0.027501233 0.044703905 0.26638299
0.027988775 0.044614635 0.26585105
0.028439898 0.044471812 0.26499999
0.071406044 0.043632723 0.25999999
0.071995437 0.043668434 0.26021278
0.072585694 0.043704137 0.26042554
0.073146947 0.043721989 0.2605319
0.073678553 0.043721989 0.2605319
0.13371253 0.039615799 0.23606382
0.13425469 0.039633654 0.23617022
-0.023633668 0.051228642 0.30159575
-0.022969557 0.051120222 0.30095744
-0.022252735 0.050885309 0.29957446
-0.021541554 0.050650399 0.29819149
-0.02087336 0.050505839 0.29734042
-0.020237643 0.050433561 0.29691491
-0.019638833 0.050451629 0.29702127
-0.019053221 0.050505839 0.29734042
-0.018472908 0.050578121 0.29776597
-0.017897241 0.050668471 0.29829788
0.017441351 0.045952182 0.27053192
0.017957984 0.045861833 0.27000001
0.018487031 0.045807622 0.26968086
0.019037306 0.045807622 0.26968086
0.019603034 0.045843761 0.26989362
0.020161686 0.045861833 0.27000001
0.020704452 0.045843761 0.26989362
0.021238405 0.045807622 0.26968086
0.021771491 0.045771483 0.2694681
0.022294894 0.045717273 0.26914895
0.022816995 0.045663062 0.26882979
0.023337793 0.045608852 0.26851064
0.02385729 0.045554642 0.26819149
0.024365805 0.045482364 0.26776597
0.024872581 0.045410078 0.26734042
0.025367508 0.045319729 0.26680851
0.025880925 0.045265518 0.26648936
0.026424687 0.045265518 0.26648936
0.026979217 0.04528359 0.26659575
0.027501233 0.04524745 0.26638299
0.027999977 0.045175169 0.26595744
0.028462736 0.04504868 0.26521277
0.028980622 0.045012537 0.26499999
0.029521346 0.045012537 0.26499999
0.07137683 0.044145178 0.25989363
0.071966 0.044181317 0.26010638
0.072496742 0.044181317 0.26010638
0.073057346 0.044199388 0.26021278
0.13299069 0.040025197 0.23563829
0.13359202 0.04006134 0.23585106
0.13419421 0.040097479 0.23606382
-0.023591988 0.051752605 0.30106384
-0.022928961 0.05164288 0.30042553
-0.022221126 0.051423434 0.29914895
-0.021526186 0.051222276 0.29797873
-0.020865891 0.051094264 0.29723403
-0.020237643 0.051039405 0.29691491
-0.019645866 0.05107598 0.29712766
-0.019060038 0.051130842 0.29744682
-0.018472908 0.051185705 0.29776597
0.018472446 0.046321325 0.2694681
0.019037306 0.046357896 0.26968086
0.019618487 0.046431042 0.27010638
0.020185519 0.046467621 0.27031916
0.020737097 0.046467621 0.27031916
0.021271916 0.046431042 0.27010638
0.021805869 0.046394471 0.26989362
0.022330141 0.046339609 0.26957446
0.02286214 0.046303034 0.2693617
0.023384025 0.046248171 0.26904255
0.023895144 0.046175025 0.26861703
0.024394844 0.046083588 0.26808509
0.024892375 0.045992151 0.26755318
0.025387736 0.045900717 0.26702127
0.025901588 0.045845855 0.26670212
0.026435237 0.045827571 0.26659575
0.026979217 0.045827571 0.26659575
0.027512213 0.04580928 0.26648936
0.028022375 0.045754418 0.2661702
0.028508402 0.045662984 0.26563829
0.02902716 0.045626409 0.26542553
0.029568752 0.045626409 0.26542553
0.03014655 0.045681272 0.26574469
0.030713363 0.045717847 0.26595744
0.031256039 0.045717847 0.26595744
0.03177328 0.045681272 0.26574469
0.032276712 0.045626409 0.26542553
0.070730522 0.044602331 0.25946808
0.071318388 0.044638902 0.25968084
0.071907133 0.044675481 0.25989363
0.072407782 0.044657193 0.25978723
0.072937869 0.044657193 0.25978723
0.13263045 0.040396288 0.235
0.13329074 0.04045115 0.23531915
0.13389184 0.040487725 0.23553191
-0.023516959 0.052200373 0.30010638
-0.022864005 0.052107852 0.29957446
-0.022173712 0.051922813 0.29851064
-0.021487759 0.05173777 0.29744682
-0.02083602 0.051626746 0.29680851
-0.020223141 0.051608238 0.29670212
-0.019645866 0.051682256 0.29712766
-0.019060038 0.05173777 0.29744682
0.020745257 0.047037698 0.27042553
0.021280294 0.047000691 0.27021277
0.02182306 0.046982188 0.27010638
0.022365391 0.046963684 0.27000001
0.022907287 0.046945181 0.26989362
0.023430256 0.046889666 0.26957446
0.023942461 0.046815652 0.26914895
0.024433568 0.046704624 0.26851064
0.024922069 0.046593599 0.26787233
0.025407966 0.046482578 0.26723406
0.025911922 0.046408556 0.26680851
0.026435237 0.046371549 0.26659575
0.026979217 0.046371549 0.26659575
0.027523197 0.046371549 0.26659575
0.028033577 0.046316035 0.2662766
0.028542653 0.046260525 0.26595744
0.029062063 0.046223518 0.26574469
0.029604306 0.046223518 0.26574469
0.030158617 0.046242017 0.26585105
0.030701077 0.046242017 0.26585105
0.031243537 0.046242017 0.26585105
0.03174784 0.04618651 0.26553193
0.032263774 0.046149496 0.26531914
0.032778844 0.046112489 0.26510638
0.033333156 0.046130996 0.26521277
0.033901487 0.046168003 0.26542553
0.034470689 0.04620501 0.26563829
0.034970649 0.046149496 0.26531914
0.070672527 0.045094758 0.25925532
0.071259961 0.045131765 0.25946808
0.071848258 0.045168772 0.25968084
0.072348483 0.045150273 0.25957447
0.072878137 0.045150273 0.25957447
0.13179199 0.040764775 0.23436171
0.13239028 0.040801782 0.23457447
0.13298945 0.040838793 0.23478724
0.13352899 0.040857296 0.23489362
-0.023433596 0.052625518 0.29904255
-0.022782812 0.052531913 0.29851064
-0.022110494 0.052382141 0.29765958
-0.021433963 0.05221365 0.29670212
-0.02079121 0.052120045 0.2961702
-0.020194137 0.052138768 0.2962766
-0.019631799 0.052251097 0.29691491
-0.019053221 0.052325979 0.29734042
0.022391828 0.047570776 0.27031916
0.022934375 0.047552053 0.27021277
0.023467243 0.04751461 0.27000001
0.023970852 0.047421005 0.2694681
0.024452928 0.047289953 0.2687234
0.024941863 0.047177624 0.26808509
0.02541808 0.047046576 0.26734042
0.025922254 0.046971694 0.2669149
0.026435237 0.046915531 0.26659575
0.026968451 0.046896808 0.26648936
0.027512213 0.046896808 0.26648936
0.028044777 0.046878088 0.26638299
0.028554073 0.046821926 0.26606384
0.029073695 0.046784479 0.26585105
0.029604306 0.04676576 0.26574469
0.03014655 0.04676576 0.26574469
0.030688792 0.04676576 0.26574469
0.031206032 0.046728317 0.26553193
0.0317224 0.04669087 0.26531914
0.032237902 0.046653431 0.26510638
0.032752536 0.046615988 0.26489362
0.033306412 0.046634708 0.26499999
0.033887897 0.04669087 0.26531914
0.03444308 0.046709593 0.26542553
0.034942605 0.046653431 0.26510638
0.035412353 0.046559826 0.26457447
0.035851017 0.046428777 0.2638298
0.070085958 0.045586318 0.25904256
0.070643522 0.045605037 0.25914893
0.071230747 0.045642484 0.25936171
0.071789391 0.045661204 0.25946808
0.072348483 0.045679927 0.25957447
0.072878137 0.045679927 0.25957447
0.13161252 0.041186817 0.23404256
0.13221015 0.04122426 0.23425531
0.13274841 0.041242983 0.23436171
0.13322662 0.041242983 0.23436171
-0.023333561 0.053008448 0.29776597
-0.022701619 0.05295163 0.29744682
-0.022039372 0.052819058 0.29670212
-0.021380166 0.052686494 0.29595745
-0.020746404 0.052610744 0.29553193
-0.020165132 0.052667554 0.29585105
-0.019603662 0.052781183 0.29648936
0.023476489 0.048084471 0.27010638
0.023980314 0.047989782 0.26957446
0.024462609 0.047857214 0.26882979
0.024941863 0.047724642 0.26808509
0.025428196 0.047611017 0.26744682
0.025911922 0.047497384 0.26680851
0.026414141 0.047421634 0.26638299
0.026946919 0.047402695 0.2662766
0.027501233 0.047421634 0.26638299
0.028044777 0.047421634 0.26638299
0.028565487 0.047383752 0.2661702
0.029085331 0.047345877 0.26595744
0.029616155 0.047326937 0.26585105
0.03014655 0.047308002 0.26574469
0.030676506 0.047289062 0.26563829
0.031206032 0.047270127 0.26553193
0.031709682 0.047213312 0.26521277
0.032224964 0.04717543 0.26499999
0.032739382 0.047137555 0.26478723
0.033293042 0.047156494 0.26489362
0.033847135 0.04717543 0.26499999
0.034387857 0.04717543 0.26499999
0.034900539 0.047137555 0.26478723
0.035369635 0.047042865 0.26425532
0.035836559 0.046948172 0.2637234
0.036330655 0.046891358 0.26340425
0.036853235 0.046872422 0.26329789
0.037405591 0.046891358 0.26340425
0.037943061 0.046891358 0.26340425
0.038433902 0.04683454 0.2630851
0.038907688 0.04675879 0.26265958
0.070085958 0.046114888 0.25904256
0.070643522 0.046133824 0.25914893
0.071201526 0.046152763 0.25925532
0.071759969 0.046171702 0.25936171
0.07231883 0.046190638 0.25946808
0.13107537 0.041645434 0.23393618
0.13161252 0.041664373 0.23404256
0.13215011 0.041683313 0.23414893
0.13262789 0.041683313 0.23414893
0.1330452 0.041664373 0.23404256
-0.023266869 0.053462785 0.29691491
-0.022644782 0.05342447 0.29670212
-0.021999862 0.053328693 0.2961702
-0.02135711 0.053232916 0.29563829
-0.020723999 0.053156298 0.29521278
-0.020136129 0.053194609 0.29542553
-0.019561458 0.053271227 0.29585105
0.02541808 0.048137575 0.26734042
0.025901588 0.048022643 0.26670212
0.026393041 0.047926866 0.2661702
0.026936153 0.047926866 0.2661702
0.027490249 0.047946021 0.2662766
0.028044777 0.04796518 0.26638299
0.028576905 0.047946021 0.2662766
0.029108599 0.047926866 0.2661702
0.029639861 0.047907714 0.26606384
0.030158617 0.047869399 0.26585105
0.030688792 0.047850247 0.26574469
0.031218532 0.047831088 0.26563829
0.031735118 0.047792777 0.26542553
0.032237902 0.047735311 0.26510638
0.032752536 0.047697004 0.26489362
0.033279672 0.047677845 0.26478723
0.033819959 0.047677845 0.26478723
0.034346446 0.047658693 0.26468086
0.034858473 0.047620378 0.26446807
0.035355397 0.047562916 0.26414895
0.035851017 0.04750545 0.2638298
0.036360003 0.047467135 0.26361701
0.036883015 0.047447983 0.26351064
0.037420701 0.047447983 0.26351064
0.037943061 0.047428824 0.26340425
0.038433902 0.047371358 0.2630851
0.038907688 0.04729474 0.26265958
0.039379731 0.047218114 0.26223403
0.039866231 0.047160648 0.26191488
0.07017231 0.046700921 0.25936171
0.070672527 0.046681765 0.25925532
0.071172304 0.046662606 0.25914893
0.071671665 0.046643455 0.25904256
0.072229877 0.046662606 0.25914893
0.13119458 0.042161085 0.23414893
0.13173217 0.04218024 0.23425531
0.1322702 0.042199396 0.23436171
0.13268815 0.04218024 0.23425531
0.13310567 0.042161085 0.23414893
-0.023241859 0.05401051 0.29659575
-0.022628546 0.053991139 0.29648936
-0.021999862 0.053933021 0.2961702
-0.021364797 0.053855531 0.29574469
-0.020746404 0.053816788 0.29553193
-0.02015063 0.053836159 0.29563829
-0.01954739 0.053836159 0.29563829
0.027479265 0.048469976 0.2661702
0.028044777 0.048508726 0.26638299
0.028599739 0.048528094 0.26648936
0.029131869 0.048508726 0.26638299
0.029663563 0.048489351 0.2662766
0.030194821 0.048469976 0.2661702
0.030713363 0.048431233 0.26595744
0.031243537 0.048411857 0.26585105
0.031760558 0.048373114 0.26563829
0.032263774 0.048314996 0.26531914
0.032765687 0.048256878 0.26499999
0.033293042 0.04823751 0.26489362
0.033819959 0.048218135 0.26478723
0.03433264 0.048179392 0.26457447
0.034844454 0.048140645 0.26436171
0.035355397 0.048101902 0.26414895
0.035879929 0.048082527 0.26404256
0.036404021 0.048063155 0.26393616
0.036912795 0.048024409 0.2637234
0.037420701 0.047985666 0.26351064
0.037927739 0.047946922 0.26329789
0.038402822 0.047869429 0.26287234
0.038876172 0.047791943 0.26244682
0.039363757 0.047733825 0.26212767
0.039866231 0.047695074 0.26191488
0.040367842 0.047656331 0.26170212
0.040851954 0.047598213 0.26138297
0.070229873 0.047268882 0.25957447
0.070672527 0.047210764 0.25925532
0.071113877 0.047152646 0.25893617
0.07161279 0.047133274 0.25882977
0.072111279 0.047113903 0.25872341
0.13298278 0.043220032 0.23734042
0.13197146 0.042735718 0.23468085
0.13245033 0.042735718 0.23468085
0.13292918 0.042735718 0.23468085
0.13334757 0.042716347 0.23457447
-0.023881266 0.05469406 0.29702127
-0.023266869 0.054674476 0.29691491
-0.022644782 0.054635294 0.29670212
-0.022031471 0.054615706 0.29659575
-0.021418592 0.054596115 0.29648936
-0.020813616 0.054596115 0.29648936
-0.020194137 0.054556936 0.2962766
0.029675415 0.049052272 0.26638299
0.030206891 0.049032681 0.2662766
0.030737933 0.049013089 0.2661702
0.031268544 0.048993502 0.26606384
0.031785995 0.048954319 0.26585105
0.03228965 0.048895553 0.26553193
0.032791998 0.048836786 0.26521277
0.033319782 0.048817191 0.26510638
0.033833548 0.048778016 0.26489362
0.034346446 0.048738837 0.26468086
0.034858473 0.048699655 0.26446807
0.035383873 0.048680067 0.26436171
0.035908837 0.048660476 0.26425532
0.036433373 0.048640892 0.26414895
0.036942575 0.048601706 0.26393616
0.037435807 0.048542939 0.26361701
0.037912413 0.048464581 0.26319149
0.038371738 0.048366636 0.26265958
0.03886041 0.048307866 0.26234043
0.039347779 0.048249096 0.26202127
0.039850041 0.048209917 0.26180851
0.040367842 0.048190325 0.26170212
0.040835332 0.048111971 0.2612766
0.041250549 0.04797484 0.2605319
0.041645668 0.047818124 0.25968084
0.069671653 0.047778945 0.25946808
0.07017231 0.047759358 0.25936171
0.070643522 0.047720175 0.25914893
0.071084656 0.047661405 0.25882977
0.071524493 0.047602642 0.25851065
0.13215093 0.043273348 0.235
0.13269049 0.043292936 0.23510638
0.13310996 0.043273348 0.235
-0.023915481 0.055379353 0.29744682
-0.023300214 0.055359546 0.29734042
-0.022685379 0.055339735 0.29723403
-0.022086786 0.055359546 0.29734042
-0.021495443 0.055399157 0.29755318
-0.020910701 0.055458575 0.29787233
-0.0202884 0.055418964 0.29765958
0.031281043 0.049556199 0.2661702
0.031798717 0.049516588 0.26595744
0.032302584 0.049457166 0.26563829
0.032818303 0.049417555 0.26542553
0.033346523 0.049397744 0.26531914
0.033874314 0.049377944 0.26521277
0.034387857 0.049338326 0.26499999
0.034900539 0.049298715 0.26478723
0.035412353 0.0492591 0.26457447
0.035937749 0.049239293 0.26446807
0.036448043 0.049199682 0.26425532
0.036957465 0.049160067 0.26404256
0.037450913 0.049100649 0.2637234
0.037912413 0.049001615 0.26319149
0.038371738 0.048902582 0.26265958
0.038844652 0.048823353 0.26223403
0.039331805 0.048763931 0.26191488
0.039866231 0.048763931 0.26191488
0.040384252 0.048744131 0.26180851
0.040868584 0.048684709 0.26148936
0.041284241 0.048546065 0.26074469
0.041713912 0.048427224 0.26010638
0.042210098 0.048387609 0.25989363
0.042775389 0.048427224 0.26010638
0.069471695 0.048169736 0.25872341
0.070057176 0.048209351 0.25893617
0.070556521 0.048189539 0.25882977
0.070997015 0.048130125 0.25851065
0.071465619 0.048090506 0.25829786
0.13227059 0.043792471 0.23521277
0.13281058 0.043812279 0.23531915
0.13323048 0.043792471 0.23521277
-0.023958247 0.056086402 0.29797873
-0.023341894 0.056066375 0.29787233
-0.022725979 0.056046356 0.29776597
-0.022142101 0.056106422 0.29808509
-0.021579981 0.056226566 0.2987234
-0.021000318 0.056306664 0.29914895
0.032315522 0.05001922 0.26574469
0.03283146 0.049979173 0.26553193
0.033359896 0.049959145 0.26542553
0.033887897 0.049939122 0.26531914
0.034415472 0.049919099 0.26521277
0.034928583 0.049879048 0.26499999
0.035440829 0.049839001 0.26478723
0.035952207 0.049798958 0.26457447
0.036477387 0.049778931 0.26446807
0.036987245 0.049738884 0.26425532
0.037466023 0.049658794 0.2638298
0.037943061 0.049578696 0.26340425
0.038402822 0.049478576 0.26287234
0.038876172 0.049398486 0.26244682
0.039379731 0.049358431 0.26223403
0.039898619 0.049338412 0.26212767
0.040433481 0.049338412 0.26212767
0.040918466 0.049278341 0.26180851
0.0413853 0.049198244 0.26138297
0.041833337 0.049098127 0.26085106
0.04233104 0.04905808 0.2606383
0.04288036 0.049078103 0.26074469
0.043447826 0.04911815 0.26095745
0.0439803 0.04911815 0.26095745
0.068660296 0.048497416 0.25765958
0.069300294 0.04857751 0.2580851
0.069884472 0.048617557 0.25829786
0.070440523 0.04863758 0.25840425
0.070909359 0.048597537 0.2581915
0.071406752 0.04857751 0.2580851
0.13227059 0.044272415 0.23521277
0.13281058 0.044292439 0.23531915
0.13329074 0.044292439 0.23531915
-0.02399246 0.056775376 0.29840425
-0.023366904 0.056734897 0.29819149
-0.022758454 0.056734897 0.29819149
-0.02219742 0.056856342 0.29882979
-0.02174137 0.057261158 0.30095744
-0.02119449 0.057443324 0.3019149
0.034429274 0.050480496 0.26531914
0.03495663 0.050460257 0.26521277
0.035469305 0.050419774 0.26499999
0.035981119 0.050379291 0.26478723
0.036492061 0.050338812 0.26457447
0.036987245 0.05027809 0.26425532
0.037496235 0.050237607 0.26404256
0.037989032 0.050176885 0.2637234
0.03846499 0.050095923 0.26329789
0.038939204 0.050014958 0.26287234
0.039427657 0.049954236 0.26255319
0.039963387 0.049954236 0.26255319
0.040482711 0.049934 0.26244682
0.041001599 0.049913757 0.26234043
0.041486364 0.049853034 0.26202127
0.041952766 0.049772073 0.26159576
0.042451985 0.049731586 0.26138297
0.042967837 0.04971135 0.2612766
0.043500964 0.04971135 0.2612766
0.04399823 0.049670868 0.26106384
0.044458337 0.049589902 0.2606383
0.04493507 0.04952918 0.26031914
0.045429081 0.049488701 0.26010638
0.045978621 0.049508944 0.26021278
0.068078279 0.048982676 0.2574468
0.06860359 0.048982676 0.2574468
0.069186039 0.049023163 0.25765958
0.069769345 0.049063642 0.25787234
0.070324533 0.049083885 0.25797874
0.07082171 0.049063642 0.25787234
0.071318448 0.049043402 0.25776595
0.13340002 0.045298859 0.23808511
0.13221076 0.044732116 0.23510638
0.13275053 0.044752359 0.23521277
0.13323048 0.044752359 0.23521277
-0.024009569 0.057425182 0.29861704
-0.023391914 0.057404719 0.29851064
-0.02279905 0.057445634 0.2987234
-0.022244832 0.057588838 0.29946807
-0.021964239 0.058468528 0.30404255
0.035995577 0.05094004 0.26489362
0.036492061 0.050878666 0.26457447
0.037002139 0.050837751 0.26436171
0.037511345 0.05079684 0.26414895
0.038019679 0.050755918 0.26393616
0.038511608 0.050694544 0.26361701
0.03900224 0.050633177 0.26329789
0.039491564 0.050571803 0.26297873
0.040011968 0.05055134 0.26287234
0.040531937 0.050530881 0.26276594
0.041051481 0.050510425 0.26265958
0.041553739 0.050469514 0.26244682
0.042038072 0.05040814 0.26212767
0.042555653 0.050387677 0.26202127
0.043055311 0.050346766 0.26180851
0.043554101 0.050305851 0.26159576
0.044016156 0.050224014 0.26117021
0.044458337 0.050121728 0.2606383
0.04493507 0.05006035 0.26031914
0.045447662 0.050039899 0.26021278
0.045997415 0.05006035 0.26031914
0.046528585 0.05006035 0.26031914
0.04704053 0.050039899 0.26021278
0.047532585 0.049998976 0.25999999
0.067636713 0.049569365 0.25776595
0.068106413 0.04952845 0.25755319
0.068575248 0.049487535 0.25734043
0.069100343 0.049487535 0.25734043
0.069654211 0.04950799 0.2574468
0.070208527 0.04952845 0.25755319
0.070734054 0.04952845 0.25755319
0.071318448 0.049569365 0.25776595
0.13178581 0.045395963 0.23606382
0.13220789 0.045375507 0.23595744
0.13221076 0.045211844 0.23510638
0.13275053 0.045232303 0.23521277
-0.024636427 0.058075849 0.29882979
-0.024018122 0.05805517 0.2987234
-0.023408586 0.05805517 0.2987234
-0.022831529 0.058137875 0.29914895
-0.022284344 0.058303274 0.30000001
0.037511345 0.051335827 0.26414895
0.038019679 0.051294472 0.26393616
0.038527153 0.051253121 0.2637234
0.039017994 0.051191099 0.26340425
0.039523512 0.051149748 0.26319149
0.040044352 0.051129073 0.2630851
0.040564761 0.051108401 0.26297873
0.041084733 0.051087722 0.26287234
0.041604269 0.051067047 0.26276594
0.042089254 0.051005028 0.26244682
0.04260749 0.050984349 0.26234043
0.043107796 0.050943002 0.26212767
0.043589521 0.050880976 0.26180851
0.044052016 0.050798275 0.26138297
0.044512775 0.050715577 0.26095745
0.044971794 0.050632872 0.2605319
0.045484822 0.0506122 0.26042554
0.045997415 0.050591525 0.26031914
0.046528585 0.050591525 0.26031914
0.047021296 0.050550178 0.26010638
0.047513139 0.050508827 0.25989363
0.048004109 0.050467473 0.25968084
0.048514098 0.050446801 0.25957447
0.049003553 0.050405454 0.25936171
0.067692548 0.050136682 0.25797874
0.068162672 0.050095327 0.25776595
0.06860359 0.050033301 0.2574468
0.069043212 0.049971282 0.25712767
0.069539085 0.049950603 0.25702128
0.070092529 0.049971282 0.25712767
0.070675626 0.050012629 0.25734043
0.071289025 0.050074656 0.25765958
0.071992666 0.0501987 0.25829786
0.13107315 0.045629546 0.23478724
0.13167143 0.045670897 0.235
0.13227059 0.045712247 0.23521277
0.13275053 0.045712247 0.23521277
-0.024627656 0.058664706 0.2987234
-0.024018122 0.058664706 0.2987234
-0.023425259 0.058706488 0.29893616
-0.022872126 0.058852736 0.29968086
-0.022331756 0.059040759 0.30063829
0.038511608 0.051770348 0.26361701
0.039017994 0.051728565 0.26340425
0.039523512 0.051686782 0.26319149
0.040044352 0.051665887 0.2630851
0.040581167 0.051665887 0.2630851
0.041101359 0.051645 0.26297873
0.041621115 0.051624104 0.26287234
0.042140432 0.051603213 0.26276594
0.042642042 0.05156143 0.26255319
0.04312529 0.051498752 0.26223403
0.043607231 0.051436074 0.26191488
0.044069946 0.051352508 0.26148936
0.044549067 0.051289834 0.26117021
0.045026883 0.051227156 0.26085106
0.045521982 0.051185373 0.2606383
0.046016213 0.05114359 0.26042554
0.046509575 0.051101808 0.26021278
0.046982836 0.051039133 0.25989363
0.047454793 0.050976455 0.25957447
0.047945116 0.050934672 0.25936171
0.048454449 0.050913777 0.25925532
0.048963349 0.050892886 0.25914893
0.0494515 0.050851103 0.25893617
0.049918249 0.050788425 0.25861701
0.067804202 0.050746642 0.25840425
0.068247072 0.050683964 0.2580851
0.06863194 0.050579507 0.25755319
0.068986073 0.050454155 0.25691488
0.069423951 0.050391477 0.25659573
0.069976531 0.050412372 0.25670213
0.07058797 0.050475046 0.25702128
0.071318448 0.05062129 0.25776595
0.07205198 0.050767537 0.25851065
0.13053489 0.046087727 0.23468085
0.13107315 0.046108622 0.23478724
0.13167143 0.046150405 0.235
0.13227059 0.046192192 0.23521277
-0.025255166 0.059316456 0.29893616
-0.024636427 0.059295353 0.29882979
-0.024026675 0.059295353 0.29882979
-0.023450268 0.059379786 0.29925531
-0.022912722 0.059569769 0.30021277
-0.022387072 0.05980197 0.30138299
0.039523512 0.052223817 0.26319149
0.040060546 0.052223817 0.26319149
0.040581167 0.052202705 0.2630851
0.041117985 0.052202705 0.2630851
0.041654799 0.052202705 0.2630851
0.042174559 0.052181598 0.26297873
0.042676598 0.052139375 0.26276594
0.043142784 0.052054942 0.26234043
0.043607231 0.051970504 0.26191488
0.044087876 0.051907182 0.26159576
0.044567216 0.051843856 0.2612766
0.045063615 0.051801637 0.26106384
0.045540564 0.051738311 0.26074469
0.046016213 0.051674981 0.26042554
0.046490557 0.051611654 0.26010638
0.046944369 0.051527213 0.25968084
0.047415897 0.051463891 0.25936171
0.047886118 0.051400565 0.25904256
0.048394799 0.051379453 0.25893617
0.048903048 0.051358342 0.25882977
0.049390551 0.051316123 0.25861701
0.049856644 0.051252797 0.25829786
0.050342195 0.051210579 0.2580851
0.050826874 0.051168364 0.25787234
0.051268309 0.051083922 0.2574468
0.051665209 0.050957274 0.25680852
0.052102737 0.050872833 0.25638297
0.052582208 0.050830618 0.25617021
0.067915857 0.051358342 0.25882977
0.068359599 0.05129502 0.25851065
0.068660296 0.051126145 0.25765958
0.068986073 0.050978377 0.25691488
0.069366388 0.050872833 0.25638297
0.069889531 0.050872833 0.25638297
0.070529543 0.050957274 0.25680852
0.071289025 0.051126145 0.25765958
0.07205198 0.05129502 0.25851065
0.13065323 0.046608806 0.23489362
0.13119192 0.046629913 0.235
0.13173103 0.046651024 0.23510638
0.13227059 0.046672136 0.23521277
-0.025246181 0.059905104 0.29882979
-0.024627656 0.059883777 0.2987234
-0.024026675 0.059905104 0.29882979
-0.023475276 0.060054384 0.29957446
-0.022961438 0.0603103 0.30085108
-0.022442387 0.060566213 0.30212766
-0.022133315 0.06141926 0.30638298
0.040581167 0.05273952 0.2630851
0.041117985 0.05273952 0.2630851
0.041705333 0.052803501 0.26340425
0.042242799 0.052803501 0.26340425
0.042728432 0.05273952 0.2630851
0.043160282 0.052611567 0.26244682
0.043607231 0.052504931 0.26191488
0.044087876 0.05244096 0.26159576
0.044603504 0.052419629 0.26148936
0.045100342 0.052376978 0.2612766
0.045577724 0.052313 0.26095745
0.046016213 0.052206371 0.26042554
0.046471544 0.052121062 0.25999999
0.046925139 0.05203576 0.25957447
0.047376994 0.051950455 0.25914893
0.047846783 0.051886473 0.25882977
0.048355035 0.051865153 0.25872341
0.048842754 0.051822502 0.25851065
0.049329598 0.051779844 0.25829786
0.04979505 0.051715869 0.25797874
0.050300691 0.051694542 0.25787234
0.050784938 0.051651891 0.25765958
0.051247127 0.051587913 0.25734043
0.051686607 0.051502604 0.25691488
0.052124359 0.051417302 0.25648937
0.052604046 0.051374651 0.25627661
0.053126972 0.051374651 0.25627661
0.053672161 0.051395975 0.25638297
0.067971691 0.051929131 0.25904256
0.068415858 0.051865153 0.25872341
0.068716988 0.051694542 0.25787234
0.069014646 0.051523935 0.25702128
0.069366388 0.051395975 0.25638297
0.069860533 0.051374651 0.25627661
0.070529543 0.051481284 0.25680852
0.071259588 0.051630564 0.25755319
0.071992666 0.051779844 0.25829786
0.13083076 0.04715208 0.23521277
0.1313107 0.04715208 0.23521277
0.13179064 0.04715208 0.23521277
0.13227059 0.04715208 0.23521277
-0.025210228 0.060428679 0.29840425
-0.024601344 0.060428679 0.29840425
-0.024018122 0.060493313 0.2987234
-0.023483615 0.060687203 0.29968086
-0.022993915 0.06101035 0.30127659
-0.0224819 0.061290409 0.30265957
-0.022010351 0.061699733 0.30468085
0.042762991 0.053319428 0.26329789
0.043160282 0.053147081 0.26244682
0.043607231 0.053039361 0.26191488
0.044105802 0.052996278 0.26170212
0.044621654 0.052974738 0.26159576
0.045137066 0.052953191 0.26148936
0.045614883 0.052888561 0.26117021
0.046053808 0.052780844 0.2606383
0.046471544 0.052651584 0.25999999
0.046905905 0.052543867 0.25946808
0.047357548 0.052457698 0.25904256
0.047846783 0.052414607 0.25882977
0.04833515 0.052371524 0.25861701
0.048822653 0.052328438 0.25840425
0.049288966 0.052263808 0.2580851
0.049753975 0.052199177 0.25776595
0.050259192 0.052177638 0.25765958
0.050763968 0.052156091 0.25755319
0.051247127 0.052113008 0.25734043
0.051686607 0.052026831 0.25691488
0.052145977 0.051962201 0.25659573
0.05262588 0.051919118 0.25638297
0.053149018 0.051919118 0.25638297
0.053672161 0.051919118 0.25638297
0.054217793 0.051940661 0.25648937
0.054741152 0.051940661 0.25648937
0.067971691 0.052457698 0.25904256
0.068415858 0.052393068 0.25872341
0.068773687 0.052263808 0.2580851
0.06907177 0.052091461 0.25723404
0.06945274 0.051983748 0.25670213
0.069947526 0.051962201 0.25659573
0.070529543 0.052005291 0.25680852
0.071200721 0.052113008 0.25734043
0.13046873 0.047675107 0.23542553
0.13094909 0.047675107 0.23542553
0.13142948 0.047675107 0.23542553
0.13179064 0.04763202 0.23521277
0.13227059 0.04763202 0.23521277
-0.025147315 0.060885243 0.29765958
-0.024557492 0.060928762 0.29787233
-0.02399246 0.061037563 0.29840425
-0.023483615 0.061298691 0.29968086
-0.023002034 0.061646856 0.30138299
-0.022505606 0.061973259 0.30297872
-0.02194887 0.062147342 0.30382979
0.044105802 0.053530272 0.26170212
0.044657946 0.053552032 0.26180851
0.045192156 0.053552032 0.26180851
0.045670625 0.05348675 0.26148936
0.0460914 0.053356189 0.26085106
0.046509575 0.053225629 0.26021278
0.046944369 0.053116824 0.25968084
0.047396444 0.053029787 0.25925532
0.047866449 0.052964505 0.25893617
0.048355035 0.052920986 0.25872341
0.048842754 0.052877467 0.25851065
0.049288966 0.052790422 0.2580851
0.049753975 0.05272514 0.25776595
0.050217684 0.052659858 0.2574468
0.050722033 0.052638102 0.25734043
0.051225938 0.052616339 0.25723404
0.051686607 0.052551057 0.25691488
0.052145977 0.052485775 0.25659573
0.05262588 0.052442256 0.25638297
0.053126972 0.052420501 0.25627661
0.053649895 0.052420501 0.25627661
0.054195303 0.052442256 0.25638297
0.054718442 0.052442256 0.25638297
0.055218667 0.052420501 0.25627661
0.055695307 0.052376974 0.25606382
0.06786003 0.052899223 0.25861701
0.068359599 0.052877467 0.25851065
0.068802036 0.052812185 0.2581915
0.069186039 0.052703384 0.25765958
0.069625437 0.052638102 0.25734043
0.070092529 0.052594583 0.25712767
0.070617191 0.052594583 0.25712767
0.13064559 0.048220765 0.23574468
0.13112661 0.048220765 0.23574468
0.13148886 0.048177242 0.23553191
0.13185026 0.048133723 0.23531915
-0.025102379 0.061382722 0.29712766
-0.024504868 0.061404698 0.29723403
-0.023949694 0.061536562 0.29787233
-0.023466939 0.06186622 0.29946807
-0.023010153 0.062283792 0.30148935
-0.022529313 0.062657408 0.30329788
-0.021971926 0.062833227 0.30414894
0.04568921 0.054042291 0.26159576
0.046128999 0.053932406 0.26106384
0.046566613 0.053822514 0.2605319
0.047002062 0.053712625 0.25999999
0.047454793 0.053624719 0.25957447
0.047945116 0.053580768 0.25936171
0.048414685 0.053514834 0.25904256
0.048882954 0.053448901 0.25872341
0.049309283 0.053339016 0.2581915
0.049753975 0.053251103 0.25776595
0.050217684 0.053185169 0.2574468
0.050722033 0.053163197 0.25734043
0.051204756 0.053119242 0.25712767
0.051686607 0.053075284 0.25691488
0.052145977 0.05300935 0.25659573
0.05262588 0.052965399 0.25638297
0.053126972 0.052943423 0.25627661
0.053627621 0.052921444 0.25617021
0.054127838 0.052899465 0.25606382
0.054650329 0.052899465 0.25606382
0.055149898 0.052877493 0.25595745
0.055649031 0.05285551 0.25585106
0.056124374 0.052811559 0.2556383
0.056575276 0.052745625 0.25531915
0.067776285 0.053360987 0.25829786
0.068303332 0.053360987 0.25829786
0.068830378 0.053360987 0.25829786
0.069300294 0.053317036 0.2580851
0.069769345 0.053273082 0.25787234
0.070237532 0.053229131 0.25765958
0.1307635 0.048745748 0.23595744
0.13112661 0.048701797 0.23574468
0.13148886 0.048657838 0.23553191
0.13185026 0.048613887 0.23531915
-0.02571786 0.062011193 0.29723403
-0.02509339 0.061966807 0.29702127
-0.024469787 0.061922416 0.29680851
-0.023906926 0.062033389 0.29734042
-0.023433596 0.062388502 0.29904255
-0.023002034 0.062876783 0.30138299
-0.022537215 0.063298471 0.30340424
-0.021987295 0.063498221 0.3043617
0.046147794 0.054487288 0.26117021
0.046623658 0.054420702 0.26085106
0.047098219 0.05435412 0.2605319
0.047532585 0.054243147 0.25999999
0.048004109 0.054176565 0.25968084
0.048474334 0.054109987 0.25936171
0.04892315 0.054021206 0.25893617
0.049349915 0.053910233 0.25840425
0.049774513 0.053799264 0.25787234
0.050217684 0.053710483 0.2574468
0.050701063 0.053666092 0.25723404
0.05118357 0.053621706 0.25702128
0.051665209 0.053577319 0.25680852
0.052145977 0.053532925 0.25659573
0.05262588 0.053488538 0.25638297
0.053126972 0.05346635 0.25627661
0.053605348 0.053421956 0.25606382
0.054082863 0.053377569 0.25585106
0.05458222 0.053355377 0.2557447
0.055104058 0.053355377 0.2557447
0.055602755 0.053333178 0.2556383
0.056101017 0.053310983 0.25553191
0.056551702 0.053244401 0.25521275
0.057001092 0.053177822 0.25489363
0.05742516 0.053089041 0.25446808
0.067193843 0.053843651 0.2580851
0.067720458 0.053843651 0.2580851
0.068275206 0.053865846 0.2581915
0.068858728 0.053910233 0.25840425
0.069385998 0.053910233 0.25840425
0.069913261 0.053910233 0.25840425
0.13082245 0.049249407 0.23606382
0.13112661 0.049182825 0.23574468
0.13142948 0.049116239 0.23542553
0.13179064 0.049071852 0.23521277
-0.025745474 0.062684923 0.29755318
-0.025102379 0.062595278 0.29712766
-0.024461016 0.062505633 0.29670212
-0.023881266 0.062572867 0.29702127
-0.023400251 0.062909044 0.29861704
-0.022961438 0.063379683 0.30085108
-0.022497702 0.063805498 0.30287233
0.04666169 0.054997791 0.26106384
0.047136687 0.054930553 0.26074469
0.047610383 0.054863319 0.26042554
0.048043445 0.054751262 0.25989363
0.048494212 0.054661613 0.25946808
0.048963349 0.054594379 0.25914893
0.049390551 0.054482322 0.25861701
0.04981558 0.054370265 0.2580851
0.050238438 0.054258209 0.25755319
0.050680097 0.054168563 0.25712767
0.051141202 0.054101329 0.25680852
0.051643804 0.054078914 0.25670213
0.052167598 0.054078914 0.25670213
0.052669551 0.054056499 0.25659573
0.053149018 0.05401168 0.25638297
0.053605348 0.053944442 0.25606382
0.054060381 0.053877216 0.2557447
0.054536805 0.053832386 0.25553191
0.055035289 0.053809978 0.25542554
0.05555648 0.053809978 0.25542554
0.056054309 0.053787567 0.25531915
0.056528132 0.053742744 0.25510639
0.056953505 0.053653095 0.25468084
0.05740115 0.053585861 0.25436169
0.057871722 0.053541038 0.25414893
0.058316976 0.053473804 0.25382978
0.058686964 0.05333934 0.2531915
0.059054337 0.053204868 0.25255319
0.066667229 0.054370265 0.2580851
0.067221545 0.054392677 0.2581915
0.067720458 0.054370265 0.2580851
0.068275206 0.054392677 0.2581915
0.068858728 0.054437499 0.25840425
0.069414563 0.054459915 0.25851065
0.06994205 0.054459915 0.25851065
0.13051699 0.049798321 0.23638298
0.13082245 0.049731087 0.23606382
0.13130413 0.049731087 0.23606382
0.1319046 0.04977591 0.2362766
0.13256553 0.049843147 0.23659575
-0.025809908 0.063450478 0.29829788
-0.025129341 0.063269444 0.29744682
-0.024469787 0.063133672 0.29680851
-0.023864159 0.063133672 0.29680851
-0.023350231 0.063382588 0.29797873
-0.022888364 0.063789904 0.29989362
-0.022394974 0.06412933 0.30148935
0.047629826 0.055417333 0.2605319
0.048063107 0.055304192 0.25999999
0.048514098 0.055213679 0.25957447
0.048983451 0.055145793 0.25925532
0.049410868 0.055032652 0.25872341
0.049836114 0.054919507 0.2581915
0.050196938 0.054738481 0.25734043
0.050638158 0.054647963 0.25691488
0.051098827 0.054580078 0.25659573
0.051601004 0.05455745 0.25648937
0.052145977 0.054580078 0.25659573
0.052669551 0.054580078 0.25659573
0.053171076 0.05455745 0.25648937
0.053627621 0.054489564 0.25617021
0.054060381 0.054399054 0.2557447
0.054536805 0.054353792 0.25553191
0.055035289 0.054331169 0.25542554
0.05555648 0.054331169 0.25542554
0.056054309 0.054308537 0.25531915
0.056528132 0.054263279 0.25510639
0.056977298 0.054195393 0.25478724
0.057449169 0.054150138 0.25457448
0.057895947 0.054082252 0.25425532
0.058316976 0.053991735 0.25382978
0.058711618 0.05387859 0.25329787
0.059104085 0.05376545 0.25276595
0.059544567 0.053697564 0.2524468
0.060110301 0.053742826 0.25265959
0.06072795 0.053833336 0.25308511
0.061321594 0.053901222 0.25340426
0.065840714 0.054647963 0.25691488
0.066557311 0.054806367 0.25765958
0.067138448 0.054851621 0.25787234
0.067692548 0.054874253 0.25797874
0.068218946 0.054874253 0.25797874
0.068773687 0.054896876 0.2580851
0.069357425 0.054942135 0.25829786
0.069884472 0.054942135 0.25829786
0.13045825 0.050258026 0.2362766
0.1307635 0.05019014 0.23595744
0.13189587 0.050439052 0.23712766
0.13350812 0.050868995 0.23914893
-0.12785815 0.068514042 0.31904256
-0.12712231 0.068468347 0.31882977
-0.026578745 0.064447515 0.30010638
-0.025874341 0.064219058 0.29904255
-0.025183264 0.064013444 0.29808509
-0.024496099 0.063807838 0.29712766
-0.023872713 0.063762151 0.29691491
-0.023316884 0.063899219 0.29755318
-0.022807172 0.064173371 0.29882979
0.051056456 0.055057961 0.25638297
0.051579598 0.055057961 0.25638297
0.052102737 0.055057961 0.25638297
0.052647717 0.055080809 0.25648937
0.053149018 0.055057961 0.25638297
0.053627621 0.055012271 0.25617021
0.054082863 0.054943733 0.25585106
0.05455951 0.054898042 0.2556383
0.055058207 0.054875195 0.25553191
0.05555648 0.054852355 0.25542554
0.056054309 0.054829508 0.25531915
0.056551702 0.054806657 0.25521275
0.057048667 0.054783817 0.25510639
0.05752119 0.054738127 0.25489363
0.05796862 0.054669589 0.25457448
0.058365867 0.05455536 0.25404257
0.058760934 0.054441128 0.25351062
0.059178714 0.054349747 0.25308511
0.059644941 0.05430406 0.25287235
0.060186226 0.054326899 0.25297871
0.06075348 0.054372597 0.2531915
0.061321594 0.054418284 0.25340426
0.061864611 0.054441128 0.25351062
0.062408071 0.054463975 0.25361702
0.062899172 0.054441128 0.25351062
0.063389845 0.054418284 0.25340426
0.063960567 0.054463975 0.25361702
0.064775571 0.054715279 0.25478724
0.065595351 0.05496658 0.25595745
0.066337466 0.055149347 0.25680852
0.066944569 0.055217884 0.25712767
0.067497142 0.055240728 0.25723404
0.068050154 0.055263575 0.25734043
0.06860359 0.055286415 0.2574468
0.069157474 0.055309266 0.25755319
0.069683 0.055309266 0.25755319
0.13424821 0.052407872 0.24404256
0.13034077 0.050694447 0.23606382
0.13070454 0.050648756 0.23585106
0.13307932 0.051379818 0.23925532
-0.20070271 0.069141969 0.31893617
-0.19991848 0.06909585 0.31872341
-0.19913512 0.069049723 0.31851065
-0.19848521 0.069049723 0.31851065
-0.1980996 0.069141969 0.31893617
-0.12790078 0.069188096 0.31914893
-0.12712231 0.069118902 0.31882977
-0.12634517 0.069049723 0.31851065
-0.026644697 0.065221317 0.30085108
-0.025938772 0.064990684 0.29978722
-0.025228206 0.064737 0.29861704
-0.024539951 0.064529434 0.29765958
-0.023889819 0.064414121 0.29712766
-0.023300214 0.06446024 0.29734042
-0.022734096 0.064575553 0.29787233
0.052081123 0.055558044 0.25627661
0.05262588 0.0555811 0.25638297
0.053126972 0.055558044 0.25627661
0.053627621 0.055534977 0.25617021
0.054105353 0.055488855 0.25595745
0.054627627 0.055488855 0.25595745
0.055126976 0.055465788 0.25585106
0.055625897 0.055442732 0.2557447
0.056124374 0.055419665 0.2556383
0.056622423 0.055396602 0.25553191
0.057143826 0.055396602 0.25553191
0.057641227 0.055373542 0.25542554
