# .PCD v0.7 - Point Cloud Data file format
VERSION 0.7
FIELDS x y z
SIZE 4 4 4
TYPE F F F
COUNT 1 1 1
WIDTH 1365
HEIGHT 1
VIEWPOINT 0 0 0 1 0 0 0
POINTS 1365
DATA ascii
0.0017321812 0.12661871 0.28447089
0.0020457441 0.126671 0.2842831
0.0025776159 0.12677109 0.28352219
0.0041332231 0.12640415 0.28083277
0.007311143 0.12600993 0.27749103
0.0079932213 0.12580213 0.2756235
0.0082966899 0.12559611 0.27472475
0.008533719 0.12545735 0.27429187
0.0086653996 0.12541348 0.27416721
0.0089965034 0.12542495 0.27416992
0.0091434112 0.12544358 0.27418876
0.00947819 0.12555102 0.27440253
0.0097873351 0.12565084 0.27465174
0.01017821 0.12576133 0.27482492
0.010463237 0.12576883 0.27487114
0.010751683 0.12573195 0.27483174
0.010994043 0.12571359 0.27478203
0.011291668 0.12581454 0.27492315
0.011452164 0.12582727 0.2749711
0.012174949 0.12593444 0.27561301
0.012689631 0.12608099 0.27606699
0.012915808 0.12609448 0.27603298
0.021768726 0.11396173 0.25839272
0.022252707 0.11408002 0.25817838
0.022680894 0.11418874 0.2580035
0.023106385 0.11429909 0.25783172
0.023577375 0.11443236 0.25764504
0.024071233 0.11452923 0.25743806
0.024627965 0.11462351 0.25719166
0.025191143 0.11474117 0.2569823
0.025748221 0.11486741 0.25677052
0.026280515 0.11498251 0.25656
0.02669047 0.11507801 0.25638217
0.027130723 0.1151781 0.25619522
0.027620949 0.11528316 0.25599229
0.028090036 0.11537284 0.25579485
0.028512353 0.11545336 0.25561586
0.02886384 0.11554405 0.25546944
0.029267751 0.1156281 0.25530195
0.029697953 0.11571915 0.25512347
0.030058259 0.11579482 0.25497374
0.030444348 0.1158722 0.25481468
0.030832686 0.11595246 0.25465497
0.031198801 0.11602608 0.25450826
0.031569272 0.11610014 0.25436044
0.031939644 0.11617777 0.25421637
0.051572036 0.11423264 0.25681821
0.051750124 0.11405166 0.25694165
0.051961552 0.11385596 0.2570864
0.052094352 0.11368611 0.25719047
0.052163932 0.11363552 0.25724822
0.05219385 0.11355634 0.25726154
0.052253284 0.11352755 0.25730589
0.052270196 0.11347384 0.25731474
0.052290097 0.11341993 0.25732124
0.052334569 0.11334641 0.25734353
0.11557355 0.10414561 0.2348333
0.11564372 0.10392886 0.23482993
0.11569844 0.10375882 0.23484132
0.11576114 0.10359326 0.23484759
0.11580039 0.10347299 0.23485926
0.11583684 0.10337781 0.23486698
0.11586775 0.10330738 0.23487103
0.11587974 0.10325818 0.23487766
0.115902 0.10321113 0.23488046
0.11591318 0.1031872 0.23488224
0.11591318 0.1031872 0.23488228
-0.11250176 0.082968451 0.1846634
-0.11239135 0.082993053 0.1847412
-0.11225016 0.083025575 0.18480963
-0.11212333 0.083055392 0.18484487
-0.1120401 0.083074771 0.18496738
-0.11187611 0.083114401 0.18502533
-0.11180125 0.083130576 0.18517414
-0.11176476 0.083136454 0.18540958
-0.11162753 0.083165787 0.18553987
-0.11132056 0.083243012 0.18539044
-0.11096317 0.083335899 0.18506508
-0.11056948 0.083432443 0.18467674
-0.11020103 0.083516985 0.18439591
-0.11004441 0.083548635 0.18451267
-0.10999092 0.083548196 0.18481895
-0.10995022 0.083540335 0.18517548
-0.10982476 0.083544597 0.18544722
-0.10962548 0.083574615 0.18552127
-0.10941476 0.083610676 0.18555416
-0.10916907 0.083651245 0.18562403
-0.10900141 0.083657287 0.18584916
-0.10895666 0.083611153 0.18624867
-0.10886446 0.083584927 0.18649651
-0.10861168 0.083619505 0.18654379
-0.10834031 0.083665967 0.18653049
-0.10804152 0.083728276 0.18647321
-0.10783663 0.083740056 0.18659313
-0.10765157 0.083749391 0.18671536
-0.10742559 0.083764151 0.1868355
-0.10721352 0.083759308 0.18707512
-0.10688327 0.083800383 0.18723267
-0.10653955 0.083839484 0.18734352
-0.10624506 0.083837636 0.18758585
-0.10596958 0.083846316 0.18777415
-0.10574133 0.083839215 0.18798542
-0.10546836 0.083831228 0.188192
-0.10520037 0.083818905 0.18842
-0.10489798 0.083833575 0.18856138
-0.10456658 0.083856754 0.18867327
-0.10425536 0.083881453 0.18874227
-0.10393599 0.083898351 0.18887277
-0.1035997 0.083938591 0.18893811
-0.10322414 0.083984539 0.18893841
-0.10290305 0.084018566 0.18898369
-0.10261656 0.08402545 0.18911763
-0.10236504 0.084023677 0.18925925
-0.1021268 0.084017083 0.18940584
-0.10187185 0.084000155 0.18960895
-0.10157814 0.084007278 0.18972169
-0.1012939 0.084009647 0.18983948
-0.10094225 0.084038816 0.18987493
-0.10052364 0.084093921 0.18984662
-0.10022031 0.08412461 0.18986888
-0.099822044 0.084178694 0.18984947
-0.09941677 0.084228158 0.18982708
-0.099062338 0.084264301 0.18983771
-0.098685436 0.08429879 0.18986607
-0.098405123 0.08431755 0.1899112
-0.098038964 0.084349483 0.18993779
-0.097620957 0.084389083 0.18992519
-0.097170107 0.084457479 0.18983823
-0.096762426 0.084489234 0.18984346
-0.096397199 0.084507912 0.18989387
-0.09606386 0.08453659 0.18991151
-0.095760502 0.084548563 0.1900043
-0.095424764 0.084576763 0.19002019
-0.095150195 0.084601201 0.19004904
-0.094770335 0.084649079 0.1900254
-0.094369203 0.084688157 0.19001618
-0.093854219 0.084767453 0.18989289
-0.093447186 0.08481738 0.1898433
-0.092978418 0.084887497 0.18975334
-0.092644088 0.084918395 0.18976393
-0.092317209 0.084941201 0.18976773
-0.092063062 0.0849512 0.18982208
-0.091702007 0.084984168 0.18980299
-0.091317758 0.085018091 0.18978144
-0.090889923 0.085061051 0.18971249
-0.090519346 0.08509855 0.18969977
-0.090226084 0.085114785 0.18970095
-0.08989121 0.085140437 0.18970102
-0.089612551 0.085157067 0.18973003
-0.089268275 0.08517164 0.18973592
-0.088933334 0.085201748 0.1897271
-0.08858943 0.085235961 0.18969631
-0.088228427 0.085276373 0.18964937
-0.087863415 0.085315958 0.18960866
-0.087521575 0.085346527 0.18960057
-0.087069795 0.085407376 0.18951629
-0.086712971 0.085444272 0.18946414
-0.086372413 0.085489377 0.18944129
-0.086102754 0.085521497 0.18944284
-0.085827582 0.085555688 0.18945105
-0.085569806 0.085597821 0.1894715
-0.085296884 0.085641831 0.18947239
-0.08503823 0.085687675 0.1895496
-0.084710985 0.085739419 0.18956135
-0.084321022 0.08580552 0.18952562
-0.083993182 0.085857049 0.1895142
-0.083612904 0.085909426 0.18947473
-0.083282426 0.085963361 0.18948205
-0.083031766 0.08599975 0.18953115
-0.082756378 0.086058863 0.18954842
-0.08246626 0.086112835 0.18958028
-0.082190573 0.086168908 0.18959297
-0.081952222 0.086209297 0.18967615
-0.081676997 0.086281538 0.18979798
-0.081441276 0.086330451 0.18985455
-0.081123494 0.086415984 0.18998079
-0.080862969 0.086485818 0.19008631
-0.080580592 0.086557835 0.19019514
-0.080250643 0.086649828 0.19031721
-0.079897881 0.086776182 0.1905773
-0.079555437 0.086908445 0.19086879
-0.079214104 0.087039597 0.19108203
-0.078910418 0.087171473 0.19135855
-0.078484498 0.087374836 0.19184031
-0.077903852 0.08772824 0.19292732
-0.077347368 0.088287227 0.19476838
-0.077040486 0.088783383 0.1962004
-0.076836534 0.089171328 0.19727558
-0.076544411 0.089564145 0.19822787
-0.076359466 0.089950025 0.1992283
-0.076090015 0.090281337 0.19996919
-0.075845994 0.090521716 0.20045497
-0.075510606 0.090804718 0.20100646
-0.075200863 0.090979122 0.2012599
-0.074988149 0.091206402 0.20177321
-0.074760988 0.091448419 0.20232248
-0.074615762 0.091695227 0.2030365
-0.074439935 0.091912627 0.20361651
-0.074156255 0.092101127 0.204007
-0.073918141 0.092258312 0.20435801
-0.073696494 0.092426077 0.2047653
-0.073318377 0.092571221 0.20492664
-0.07306467 0.092732847 0.20530078
-0.072899342 0.092863642 0.20565079
-0.072667457 0.093002342 0.20597248
-0.072560921 0.093182117 0.20659274
-0.07229019 0.093307555 0.20684713
-0.071901321 0.093449712 0.20702504
-0.071481511 0.093538396 0.20697111
-0.071143672 0.093665458 0.20715475
-0.070849597 0.093796916 0.20741677
-0.070554845 0.093990937 0.2079535
-0.070313923 0.094200924 0.20865113
-0.07003063 0.094366148 0.20910883
-0.069716625 0.094545558 0.20962071
-0.069397539 0.094659247 0.20978117
-0.069030754 0.094790392 0.20999759
-0.068673313 0.094917871 0.2102264
-0.068297565 0.095031656 0.21036604
-0.067952119 0.095153198 0.21056202
-0.067526057 0.095281355 0.2106971
-0.067103095 0.095405713 0.21077709
-0.066742629 0.095489964 0.21074934
-0.066414036 0.095589027 0.21083339
-0.066031426 0.095717803 0.21102592
-0.065715753 0.095912881 0.21175013
-0.065445691 0.096104354 0.21251696
-0.065202661 0.096269585 0.21317036
-0.064949661 0.096391752 0.21354742
-0.0644987 0.096486583 0.21351935
-0.064130895 0.096602462 0.21370976
-0.063773379 0.096731268 0.21401145
-0.063378945 0.096848756 0.21426775
-0.063017026 0.096970148 0.21455556
-0.062644944 0.097055294 0.21466
-0.062367953 0.097136863 0.21485013
-0.061996829 0.097252369 0.21511522
-0.061740145 0.097343229 0.21538828
-0.061369747 0.097445808 0.21559924
-0.061040264 0.097526632 0.21572268
-0.06070834 0.097611889 0.21586862
-0.0604495 0.09771312 0.21620743
-0.06017128 0.097807638 0.21650688
-0.059854161 0.097891994 0.21670021
-0.059520438 0.09794037 0.21663161
-0.059181079 0.098010607 0.21665415
-0.058926649 0.098088637 0.21687201
-0.058581691 0.098168537 0.21707422
-0.058442894 0.098256476 0.21751441
-0.058147606 0.098365277 0.21799541
-0.057828691 0.098460719 0.21840048
-0.05756918 0.09851402 0.21848829
-0.057240274 0.098556794 0.21849351
-0.056837365 0.098545797 0.21815979
-0.056558847 0.098574564 0.21806498
-0.056240845 0.098574698 0.21799052
-0.055902295 0.098601922 0.21802698
-0.055595748 0.09865804 0.21825995
-0.05534336 0.098687224 0.21839815
-0.055151258 0.098739944 0.21873131
-0.054876324 0.098847613 0.21951026
-0.054659806 0.098915145 0.22011302
-0.054355409 0.098979555 0.22053996
-0.05413181 0.098999277 0.22061887
-0.053640816 0.098954655 0.22044428
-0.053278517 0.098898716 0.22024506
-0.052832171 0.09882731 0.21996343
-0.05237494 0.098734446 0.21960436
-0.051724669 0.09853033 0.21885663
-0.050845444 0.098169155 0.21764411
-0.049357675 0.097602881 0.21615387
-0.04720119 0.096886978 0.2144174
-0.044927701 0.096363269 0.21255973
-0.043414172 0.096134678 0.21124201
-0.042404458 0.096033439 0.21073775
-0.041763049 0.095919907 0.21044861
-0.041386835 0.095870197 0.21037893
-0.041102972 0.09585005 0.21034804
-0.040912304 0.095854223 0.21035773
-0.040634505 0.095854729 0.21042781
-0.040447518 0.095869578 0.21056928
-0.040230419 0.095880941 0.21064155
-0.040070627 0.09589114 0.21070038
-0.039816208 0.095917188 0.21079467
-0.039561596 0.095936514 0.21094818
-0.039310869 0.095975175 0.21115343
-0.039024662 0.096024998 0.21140391
-0.038668782 0.096086562 0.21171439
-0.038206596 0.09612532 0.21216866
-0.037838329 0.096170522 0.21250868
-0.037538666 0.096206553 0.21273187
-0.037252013 0.096238539 0.21291418
-0.037009273 0.096266083 0.21309884
-0.036795475 0.096297108 0.21328248
-0.036548998 0.096342519 0.2134787
-0.036284819 0.096385002 0.21368282
-0.036064472 0.096418217 0.21387357
-0.035783507 0.096475646 0.2140841
-0.03538898 0.096539803 0.21444894
-0.034987766 0.096628293 0.21482125
-0.034493804 0.09675052 0.21526712
-0.033973318 0.096877933 0.21582238
-0.033579003 0.096965045 0.21624142
-0.033106782 0.097083628 0.21669696
-0.032877415 0.097152479 0.21685946
-0.032616649 0.097237825 0.21701786
-0.032384794 0.097312972 0.21717146
-0.032065254 0.09738753 0.21747902
-0.031687878 0.097455263 0.21786559
-0.031298485 0.097530209 0.21823807
-0.030897914 0.097642951 0.21855111
-0.030477112 0.097745083 0.21889466
-0.030017372 0.097874008 0.2192774
-0.029606739 0.097995132 0.2195949
-0.029193297 0.098106965 0.21992926
-0.028921327 0.098179221 0.22016314
-0.028564056 0.098302566 0.2203843
-0.028217014 0.098412514 0.22065018
-0.027797725 0.098500974 0.22106715
-0.027286446 0.098647557 0.2215136
-0.026753543 0.098768987 0.22201993
-0.026315143 0.098890893 0.22237903
-0.02592596 0.099007718 0.2226824
-0.025643134 0.099107772 0.22287448
-0.025231162 0.099236213 0.22321601
-0.02475719 0.099384978 0.22363107
-0.024332721 0.0995543 0.22395949
-0.024028087 0.099678911 0.22418825
-0.023766464 0.099793173 0.22438344
-0.023592053 0.099896997 0.22445403
-0.023394395 0.099988535 0.22457355
-0.023133177 0.10014309 0.22469831
-0.022864917 0.10027154 0.22485369
-0.022569224 0.10040348 0.22505318
-0.022184188 0.10050432 0.22541809
-0.02172632 0.10062245 0.22591656
-0.02140915 0.10073389 0.22619402
-0.021097627 0.10088242 0.2264332
-0.02086175 0.1010059 0.22656971
-0.020646842 0.1011252 0.2266845
-0.020354796 0.10129576 0.22686096
-0.02004987 0.10148558 0.22707845
-0.019771406 0.10164789 0.22726108
-0.019495444 0.10177887 0.22747044
-0.019094607 0.10202131 0.22774871
-0.018530082 0.10234316 0.22822733
-0.017649854 0.10284995 0.22910106
-0.010005155 0.12174767 0.26540038
-0.010324712 0.12208509 0.26721004
-0.010517807 0.12223487 0.26842877
-0.010741874 0.12235428 0.26947877
-0.010642662 0.12247189 0.27019584
-0.010634313 0.12261745 0.27095994
-0.010712052 0.12274735 0.27180052
-0.010835444 0.12293153 0.27329278
-0.010698042 0.12316372 0.2746909
-0.010673188 0.12331185 0.27553722
-0.01025903 0.12335816 0.27543589
-0.0096154623 0.1233055 0.27402627
-0.0089477235 0.12307949 0.27207819
-0.0083429813 0.12270834 0.26962799
-0.0075966222 0.12247237 0.26787102
-0.0071806912 0.12224678 0.26668325
-0.0067967828 0.12188714 0.26512051
-0.0060940869 0.12154026 0.2637887
-0.0058341054 0.12159473 0.26377735
-0.0053173909 0.12225237 0.26554406
0.0010475132 0.12547916 0.27418107
0.0016829078 0.12602802 0.27717927
0.0014002747 0.12635745 0.27968177
0.0008952833 0.12647234 0.28149647
0.00084137951 0.12642325 0.28302622
0.00084377779 0.12642987 0.28354505
0.0010500465 0.12644847 0.28361374
0.0013508978 0.12650669 0.28356633
0.0016445288 0.12658311 0.28351316
0.001857171 0.12662441 0.28351918
0.0021583149 0.12671645 0.28349882
0.0025151849 0.12680706 0.28309903
0.0031780875 0.12677225 0.2819441
0.0060127187 0.12616293 0.27904269
0.0076600341 0.12596081 0.27640793
0.008154626 0.12572795 0.27524018
0.0083295079 0.12553599 0.27458441
0.0085104853 0.12538382 0.27410302
0.0087027764 0.12533575 0.27391192
0.0088791633 0.12536107 0.27397412
0.0091916975 0.12537919 0.27403343
0.0094146393 0.1254364 0.27413541
0.0097509585 0.12555882 0.27439603
0.010140519 0.1256564 0.27459237
0.010438613 0.12574701 0.27475667
0.010689504 0.12572405 0.27472562
0.010980845 0.1257758 0.274811
0.011216275 0.12584901 0.27492973
0.011449753 0.1258852 0.27501702
0.01225223 0.12601104 0.27568796
0.012964699 0.12631384 0.27644381
0.014253999 0.12705895 0.27730358
0.015455762 0.12781258 0.27783406
0.022784645 0.11423191 0.25796172
0.023256235 0.11435623 0.25777376
0.023708116 0.11447901 0.25759378
0.024201635 0.11457898 0.25738633
0.024775146 0.11467238 0.25714973
0.025277453 0.11479078 0.2569479
0.025813494 0.11490662 0.25674555
0.02632457 0.11500961 0.25654116
0.026713856 0.11511018 0.25637829
0.027199928 0.11519943 0.25616848
0.027714407 0.11530975 0.25595614
0.028183792 0.11539339 0.25575566
0.028605208 0.11548154 0.25557792
0.028980777 0.11557845 0.25542185
0.02943367 0.1156709 0.25523418
0.029816918 0.11574975 0.25507346
0.030132081 0.11580819 0.25494298
0.030542267 0.11589114 0.25477216
0.030904572 0.11597235 0.254623
0.031271297 0.11604992 0.25447664
0.031642389 0.11612492 0.25432885
0.031990808 0.1161939 0.25419587
0.032314967 0.11626273 0.25407234
0.032687981 0.1163127 0.25392544
0.033042304 0.11636999 0.25378564
0.051203866 0.11445744 0.25659564
0.051465183 0.11429495 0.25674549
0.051641528 0.11414439 0.2568568
0.051904161 0.11394934 0.2570433
0.052092195 0.11384744 0.25720665
0.052112669 0.11379524 0.2572161
0.052198987 0.11368737 0.25727782
0.0522222 0.11363482 0.25728631
0.052248515 0.11358237 0.25729316
0.11547501 0.10448901 0.23482192
0.11551809 0.10434376 0.23481996
0.11556043 0.1041968 0.2348239
0.11562359 0.104003 0.23482279
0.11568449 0.10380857 0.23483433
0.11573154 0.10369029 0.2348375
0.11575838 0.10361847 0.23484206
0.11579163 0.10352293 0.2348509
0.11581586 0.10345108 0.23485868
0.11584347 0.10337996 0.23486458
0.11586059 0.10333179 0.2348686
0.11587296 0.10330807 0.234869
-0.1122383 0.083037011 0.18428338
-0.11209931 0.083067887 0.18435968
-0.11193781 0.083105236 0.18440714
-0.11181476 0.08313401 0.18445562
-0.11168695 0.083164044 0.18454692
-0.11156537 0.083193183 0.18461683
-0.11143764 0.083224915 0.18472193
-0.11140144 0.083231702 0.18491489
-0.11125094 0.083269581 0.18502039
-0.11103442 0.083321281 0.18496285
-0.11069387 0.083404772 0.18468066
-0.11030024 0.083496384 0.1843373
-0.11001715 0.083559461 0.18413448
-0.10986249 0.083591931 0.18419831
-0.10977352 0.08360371 0.18446127
-0.10971262 0.083605677 0.18481414
-0.10960464 0.083615273 0.18503326
-0.10943405 0.083639316 0.18518436
-0.10917944 0.083690822 0.18513678
-0.108979 0.08372207 0.185238
-0.10879444 0.083748631 0.18537347
-0.10867698 0.08373037 0.18577287
-0.10856175 0.08370389 0.18609162
-0.10840224 0.08370968 0.18624237
-0.10810413 0.083772697 0.18618587
-0.10781186 0.083841376 0.18608712
-0.10754371 0.083882332 0.18614605
-0.10734564 0.083897345 0.18629362
-0.10719119 0.083892263 0.18647905
-0.10699005 0.083888635 0.18667242
-0.10670512 0.08390566 0.18687408
-0.10639554 0.083936021 0.18703729
-0.10599888 0.083989829 0.18713428
-0.10567581 0.084019139 0.18725628
-0.10537156 0.084022231 0.18747851
-0.10513791 0.0840078 0.18769777
-0.10486277 0.0840028 0.18790324
-0.1045209 0.084033906 0.18798867
-0.10429763 0.084024563 0.18814605
-0.10400587 0.084030651 0.18830872
-0.10366569 0.084046192 0.18845066
-0.10335795 0.084063321 0.18857187
-0.10302864 0.084095962 0.18864733
-0.10266186 0.084140405 0.18867287
-0.10239742 0.08414191 0.18881482
-0.10212439 0.084139824 0.18896751
-0.10190487 0.084127672 0.18913011
-0.10164648 0.084119283 0.18927743
-0.10132605 0.084116228 0.18943498
-0.10102161 0.084132031 0.18952064
-0.10065665 0.084168017 0.18955043
-0.10032495 0.084193446 0.18959756
-0.099945635 0.084235571 0.18960239
-0.09955667 0.08429534 0.18956563
-0.099208079 0.084325641 0.18958461
-0.098884702 0.084342703 0.18964869
-0.098579243 0.084355138 0.18972234
-0.098264165 0.084366567 0.1897945
-0.097870298 0.084416136 0.1897593
-0.09744551 0.08446452 0.18973483
-0.097063795 0.084494732 0.18973993
-0.096615992 0.084544502 0.18969463
-0.096238375 0.08457455 0.18970871
-0.095887341 0.084599696 0.189739
-0.095538333 0.084630966 0.18976489
-0.095219612 0.084643647 0.18983956
-0.094879255 0.08467409 0.18985577
-0.094479553 0.084724434 0.18982174
-0.094107412 0.084762454 0.18980984
-0.093675025 0.084820449 0.18974891
-0.093230776 0.084878638 0.18968895
-0.092875451 0.084914632 0.18968055
-0.09255255 0.084942818 0.18967652
-0.092186578 0.084978871 0.18968122
-0.091845103 0.08499752 0.18971187
-0.091469929 0.085033275 0.18968645
-0.091106109 0.085063204 0.18967678
-0.090715058 0.085094824 0.18965496
-0.090353288 0.085130602 0.1896093
-0.090022109 0.08516033 0.1896043
-0.089685403 0.085185252 0.18959519
-0.089434363 0.085193522 0.18961921
-0.089088239 0.08521194 0.18962313
-0.088764034 0.085240893 0.18958162
-0.088469572 0.08526843 0.18958409
-0.088065505 0.085314542 0.18954813
-0.08769355 0.085346006 0.18953153
-0.087308779 0.085396118 0.18947387
-0.086903729 0.085438728 0.18942808
-0.086481214 0.085498214 0.189335
-0.086188339 0.085527904 0.18933582
-0.085827857 0.08558996 0.1892868
-0.085555643 0.085625976 0.1892716
-0.08520925 0.085679434 0.18928331
-0.084977463 0.085707545 0.1893353
-0.084710501 0.08575362 0.1893442
-0.084373273 0.085801795 0.1893498
-0.083963752 0.085865192 0.18929066
-0.0836339 0.085913949 0.18926288
-0.083259799 0.085977599 0.18925543
-0.082965165 0.086021006 0.18926547
-0.082733646 0.086059794 0.18928485
-0.082465693 0.086100757 0.18933904
-0.082189269 0.086150981 0.18938199
-0.081948109 0.086200386 0.18938413
-0.081682816 0.08626046 0.1894518
-0.081473656 0.086291015 0.18949057
-0.08123973 0.086345717 0.18960907
-0.080980308 0.086410001 0.18967248
-0.080714494 0.086471841 0.18973444
-0.080477148 0.086527228 0.18980762
-0.080184385 0.086621851 0.18996479
-0.079834208 0.086749472 0.19021948
-0.079523347 0.086864896 0.1904484
-0.079183638 0.086970329 0.19059588
-0.078880295 0.087079376 0.19078393
-0.078551017 0.087235726 0.19113445
-0.078143172 0.087459385 0.19172981
-0.077530131 0.087794267 0.19258891
-0.077002525 0.088161968 0.19373216
-0.0765903 0.088527367 0.19471912
-0.076223597 0.088871196 0.19554438
-0.075854897 0.089266166 0.19647764
-0.075624995 0.089709215 0.19770287
-0.075353213 0.090084717 0.19862436
-0.075029291 0.090364911 0.19917187
-0.074725792 0.090610877 0.19961712
-0.07448028 0.090868354 0.20016041
-0.07424859 0.091140553 0.20078529
-0.074074283 0.091383688 0.20139189
-0.073776953 0.091624163 0.20188749
-0.073473893 0.091863036 0.20239523
-0.073180467 0.092037536 0.20271525
-0.072976805 0.092191994 0.20307386
-0.072738014 0.09234304 0.20341703
-0.072479457 0.092513032 0.20380048
-0.072318949 0.092648789 0.20416822
-0.07208544 0.092832014 0.20462961
-0.071898781 0.093004331 0.20514867
-0.071629912 0.093152054 0.20547713
-0.07134863 0.093224257 0.20547383
-0.070978835 0.093310341 0.2054297
-0.070611358 0.093398973 0.20541513
-0.070342951 0.09352909 0.20568579
-0.070125878 0.093682125 0.20610721
-0.069795519 0.093957342 0.20694362
-0.069586553 0.094142534 0.20753293
-0.069259502 0.094352506 0.20813136
-0.068965122 0.094463982 0.20830861
-0.068619832 0.09457837 0.20845768
-0.068268619 0.09469223 0.20858058
-0.067912027 0.094803274 0.20871443
-0.067594729 0.094952717 0.2090425
-0.067292094 0.095091105 0.20936938
-0.066923477 0.095226087 0.20960173
-0.066586323 0.095336117 0.20973565
-0.066282362 0.095418617 0.20976789
-0.065872505 0.095553525 0.20995258
-0.065616474 0.095713258 0.21043295
-0.06525214 0.095923662 0.21114939
-0.06488172 0.096130699 0.21188773
-0.064570054 0.09625873 0.21220727
-0.064206459 0.096381545 0.21244746
-0.063876778 0.096486777 0.21261753
-0.06347774 0.096612386 0.2128645
-0.06310714 0.096759543 0.21329395
-0.062779032 0.096885927 0.21371709
-0.062410876 0.097006701 0.21404128
-0.062158044 0.097099937 0.21433048
-0.061816517 0.097208895 0.21460424
-0.06154133 0.097312301 0.21492128
-0.061198648 0.097404674 0.21509342
-0.060893781 0.097501338 0.21534999
-0.060579062 0.097585857 0.21551082
-0.060320538 0.097687557 0.21587335
-0.059953175 0.097795531 0.21615799
-0.059677184 0.097857065 0.21621373
-0.059318915 0.097933576 0.21630746
-0.059077535 0.097985104 0.21634316
-0.058743171 0.098068848 0.21655546
-0.058493316 0.098161407 0.2168916
-0.058230173 0.098262936 0.21727897
-0.057967268 0.098347262 0.21763469
-0.057753418 0.098411955 0.21787395
-0.057472475 0.09848281 0.21810332
-0.057108503 0.098488428 0.21786962
-0.056769602 0.09850432 0.21774819
-0.056410514 0.098493561 0.21738796
-0.056080312 0.098475739 0.21724407
-0.055779506 0.098499544 0.21730649
-0.055534367 0.098537609 0.21744296
-0.055221576 0.098591328 0.21771176
-0.055075571 0.098707251 0.21828359
-0.0548076 0.098765276 0.21864694
-0.054466546 0.098798141 0.21900733
-0.054208219 0.098811395 0.21912678
-0.053813785 0.098780692 0.2189935
-0.053336937 0.098699093 0.21856743
-0.052947778 0.098607384 0.21815978
-0.05239176 0.098448157 0.21767886
-0.051630188 0.09820912 0.21698271
-0.050425727 0.097802944 0.2160147
-0.048662644 0.097214811 0.21457057
-0.046625059 0.096665226 0.21305682
-0.044806022 0.096315682 0.21155182
-0.043581881 0.096142553 0.21082333
-0.042682193 0.096050695 0.21053852
-0.042130712 0.095955051 0.2103828
-0.041693449 0.095890373 0.21019153
-0.04141748 0.095859379 0.21015368
-0.041122098 0.09584406 0.21015321
-0.040886845 0.095850214 0.21018995
-0.040678952 0.09585651 0.21024135
-0.040466983 0.09587153 0.21034427
-0.040271025 0.095869832 0.21044114
-0.040083207 0.095887765 0.21048588
-0.039890196 0.095899992 0.21054302
-0.039702535 0.095913187 0.21069297
-0.039435301 0.095959119 0.2108952
-0.039093122 0.096029773 0.2112402
-0.038686719 0.096088164 0.21158111
-0.038262304 0.096149586 0.21204785
-0.037885778 0.096187212 0.21238056
-0.037546534 0.096208841 0.21263167
-0.037307341 0.096248999 0.21279591
-0.037035044 0.096282937 0.21299709
-0.03677661 0.096307568 0.21328151
-0.036518242 0.096360743 0.21348876
-0.036241949 0.096402705 0.21374194
-0.035874769 0.096474193 0.21403214
-0.035626691 0.096512526 0.21426654
-0.0352741 0.096580021 0.214555
-0.03491544 0.096683219 0.21482114
-0.034475911 0.09678337 0.21519616
-0.034018751 0.096892476 0.21566769
-0.033654626 0.096985728 0.2159961
-0.033302318 0.097073227 0.21632946
-0.032996017 0.097155116 0.21657704
-0.032727093 0.097244605 0.21677111
-0.032463543 0.097328469 0.21696223
-0.032210279 0.097407594 0.21712938
-0.031856447 0.097503677 0.21744815
-0.031518556 0.09758684 0.21775752
-0.031165086 0.097654663 0.21810307
-0.030684114 0.097771145 0.21851555
-0.030237153 0.097893655 0.21890371
-0.02967293 0.098034695 0.21940155
-0.029220192 0.098162353 0.21978164
-0.028862512 0.098256715 0.22007972
-0.028573042 0.098368905 0.2202547
-0.028237166 0.098467514 0.22052172
-0.027862471 0.098568335 0.2208409
-0.027378848 0.09868896 0.2212804
-0.026766563 0.098860897 0.22181505
-0.026239229 0.098970383 0.2223265
-0.025879415 0.09909828 0.22257322
-0.025548933 0.099213749 0.2228049
-0.025162803 0.09934023 0.22310945
-0.024758257 0.099484101 0.22343734
-0.024323378 0.099635363 0.22381337
-0.024015848 0.099742673 0.22408426
-0.023767212 0.099836856 0.22428766
-0.023507059 0.099983275 0.22441736
-0.023260225 0.10011449 0.22454964
-0.023056585 0.10023626 0.2246339
-0.022805749 0.10036957 0.22477078
-0.022493262 0.10049634 0.22499341
-0.022200624 0.10061409 0.22520682
-0.021788469 0.1007022 0.22565284
-0.021390509 0.10083885 0.2260399
-0.021088125 0.10098314 0.22626133
-0.020862279 0.10109831 0.22640041
-0.020600406 0.10123993 0.22656238
-0.020292107 0.10140515 0.22678028
-0.019956142 0.10161259 0.2270226
-0.019698583 0.10177024 0.22718017
-0.01947269 0.10188131 0.22734733
-0.019184403 0.10204422 0.227552
-0.01878907 0.10227377 0.22785899
-0.018154854 0.1026424 0.2284053
-0.017273344 0.10314591 0.22934426
-0.0094729532 0.12132548 0.26322883
-0.0097484961 0.12176292 0.26528224
-0.010062726 0.12197691 0.26664558
-0.010074754 0.12212411 0.26742029
-0.010160181 0.12218148 0.26777059
-0.010140968 0.12219607 0.26780346
-0.010066414 0.12226517 0.26815823
-0.0098831179 0.12241142 0.26898682
-0.0097630071 0.12251414 0.26960438
-0.0096470462 0.12260688 0.27017027
-0.0091947475 0.1225155 0.26923895
-0.0086270394 0.12232649 0.26803568
-0.0081526535 0.12208286 0.26663733
-0.0074007623 0.12176061 0.26503488
-0.0068219197 0.12143423 0.26385224
-0.0063816435 0.12113853 0.26253206
-0.0061871251 0.12106691 0.26210403
-0.0059760376 0.12100094 0.26166648
-0.0058333646 0.12100402 0.26158574
-0.0056831413 0.12100437 0.26148728
-0.005529969 0.1210619 0.26169413
-0.0052544796 0.12119494 0.26197889
-0.0049876818 0.12125465 0.26220274
-0.0047485516 0.12164804 0.26351061
-0.0034257607 0.12279437 0.26629841
0.0011213577 0.12489874 0.27147689
0.0027673542 0.12562974 0.27522641
0.0023814773 0.12625171 0.27849156
0.0016602929 0.12646641 0.28060225
0.0014888499 0.12659295 0.28180072
0.0015973665 0.12660991 0.28231919
0.0018183028 0.12664822 0.28241974
0.0020106891 0.12668294 0.28267607
0.0022406697 0.12673788 0.28263885
0.0025154417 0.12681749 0.28246102
0.0029417686 0.12681508 0.28186691
0.0042149066 0.12634669 0.28003791
0.0070271273 0.12608981 0.2775473
0.0077571585 0.12589698 0.27596268
0.0081528164 0.12563266 0.27489606
0.0083323186 0.125457 0.27432206
0.0084849419 0.12529737 0.27385077
0.008701697 0.12529342 0.27383325
0.0088892477 0.12523375 0.27370799
0.0091310116 0.1252649 0.27377158
0.0093838032 0.12530296 0.27386102
0.009707083 0.12543355 0.27416101
0.010050935 0.12557593 0.27441213
0.010365848 0.12562779 0.27453393
0.010694741 0.12567969 0.27463418
0.010929168 0.12575413 0.27475202
0.011236043 0.12587757 0.27491859
0.011463815 0.12593731 0.27505204
0.01215921 0.12608923 0.27573928
0.013189267 0.12651135 0.27669126
0.0150362 0.1276684 0.2778514
0.015872123 0.12818238 0.27827314
0.023860022 0.11453409 0.25753418
0.024318779 0.11463481 0.25735456
0.024865814 0.11472869 0.25712436
0.025349898 0.11483686 0.25693426
0.025855063 0.11493954 0.25672749
0.026292637 0.11504836 0.2565552
0.026780626 0.11514015 0.25635099
0.027289502 0.11523893 0.25612983
0.027782114 0.11533431 0.25592622
0.028250914 0.11542501 0.25572589
0.028721146 0.11551663 0.25552991
0.029123915 0.11560684 0.2553629
0.029576706 0.11570149 0.25517344
0.029912341 0.11577322 0.25503305
0.030323198 0.11585626 0.25486329
0.030687334 0.11593046 0.25471231
0.031029174 0.11600059 0.25457233
0.03137565 0.11606516 0.25443316
0.031720933 0.11614032 0.25429711
0.032041915 0.11620969 0.25417477
0.032367114 0.11627901 0.25405112
0.032696851 0.11633774 0.25392747
0.033050336 0.116387 0.2537846
0.033329662 0.11642997 0.25367185
0.033588856 0.11647514 0.25356913
0.033970904 0.11653927 0.25341889
0.034310382 0.1165925 0.25329649
0.050892781 0.11471751 0.25643098
0.051311489 0.11452848 0.25665909
0.051527683 0.11436525 0.25678819
0.051738646 0.11419811 0.25692061
0.052010376 0.1140867 0.25715858
0.052043594 0.11400859 0.2571722
0.052064903 0.113956 0.25718212
0.052101117 0.11387756 0.25719675
0.052181009 0.11379563 0.25725308
0.11540848 0.10473239 0.23481433
0.11546312 0.10453855 0.23481724
0.11551812 0.10434376 0.23481998
0.11556044 0.10419681 0.2348239
0.1156171 0.10402807 0.23481761
0.11565054 0.10393147 0.2348198
0.11568697 0.10383498 0.23481967
0.11572128 0.10373936 0.23482728
0.11575179 0.10364307 0.23483866
0.11578132 0.10357205 0.23484281
0.11581308 0.10350057 0.23484612
0.11582219 0.10347663 0.23484872
-0.11198044 0.083102062 0.18396655
-0.11181492 0.083139941 0.18401825
-0.11164747 0.083179265 0.18401094
-0.11155306 0.083199963 0.18412305
-0.11138302 0.083242424 0.18414472
-0.11126661 0.083270818 0.18425092
-0.11119168 0.083289526 0.18438964
-0.11114357 0.083300449 0.18455169
-0.11101181 0.083330631 0.184622
-0.11076773 0.083390556 0.18453798
-0.11051773 0.083446272 0.18440589
-0.11015014 0.083529651 0.18409184
-0.10988062 0.083590016 0.18392883
-0.10971615 0.083626568 0.18399192
-0.1096116 0.083643883 0.18422054
-0.10953548 0.083650813 0.18452804
-0.10942005 0.083666593 0.18471979
-0.10924752 0.083696082 0.18484156
-0.10895921 0.083761796 0.1847868
-0.10877757 0.083798066 0.18482046
-0.10859091 0.083826497 0.18497676
-0.10845384 0.083825253 0.18534026
-0.10831212 0.083816141 0.18565199
-0.10812778 0.083832309 0.18578252
-0.10791764 0.083869442 0.18582435
-0.10758313 0.08394669 0.18572041
-0.1073436 0.083990023 0.18576644
-0.10714693 0.084010221 0.1858893
-0.10694831 0.084009133 0.18610209
-0.10672794 0.084021844 0.18626799
-0.10647639 0.084038839 0.18642049
-0.10614816 0.0840583 0.18664302
-0.10577749 0.084107488 0.18673253
-0.10542749 0.084148385 0.18684106
-0.10509598 0.084178187 0.18697166
-0.10478797 0.08420144 0.18710765
-0.10451137 0.084203392 0.18729514
-0.10415322 0.084234469 0.18740384
-0.10386524 0.084243923 0.18755791
-0.10367601 0.084220268 0.18778031
-0.10344987 0.084206671 0.18797238
-0.10309879 0.08422365 0.1881249
-0.10275392 0.084243499 0.1882582
-0.10242519 0.084279813 0.18830986
-0.10212129 0.084276892 0.1884879
-0.10188293 0.084265396 0.1886525
-0.10163979 0.084254131 0.18882303
-0.1013613 0.084250897 0.18895175
-0.10109038 0.08424627 0.18908589
-0.1007465 0.084266432 0.18916701
-0.10037889 0.084298253 0.18922937
-0.10006763 0.084321365 0.18928733
-0.099710092 0.084350817 0.18932664
-0.099353008 0.084390163 0.18932484
-0.099034585 0.084399037 0.18940994
-0.098743267 0.084414452 0.18946145
-0.098428883 0.084428377 0.18953808
-0.098059103 0.08445511 0.1895761
-0.097726226 0.084477656 0.18960455
-0.097274669 0.08452978 0.18956964
-0.096866846 0.084565222 0.18956614
-0.096454702 0.084594786 0.18957584
-0.096038863 0.084642939 0.18954013
-0.095701374 0.084664389 0.18957144
-0.095300473 0.084711395 0.18954797
-0.094967589 0.084737562 0.18957646
-0.094653934 0.084749989 0.1896438
-0.094334103 0.084783427 0.18964383
-0.093851581 0.084838174 0.18961036
-0.093479127 0.084877379 0.18960133
-0.093123049 0.084912628 0.18960728
-0.092745662 0.084949449 0.18960039
-0.092373773 0.084988378 0.18958314
-0.092036813 0.085021287 0.18957299
-0.091693491 0.085040309 0.18959734
-0.091301993 0.085074246 0.18957828
-0.090960644 0.085097224 0.18957874
-0.090552002 0.085133404 0.1895446
-0.090203866 0.085170701 0.18949258
-0.089853808 0.08520706 0.18947732
-0.089525253 0.085223623 0.18947454
-0.089174643 0.085247189 0.18948485
-0.088876136 0.085261524 0.18949229
-0.08854349 0.085281268 0.18949705
-0.088203512 0.085312851 0.1894618
-0.087822556 0.085358307 0.18942009
-0.087462634 0.085397795 0.18939126
-0.087109149 0.085437968 0.18937518
-0.086733475 0.085477106 0.18933001
-0.086333938 0.085529014 0.18924224
-0.085954852 0.085591279 0.18917826
-0.085581794 0.085650571 0.1891326
-0.085260123 0.085690968 0.18913619
-0.084964707 0.085738316 0.18908146
-0.084652595 0.085781552 0.18911558
-0.084362946 0.085822865 0.18914835
-0.084060945 0.085861534 0.18914494
-0.083657801 0.085924648 0.18908267
-0.083248414 0.085983083 0.18907711
-0.082951814 0.086022034 0.18907522
-0.08263959 0.086068273 0.18906406
-0.082453556 0.086108766 0.18914871
-0.082241148 0.086140387 0.18918745
-0.082014188 0.086180575 0.18925115
-0.081746474 0.086226515 0.18921587
-0.081429958 0.086286366 0.18924414
-0.081239522 0.086312957 0.18928853
-0.080956422 0.086368583 0.18930158
-0.080705397 0.086432904 0.18938887
-0.080504954 0.086476758 0.18945004
-0.080270752 0.086547285 0.18952668
-0.080075674 0.086620785 0.18977405
-0.079794683 0.086730815 0.19004367
-0.07947275 0.086851694 0.19025105
-0.079113238 0.086945027 0.19027314
-0.078834757 0.087016083 0.19033104
-0.078544639 0.08714167 0.19060269
-0.078206562 0.087307677 0.19100972
-0.077792577 0.087536715 0.19159077
-0.077371322 0.087760121 0.19209595
-0.076945156 0.087974921 0.19255795
-0.076503277 0.088194132 0.19301581
-0.075994328 0.088563092 0.19404382
-0.075507745 0.08900319 0.19517229
-0.075172678 0.08941824 0.19621451
-0.074795797 0.089768112 0.19696106
-0.074531674 0.090090305 0.19773121
-0.074259661 0.090389125 0.19842435
-0.074038699 0.090720661 0.1992629
-0.073780358 0.091028228 0.19997276
-0.07352984 0.091306716 0.20060691
-0.073258169 0.091552392 0.20114186
-0.073011033 0.091768682 0.20162599
-0.072685555 0.091955408 0.20193329
-0.072339728 0.092155114 0.20230299
-0.072123945 0.092294812 0.20259772
-0.071920775 0.09246207 0.20301975
-0.071689121 0.092610464 0.20334834
-0.071499921 0.092774093 0.20380798
-0.071233578 0.092903398 0.20404442
-0.070897967 0.093017653 0.204137
-0.070592247 0.093055636 0.20396005
-0.070298299 0.093158513 0.20407532
-0.070033185 0.093297079 0.20437713
-0.069792695 0.093470462 0.2048424
-0.069596864 0.093700655 0.20559596
-0.06933067 0.093875892 0.20607051
-0.069039293 0.09405826 0.20655555
-0.06870912 0.09422119 0.2069107
-0.068361208 0.094290145 0.20684175
-0.068075746 0.094395652 0.20700209
-0.06782072 0.094550371 0.20741457
-0.067498997 0.094728298 0.20786612
-0.067215703 0.094889663 0.20830067
-0.066805579 0.095040493 0.20855892
-0.066526435 0.095128596 0.20863277
-0.066260241 0.095182627 0.20858856
-0.065899432 0.095310077 0.2087595
-0.065510571 0.095510438 0.20925717
-0.065190136 0.095718153 0.2099092
-0.06479644 0.095911756 0.21046862
-0.064434819 0.096053161 0.21078894
-0.064079009 0.096200868 0.21116436
-0.063690767 0.096322499 0.21139912
-0.063354358 0.096458033 0.21176547
-0.062939875 0.096631542 0.2122625
-0.062634043 0.096770748 0.21276771
-0.062316142 0.096911505 0.21325527
-0.062033631 0.097018443 0.21359733
-0.061712705 0.097150363 0.21406716
-0.061439816 0.097265683 0.2144786
-0.061100367 0.097361512 0.21466672
-0.060790736 0.09744779 0.21485156
-0.060466103 0.097554386 0.21516119
-0.06016504 0.097653672 0.21545073
-0.059880544 0.09775915 0.21579121
-0.059581015 0.097836837 0.21596049
-0.059291523 0.097907566 0.2160822
-0.058973826 0.097962163 0.21607974
-0.058637351 0.098046549 0.21626274
-0.058440473 0.098113127 0.21647254
-0.058190372 0.098211199 0.21690756
-0.057907518 0.098305263 0.21724619
-0.05766204 0.098368227 0.21747048
-0.057342842 0.098420195 0.2175491
-0.056989953 0.098445356 0.21746278
-0.056656253 0.098440267 0.2171759
-0.056293145 0.098414727 0.2168965
-0.056003425 0.098400749 0.21666706
-0.055665206 0.098407015 0.21657743
-0.055311479 0.098448604 0.21677358
-0.055096604 0.098544247 0.21722937
-0.054836601 0.098592207 0.21754733
-0.054513853 0.098631799 0.21787286
-0.054207176 0.098656505 0.2179732
-0.053949643 0.0986467 0.21792868
-0.053543665 0.098563313 0.2175606
-0.052987389 0.098431341 0.21712381
-0.052314196 0.098274946 0.21658258
-0.051357083 0.097936317 0.21576157
-0.04991338 0.097481854 0.2146672
-0.04783608 0.096897639 0.21328497
-0.045649409 0.096433915 0.21141718
-0.044483624 0.096247315 0.21074423
-0.043540824 0.096131764 0.2103506
-0.042878699 0.096051358 0.21016073
-0.042422794 0.095969617 0.21004722
-0.041964442 0.095901646 0.20995443
-0.041670173 0.095864914 0.20996982
-0.04140044 0.095840387 0.20995323
-0.041170161 0.095824048 0.20993376
-0.040997803 0.095825948 0.20991579
-0.04071971 0.095844783 0.21006522
-0.040511016 0.095855832 0.21014196
-0.040305585 0.095870182 0.21023357
-0.040191028 0.095872082 0.2102509
-0.04000001 0.095893748 0.21034801
-0.039767999 0.095912293 0.21048856
-0.039502259 0.095965929 0.2107487
-0.039177109 0.096031673 0.21101724
-0.038816366 0.096074469 0.21141841
-0.038381472 0.096146666 0.21175404
-0.037905175 0.096188165 0.21223064
-0.037594903 0.096223019 0.21247806
-0.03737849 0.096249022 0.21268408
-0.037061732 0.09630394 0.21292256
-0.036821 0.096321836 0.21318232
-0.036482025 0.096380785 0.21350694
-0.036167473 0.096430473 0.21379744
-0.035849735 0.09648297 0.2140557
-0.035515025 0.096543022 0.21437775
-0.035181709 0.096613437 0.21462548
-0.034859166 0.096709073 0.21482494
-0.034515761 0.096807018 0.21507491
-0.034115653 0.096904956 0.21544275
-0.033738885 0.09700039 0.21576379
-0.033417922 0.097092353 0.21603197
-0.033160139 0.097155422 0.2162569
-0.032756072 0.097271301 0.21660809
-0.032473113 0.097359136 0.21682653
-0.03223649 0.097437829 0.21698591
-0.03199324 0.097527303 0.21714823
-0.031687755 0.097615197 0.21740259
-0.031344362 0.097712368 0.21768019
-0.030867044 0.097835004 0.21811351
-0.030356249 0.09792468 0.2186453
-0.029753113 0.098079935 0.21919303
-0.029274834 0.098192275 0.21963236
-0.028944224 0.098279417 0.21991521
-0.028565409 0.098405942 0.22017992
-0.028245805 0.098527014 0.22040404
-0.02790015 0.098626934 0.22067209
-0.027402788 0.098768741 0.22110663
-0.026760805 0.098930843 0.22169024
-0.026245605 0.099061027 0.22214527
-0.025847074 0.099184707 0.22245757
-0.02550103 0.099303648 0.22271061
-0.025137261 0.099454813 0.22294176
-0.024749862 0.099588417 0.22327337
-0.02433951 0.099711984 0.22364739
-0.024000343 0.099858016 0.22390111
-0.023736324 0.099950261 0.2241257
-0.023450876 0.10009636 0.22430658
-0.023203384 0.10022666 0.22444211
-0.022919752 0.10037413 0.22460741
-0.022710638 0.10049177 0.22470121
-0.02244257 0.10060667 0.22487523
-0.022126714 0.10072805 0.22512154
-0.021769099 0.10081419 0.22547528
-0.021328716 0.10095056 0.22593214
-0.021049697 0.10106734 0.2261519
-0.020798821 0.10121015 0.22630931
-0.020551378 0.10134923 0.22645178
-0.0202347 0.10151386 0.22668941
-0.01990746 0.10169676 0.22697799
-0.019667229 0.10185099 0.22710794
-0.019468868 0.10198457 0.22719878
-0.019230649 0.10211782 0.22734758
-0.018929334 0.10230999 0.22753483
-0.018490294 0.10256031 0.22790164
-0.017831022 0.10294644 0.22854038
-0.016738573 0.1035913 0.22975501
-0.0092584053 0.12071189 0.26134568
-0.0093354611 0.12146791 0.26379412
-0.0095916605 0.12174343 0.2651529
-0.0098516149 0.1218771 0.26612851
-0.0098014465 0.12196902 0.2664358
-0.0097647179 0.12203144 0.26671943
-0.0095320949 0.12198859 0.26665473
-0.0095023168 0.12199212 0.26672298
-0.0092167882 0.12197389 0.26665485
-0.0089801373 0.12196267 0.26650327
-0.0084828148 0.12181629 0.26573801
-0.0076752063 0.12166549 0.26484433
-0.0070289127 0.12133155 0.26350272
-0.0064756605 0.12110904 0.26246384
-0.0063605201 0.1210238 0.26201656
-0.0062114517 0.12092958 0.26152015
-0.0060271383 0.12086398 0.26116365
-0.0059493114 0.12079541 0.26088846
-0.0058367392 0.12077831 0.2607317
-0.0056693372 0.12079863 0.26074082
-0.0054271133 0.12091048 0.2609868
-0.005281115 0.12096132 0.2611343
-0.0051339758 0.12100759 0.26131672
-0.0048134644 0.12116068 0.26173022
-0.0045172339 0.12130455 0.26219925
-0.0033286875 0.12232721 0.26500329
0.0018915756 0.12478396 0.27113584
0.0036707697 0.12559666 0.27493641
0.0029293434 0.12618048 0.27820435
0.0022146902 0.12643941 0.28003198
0.0022057341 0.12660317 0.28085348
0.0022628428 0.12663014 0.2812708
0.0023709286 0.12670195 0.28157306
0.0026681304 0.12674612 0.28144434
0.0029607657 0.12675266 0.28116232
0.003757206 0.12649952 0.28035301
0.0055303569 0.12616631 0.27878886
0.00735628 0.12600094 0.27662724
0.0078309728 0.12582818 0.27559802
0.0082009472 0.12561144 0.27479431
0.0083239675 0.12539923 0.2740764
0.008449533 0.12526111 0.27371341
0.0086465348 0.12517473 0.27353582
0.0088998983 0.12511304 0.27345502
0.0090764193 0.12510914 0.27347261
0.0093523255 0.12520814 0.27366874
0.0096222861 0.12530525 0.27389586
0.0099562183 0.12545866 0.27419144
0.010300577 0.1255908 0.27445334
0.010648215 0.12565351 0.27458093
0.010885407 0.12575677 0.27471727
0.011215182 0.12588999 0.27490997
0.011399154 0.12594827 0.27501112
0.012008666 0.12611493 0.27560389
0.013365699 0.1266797 0.27683613
0.015561944 0.1279829 0.27805194
0.016163012 0.12844728 0.27857301
0.024954563 0.11477966 0.25709817
0.025394518 0.11487933 0.25692731
0.025878478 0.11498493 0.25673091
0.026334105 0.11507571 0.25653869
0.026821723 0.11517573 0.25634274
0.027358938 0.11527114 0.25610757
0.027872583 0.11537182 0.25588655
0.028412111 0.11547861 0.25565937
0.028859865 0.11556023 0.25547111
0.029287238 0.11565205 0.2552937
0.029648883 0.11571433 0.25514328
0.030008774 0.11578955 0.25499293
0.030371219 0.11586948 0.25484294
0.030759647 0.11594775 0.25468194
0.031100357 0.11602617 0.25454274
0.031470947 0.1160982 0.25439432
0.031771142 0.11615642 0.25427759
0.032094605 0.11622146 0.25415453
0.032420881 0.11629115 0.25403082
0.032728437 0.11634027 0.25391737
0.033027336 0.11639158 0.25379652
0.033282302 0.11643068 0.25369278
0.033566438 0.11648418 0.2535812
0.033962358 0.11655194 0.25342992
0.034263752 0.1166008 0.25331354
0.034568541 0.11664871 0.25320739
0.034848712 0.11668888 0.25311354
0.050389476 0.11511096 0.25619876
0.05083058 0.1149433 0.25640872
0.051221542 0.11476679 0.25662041
0.051395416 0.11467449 0.25671646
0.051626116 0.11454695 0.25686231
0.051877115 0.11438387 0.25705975
0.051972397 0.11422315 0.25713578
0.052019954 0.11411808 0.25715142
0.052031897 0.11409184 0.25715655
0.11530793 0.10509646 0.23479924
0.1153577 0.10492974 0.23479851
0.11541343 0.10473645 0.23480117
0.11547936 0.10449259 0.23480844
0.11552113 0.10434598 0.23480795
0.11554895 0.10424728 0.23481078
0.11558332 0.10415092 0.23480384
0.11563102 0.10400501 0.23480682
0.11565375 0.10393192 0.23481263
0.11569272 0.10383619 0.23481449
0.11572129 0.1037639 0.2348175
0.11575124 0.10369178 0.2348212
0.11576171 0.10366757 0.23482259
-0.11172664 0.083168052 0.18367596
-0.11153104 0.083214946 0.18365213
-0.11133173 0.083260573 0.18367246
-0.11120246 0.083292164 0.18373558
-0.11112045 0.083310336 0.18384574
-0.11102089 0.083334111 0.18390909
-0.11093009 0.083354972 0.18399072
-0.1108913 0.083363563 0.18420361
-0.11075514 0.083394453 0.18425773
-0.11053035 0.083445944 0.18423469
-0.11029512 0.083499365 0.18411936
-0.10999473 0.083566032 0.18388662
-0.10978821 0.08361122 0.1838384
-0.10961976 0.083647668 0.18389155
-0.10950299 0.083669953 0.18405341
-0.10934459 0.083699547 0.18424426
-0.10920605 0.08372429 0.1844316
-0.10902742 0.083760396 0.18448237
-0.10881366 0.083810441 0.18444306
-0.10863134 0.08384908 0.18451811
-0.10845577 0.083888426 0.184582
-0.1082816 0.083911031 0.1848159
-0.10811803 0.083918437 0.18512735
-0.10791936 0.083937444 0.18532437
-0.10771415 0.083964214 0.18543833
-0.1074399 0.084025122 0.18539895
-0.10712327 0.084096111 0.18540831
-0.10686283 0.084133796 0.18550505
-0.10665835 0.084155083 0.18563174
-0.10644361 0.084153175 0.18584865
-0.10622897 0.084163211 0.18600304
-0.10596418 0.084162958 0.18626207
-0.10563024 0.084199876 0.18641794
-0.10527725 0.084239401 0.18653847
-0.10488869 0.084297627 0.18660146
-0.10455349 0.084336877 0.18669429
-0.10420868 0.084384099 0.18676409
-0.10387222 0.08440654 0.18691707
-0.1035994 0.084402107 0.18711576
-0.10335328 0.084379248 0.1873489
-0.10312788 0.084356397 0.18758072
-0.10284699 0.08435981 0.18774205
-0.10252017 0.084383547 0.18785688
-0.10219158 0.084404506 0.18797785
-0.10187098 0.084408946 0.18814486
-0.10161497 0.084393822 0.18833594
-0.10135075 0.084382214 0.18850389
-0.10111704 0.084364571 0.18867934
-0.10082988 0.084368154 0.18879847
-0.10052084 0.084382646 0.1888928
-0.1001808 0.084401339 0.18897487
-0.099823534 0.084429406 0.18901888
-0.09948501 0.084455378 0.1890623
-0.099176601 0.084461696 0.18915696
-0.098857678 0.084481314 0.18921101
-0.098561645 0.084495127 0.18927735
-0.098237842 0.084511951 0.18933944
-0.097869135 0.084537849 0.189372
-0.097470455 0.084574141 0.18937384
-0.097072423 0.084602468 0.18938862
-0.096664287 0.084645204 0.18936639
-0.096302763 0.084669083 0.18939079
-0.095945276 0.084693924 0.18940865
-0.095563948 0.084720157 0.18943268
-0.095179722 0.084755704 0.18942869
-0.09477926 0.084804639 0.18940328
-0.094412573 0.084832869 0.18943554
-0.094058804 0.08486072 0.18946235
-0.093725838 0.084889114 0.18947396
-0.093405694 0.084908009 0.1895206
-0.093001224 0.084950954 0.18951795
-0.092686877 0.084976956 0.18953392
-0.09226729 0.085017279 0.18952374
-0.09189228 0.085044973 0.18953553
-0.091539703 0.085081734 0.18950561
-0.091103002 0.085114524 0.18947978
-0.090731137 0.08515007 0.18943325
-0.090389185 0.085180581 0.18941945
-0.090018936 0.085217841 0.18939728
-0.089707382 0.085238785 0.18940023
-0.089359224 0.085259147 0.18939529
-0.089002945 0.085270293 0.18941282
-0.088658296 0.08529947 0.18937784
-0.088241421 0.085334934 0.18932931
-0.087864213 0.085379034 0.18929875
-0.087518826 0.085408233 0.18928669
-0.087235317 0.085435495 0.18927789
-0.08691249 0.085481994 0.1892594
-0.086543448 0.085522197 0.18921767
-0.086114921 0.085587911 0.18914211
-0.085750051 0.08563333 0.18908298
-0.085377969 0.085694686 0.18901707
-0.085067548 0.085735723 0.18901135
-0.084719039 0.085781656 0.18898804
-0.084462114 0.085822485 0.18899587
-0.084023945 0.085880302 0.18897887
-0.083719023 0.085928157 0.18898213
-0.083335154 0.085977338 0.18895143
-0.083053708 0.08601366 0.18894881
-0.082789637 0.086049095 0.18894041
-0.082466878 0.086108938 0.18894996
-0.082289673 0.086122334 0.18896908
-0.082073562 0.086182773 0.18909237
-0.081818067 0.086228117 0.18912378
-0.081586778 0.086256795 0.18910629
-0.081269428 0.086317979 0.18909341
-0.080964893 0.086364821 0.18906936
-0.080706649 0.086412422 0.18911085
-0.080468461 0.086459443 0.18915631
-0.080261685 0.086510584 0.18924418
-0.080123901 0.086564675 0.18939342
-0.079913199 0.086648248 0.18961985
-0.079631165 0.086764514 0.18988959
-0.079367265 0.086840786 0.18999901
-0.079062067 0.086918019 0.190043
-0.078781858 0.08696638 0.18996157
-0.078469738 0.087080054 0.19012789
-0.078211509 0.087192215 0.19042392
-0.077895105 0.087364115 0.19084968
-0.077599458 0.087521978 0.19118971
-0.077186748 0.08767695 0.19145395
-0.076867707 0.087833397 0.1917364
-0.076461643 0.088040121 0.19220957
-0.075921409 0.088375926 0.19301951
-0.075401761 0.088785313 0.19416732
-0.074937172 0.089194618 0.19514848
-0.074604332 0.08950714 0.19585301
-0.074259147 0.089859836 0.19666596
-0.073906027 0.090215899 0.19743925
-0.073628612 0.090573214 0.19834442
-0.073303632 0.090971544 0.1993227
-0.073046617 0.091324568 0.20018445
-0.07278493 0.091550238 0.20066786
-0.072545417 0.0917463 0.20109147
-0.072301559 0.091925614 0.20146067
-0.071975179 0.092072956 0.20166872
-0.071650155 0.092224933 0.20188268
-0.07144393 0.092367902 0.20220552
-0.071187973 0.092510141 0.20246115
-0.070899241 0.092659138 0.20272641
-0.070637941 0.092776619 0.20290583
-0.070357241 0.092857525 0.20293844
-0.070115745 0.092953429 0.203077
-0.069827572 0.093089387 0.2033128
-0.069564536 0.093233086 0.20361613
