# .PCD v0.7 - Point Cloud Data file format
VERSION 0.7
FIELDS x y z
SIZE 4 4 4
TYPE F F F
COUNT 1 1 1
WIDTH 1350
HEIGHT 1
VIEWPOINT 0 0 0 1 0 0 0
POINTS 1350
DATA ascii
0.022575244 0.0059854481 0.28659573
0.023151394 0.0059832269 0.28648937
0.023735922 0.0059832269 0.28648937
0.02432948 0.0059854481 0.28659573
0.025006706 0.0060076667 0.28765959
0.025754526 0.0060454365 0.28946808
0.026480684 0.0060765413 0.29095745
0.027104026 0.0060832067 0.2912766
0.027587041 0.006058767 0.29010639
0.027992951 0.0060187755 0.2881915
0.028454345 0.0059921136 0.28691489
0.028942836 0.0059721181 0.28595746
0.029460371 0.0059587872 0.28531915
0.030008906 0.0059521222 0.285
0.030613231 0.0059565655 0.28521276
0.031276606 0.0059721181 0.28595746
-0.15249364 0.0055922247 0.24393617
-0.1521948 0.0055995411 0.24425532
-0.15189464 0.0056068581 0.24457447
-0.15165906 0.0056166132 0.245
-0.15135607 0.0056239292 0.24531914
-0.1510518 0.0056312461 0.2456383
-0.15081143 0.0056410013 0.24606383
-0.1506343 0.0056531951 0.24659574
-0.15058455 0.0056702672 0.24734043
-0.15053175 0.0056873392 0.24808511
-0.15028292 0.0056970944 0.24851064
-0.14984 0.005699533 0.24861702
-0.14920494 0.0056946552 0.24840425
-0.14869811 0.0056946552 0.24840425
-0.14857209 0.0057092886 0.24904256
-0.14856994 0.0057287989 0.24989362
-0.14856432 0.0057483092 0.25074467
-0.14817837 0.0057531875 0.25095746
-0.14741595 0.0057434319 0.25053191
-0.14653051 0.0057287989 0.24989362
-0.14595848 0.0057263603 0.24978724
-0.1458205 0.0057409927 0.25042552
-0.14586513 0.0057629426 0.25138298
-0.14584431 0.0057824529 0.25223404
-0.14569744 0.0057970863 0.25287235
-0.14512043 0.0057946471 0.25276595
-0.14460471 0.0057946471 0.25276595
-0.14414963 0.0057970863 0.25287235
-0.060543109 0.0043776901 0.19095744
-0.060287543 0.0043874453 0.19138297
-0.060130127 0.0044045174 0.19212766
-0.059969671 0.004421589 0.19287235
-0.059773311 0.0044362219 0.19351064
-0.059509065 0.004445977 0.19393617
-0.059178229 0.0044508548 0.19414894
-0.058814313 0.004453294 0.19425532
-0.058449961 0.0044557326 0.1943617
-0.058053404 0.0044557326 0.1943617
-0.057719965 0.0044606104 0.19457448
-0.057354312 0.0044630491 0.19468085
-0.056988224 0.0044654878 0.19478723
-0.056652609 0.0044703651 0.19499999
-0.056346819 0.0044776821 0.19531915
-0.019452225 0.0055483258 0.24202128
-0.018966759 0.0055507645 0.24212766
-0.018488977 0.0055556428 0.24234043
-0.018002426 0.0055580814 0.24244681
-0.017523123 0.0055629588 0.24265957
-0.017072812 0.0055775917 0.24329787
-0.016677883 0.0056117354 0.24478723
-0.016297966 0.0056531951 0.24659574
0.021540834 0.0066116536 0.28840426
0.022137431 0.0066140927 0.28851065
0.022734461 0.0066165309 0.28861701
0.023314735 0.0066140927 0.28851065
0.023876945 0.0066067758 0.2881915
0.024446882 0.006601898 0.28797871
0.028878231 0.0065409276 0.28531915
0.029306587 0.0065067839 0.28382978
0.029796075 0.0064872731 0.28297871
0.030384861 0.0064897123 0.28308511
0.031067165 0.0065116622 0.28404257
-0.15292463 0.0060872748 0.24382979
-0.15249364 0.0060899309 0.24393617
-0.1521285 0.0060952427 0.24414894
-0.15182857 0.0061032102 0.24446808
-0.15152735 0.0061111776 0.24478723
-0.15122481 0.0061191455 0.24510638
-0.15092097 0.0061271135 0.24542554
-0.15074624 0.0061403927 0.24595745
-0.1506343 0.0061563277 0.24659574
-0.15058455 0.0061749187 0.24734043
-0.15040265 0.0061881985 0.24787234
-0.15015425 0.0061988216 0.24829787
-0.14971176 0.0062014777 0.24840425
-0.14920494 0.0062014777 0.24840425
-0.14869811 0.0062014777 0.24840425
-0.14844516 0.0062121013 0.24882978
-0.14838021 0.0062306924 0.24957447
-0.14831221 0.0062492834 0.25031915
-0.14792711 0.0062545952 0.25053191
-0.14729075 0.0062492834 0.25031915
-0.14653051 0.0062386603 0.24989362
-0.1460828 0.006241316 0.25
-0.1459444 0.0062572514 0.25063831
-0.14598857 0.0062811538 0.25159574
-0.14596733 0.006302401 0.2524468
-0.14569744 0.006313025 0.25287235
-0.14512043 0.0063103689 0.25276595
-0.14454386 0.0063077132 0.25265959
-0.14414963 0.006313025 0.25287235
-0.14387539 0.0063236482 0.25329787
-0.14371985 0.0063395835 0.25393617
-0.060644299 0.0047752708 0.19127659
-0.060388081 0.004785894 0.19170213
-0.060196713 0.0048018293 0.19234042
-0.060002748 0.0048177647 0.19297872
-0.059773311 0.004831044 0.19351064
-0.059509065 0.0048416676 0.19393617
-0.059210654 0.0048496355 0.19425532
-0.058878731 0.0048549469 0.19446808
-0.058481954 0.0048549469 0.19446808
-0.058085177 0.0048549469 0.19446808
-0.057719965 0.004857603 0.19457448
-0.057354312 0.0048602587 0.19468085
-0.056957103 0.0048602587 0.19468085
-0.056528986 0.004857603 0.19457448
-0.056131992 0.004857603 0.19457448
-0.019477878 0.0060500926 0.24234043
-0.018991759 0.0060527488 0.24244681
-0.018505208 0.0060554044 0.24255319
-0.018026123 0.0060607162 0.24276596
-0.017553851 0.0060686837 0.2430851
-0.017110137 0.0060872748 0.24382979
-0.016692378 0.0061164899 0.245
-0.016417494 0.0062014777 0.24840425
0.021675911 0.0072452384 0.29021278
0.022251708 0.0072399261 0.28999999
0.0228434 0.0072399261 0.28999999
0.023417898 0.0072346148 0.28978723
0.023973899 0.0072239917 0.28936172
0.030247839 0.007035424 0.28180853
-0.15279119 0.0065790182 0.24361703
-0.15236063 0.0065818909 0.24372341
-0.15199593 0.0065876367 0.24393617
-0.15169644 0.0065962556 0.24425532
-0.15139563 0.0066048745 0.24457447
-0.15109353 0.006613493 0.24489361
-0.15085556 0.006624985 0.24531914
-0.15074624 0.0066422224 0.24595745
-0.1506343 0.0066594603 0.24659574
-0.15051979 0.0066766981 0.24723405
-0.15027356 0.0066881897 0.24765958
-0.14996125 0.0066968082 0.24797872
-0.14958353 0.0067025544 0.24819149
-0.14907715 0.0067025544 0.24819149
-0.14863443 0.0067054271 0.24829787
-0.1483817 0.0067169187 0.2487234
-0.14819045 0.0067312834 0.24925531
-0.14799705 0.0067456486 0.24978724
-0.14767586 0.0067542675 0.25010639
-0.14722815 0.0067571397 0.25021276
-0.14671764 0.0067571397 0.25021276
-0.14633144 0.0067628855 0.25042552
-0.14613025 0.0067772507 0.25095746
-0.1460503 0.0067973612 0.25170213
-0.14590584 0.006814599 0.25234044
-0.14563616 0.0068260902 0.25276595
-0.14505936 0.006823218 0.25265959
-0.14454386 0.006823218 0.25265959
-0.14408898 0.0068260902 0.25276595
-0.14393583 0.006843328 0.25340426
-0.14384027 0.0068634385 0.25414893
-0.14380166 0.0068864217 0.255
-0.14369982 0.0069065327 0.2557447
-0.14353536 0.0069237701 0.25638297
-0.060745485 0.0051741535 0.19159575
-0.060455102 0.0051827719 0.19191489
-0.060230013 0.0051971371 0.19244681
-0.060002748 0.0052115018 0.19297872
-0.059740454 0.0052229934 0.19340426
-0.059476424 0.005234485 0.19382979
-0.059178229 0.005243104 0.19414894
-0.058814313 0.0052459771 0.19425532
-0.058417972 0.0052459771 0.19425532
-0.058053404 0.0052488497 0.1943617
-0.057719965 0.005254596 0.19457448
-0.057354312 0.0052574687 0.19468085
-0.056988224 0.0052603413 0.19478723
-0.056559891 0.0052574687 0.19468085
-0.056162681 0.0052574687 0.19468085
-0.019486427 0.0065474156 0.24244681
-0.019008426 0.0065531614 0.24265957
-0.018537674 0.0065617803 0.24297872
-0.01806562 0.0065703993 0.24329787
-0.017599944 0.0065818909 0.24372341
-0.017147463 0.0065991282 0.2443617
-0.016714122 0.006624985 0.24531914
0.021779206 0.0078747114 0.29159576
0.022349663 0.007866093 0.2912766
0.022935579 0.0078632189 0.29117021
0.023512462 0.0078574736 0.29095745
-0.15279119 0.007076073 0.24361703
-0.15229413 0.007076073 0.24361703
-0.15186337 0.0070791631 0.24372341
-0.15149823 0.0070853429 0.24393617
-0.15119807 0.0070946128 0.24425532
-0.15089664 0.0071038827 0.24457447
-0.15079013 0.0071224226 0.24521276
-0.15068103 0.0071409629 0.24585107
-0.15056933 0.0071595027 0.24648936
-0.15039025 0.0071749524 0.24702127
-0.15014444 0.0071873125 0.24744681
-0.14976825 0.0071934927 0.24765958
-0.14939117 0.0071996725 0.24787234
-0.14901325 0.0072058523 0.24808511
-0.14863443 0.0072120321 0.24829787
-0.14831823 0.0072213025 0.24861702
-0.14800072 0.0072305724 0.24893618
-0.14780796 0.0072460221 0.24946809
-0.14748742 0.0072552925 0.24978724
-0.14716557 0.0072645624 0.25010639
-0.14684239 0.0072738319 0.25042552
-0.14658011 0.0072861919 0.25085106
-0.14631607 0.0072985515 0.25127658
-0.1460503 0.007310912 0.25170213
-0.14590584 0.0073294523 0.25234044
-0.14557487 0.0073387222 0.25265959
-0.14505936 0.0073387222 0.25265959
-0.14454386 0.0073387222 0.25265959
-0.14414963 0.007344902 0.25287235
-0.14399624 0.0073634414 0.25351062
-0.14390048 0.0073850718 0.25425532
-0.14380166 0.0074067013 0.255
-0.14364004 0.0074252416 0.2556383
-0.14347582 0.0074437819 0.25627661
-0.14313093 0.0074530509 0.25659573
-0.14290303 0.0074685016 0.25712767
-0.14255512 0.007477771 0.2574468
-0.0608804 0.0055774287 0.19202128
-0.060555637 0.0055836085 0.19223404
-0.060263306 0.0055928784 0.19255319
-0.060002748 0.0056052385 0.19297872
-0.059707593 0.0056145084 0.19329788
-0.059411135 0.0056237783 0.19361702
-0.059113376 0.0056330482 0.19393617
-0.058749892 0.0056361384 0.19404255
-0.058353987 0.0056361384 0.19404255
-0.057958078 0.0056361384 0.19404255
-0.057656847 0.0056454083 0.1943617
-0.057385653 0.0056577683 0.19478723
-0.05705047 0.0056639481 0.19499999
-0.056683522 0.0056670383 0.19510639
-0.056285441 0.0056670383 0.19510639
-0.019469326 0.0070359027 0.24223404
-0.019008426 0.0070482627 0.24265957
-0.018553907 0.0070637129 0.2431915
-0.018089319 0.007076073 0.24361703
-0.017630674 0.0070915231 0.24414894
-0.017169859 0.0071069729 0.24468085
-0.016721372 0.0071286028 0.24542554
0.021269273 0.0085036466 0.29276595
0.021858662 0.0085005574 0.29265958
0.022439454 0.0084943781 0.29244682
0.023019375 0.0084881969 0.29223403
0.023607029 0.0084851077 0.29212767
-0.15279119 0.0075731277 0.24361703
-0.15229413 0.0075731277 0.24361703
-0.15186337 0.0075764349 0.24372341
-0.15143216 0.007579742 0.24382979
-0.15106638 0.0075863563 0.24404256
-0.15083098 0.0075995838 0.24446808
-0.15065929 0.0076161195 0.245
-0.15055063 0.0076359613 0.2456383
-0.15037437 0.0076524965 0.24617021
-0.15013118 0.007665725 0.24659574
-0.14988625 0.007678953 0.24702127
-0.14957525 0.0076888744 0.24734043
-0.14926295 0.0076987953 0.24765958
-0.14894934 0.0077087162 0.24797872
-0.14857075 0.0077153305 0.24819149
-0.14825477 0.0077252518 0.24851064
-0.14793746 0.0077351728 0.24882978
-0.14768189 0.0077484008 0.24925531
-0.14742459 0.0077616288 0.24968085
-0.14716557 0.0077748578 0.25010639
-0.14696717 0.007791393 0.25063831
-0.14664228 0.0078013139 0.25095746
-0.14631607 0.0078112343 0.25127658
-0.1460503 0.0078244628 0.25170213
-0.1457828 0.0078376904 0.25212765
-0.14551356 0.0078509199 0.25255319
-0.14505936 0.007854227 0.25265959
-0.14460471 0.0078575332 0.25276595
-0.14427091 0.0078674546 0.25308511
-0.14405668 0.0078839893 0.25361702
-0.14390048 0.007903832 0.25425532
-0.14374168 0.0079236748 0.25489363
-0.14352049 0.0079402095 0.25542554
-0.14329714 0.0079567451 0.25595745
-0.14301226 0.0079699727 0.25638297
-0.14278477 0.0079865074 0.25691488
-0.14249623 0.0079997368 0.25734043
-0.14208855 0.0080063501 0.25755319
-0.14168 0.0080129644 0.25776595
-0.14127059 0.0080195786 0.25797874
-0.14086032 0.0080261929 0.2581915
-0.140507 0.0080361143 0.25851065
-0.14015235 0.0080460347 0.25882977
-0.13979642 0.0080559552 0.25914893
-0.13949637 0.0080691846 0.25957447
-0.13913761 0.008079106 0.25989363
-0.13872083 0.0080857193 0.26010638
-0.13847272 0.0081022549 0.2606383
-0.13816616 0.0081154834 0.26106384
-0.13780175 0.0081254039 0.26138297
-0.1373802 0.0081320181 0.26159576
-0.060981583 0.0059791328 0.19234042
-0.060622666 0.0059824404 0.19244681
-0.060296599 0.0059890542 0.19265957
-0.060002748 0.0059989756 0.19297872
-0.059707593 0.0060088965 0.19329788
-0.05937849 0.0060155108 0.19351064
-0.059048522 0.006022125 0.19372341
-0.058653269 0.006022125 0.19372341
-0.058258012 0.006022125 0.19372341
-0.057894528 0.0060254317 0.19382979
-0.05762529 0.0060386602 0.19425532
-0.057385653 0.0060551954 0.19478723
-0.057143845 0.0060717301 0.19531915
-0.056838054 0.0060816514 0.1956383
-0.056469582 0.0060849586 0.19574468
-0.019435124 0.007516908 0.2418085
-0.018983427 0.0075334432 0.24234043
-0.01854579 0.0075565926 0.2430851
-0.018097216 0.0075764349 0.24372341
-0.017630674 0.0075896629 0.24414894
-0.017169859 0.0076061981 0.24468085
-0.016706875 0.0076227332 0.24521276
0.021354288 0.0091373585 0.29393616
0.021954009 0.0091373585 0.29393616
0.022529243 0.0091274371 0.29361701
0.023094796 0.0091142096 0.29319149
-0.1528579 0.0080737071 0.24372341
-0.15236063 0.0080737071 0.24372341
-0.15186337 0.0080737071 0.24372341
-0.15136608 0.0080737071 0.24372341
-0.15100051 0.0080807544 0.24393617
-0.15076536 0.0080948509 0.2443617
-0.15059388 0.0081124716 0.24489361
-0.15042023 0.0081300922 0.24542554
-0.1502444 0.0081477128 0.24595745
-0.14993688 0.0081582852 0.2462766
-0.1496926 0.0081723817 0.24670213
-0.14938225 0.0081829531 0.24702127
-0.14913471 0.0081970496 0.24744681
-0.14882155 0.008207622 0.24776596
-0.14844339 0.0082146702 0.24797872
-0.14812782 0.0082252426 0.24829787
-0.14787422 0.0082393391 0.2487234
-0.14761886 0.0082534356 0.24914894
-0.14742459 0.0082710562 0.24968085
-0.14722815 0.0082886759 0.25021276
-0.14702953 0.0083062965 0.25074467
-0.14664228 0.0083133457 0.25095746
-0.14631607 0.0083239172 0.25127658
-0.14598857 0.0083344895 0.25159574
-0.1457213 0.008348586 0.25202128
-0.14545226 0.0083626825 0.2524468
-0.14512043 0.0083732549 0.25276595
-0.14472643 0.0083803032 0.25297871
-0.14433157 0.0083873514 0.2531915
-0.14411712 0.008404972 0.25372341
-0.14390048 0.0084225927 0.25425532
-0.14362168 0.0084366882 0.25468084
-0.14334117 0.0084507857 0.25510639
-0.1430589 0.0084648812 0.25553191
-0.14277489 0.0084789777 0.25595745
-0.14254828 0.0084965983 0.25648937
-0.14226058 0.0085106948 0.25691488
-0.14197117 0.0085247913 0.25734043
-0.14162153 0.0085353637 0.25765958
-0.14121234 0.008542412 0.25787234
-0.14080226 0.0085494593 0.2580851
-0.14044917 0.0085600317 0.25840425
-0.14009476 0.008570605 0.25872341
-0.13973904 0.0085811773 0.25904256
-0.1394392 0.0085952729 0.25946808
-0.13902369 0.0086023211 0.25968084
-0.13866408 0.0086128935 0.25999999
-0.13830316 0.0086234659 0.26031914
-0.13799724 0.0086375624 0.26074469
-0.13774566 0.008655183 0.2612766
-0.13743605 0.0086692786 0.26170212
-0.13718034 0.0086868992 0.26223403
-0.13703336 0.008711569 0.26297873
-0.13688332 0.008736237 0.2637234
-0.13651024 0.0087468093 0.26404256
-0.13613586 0.0087573817 0.26436171
-0.13581474 0.0087714773 0.26478723
-0.13560058 0.0087926229 0.26542553
-0.13538383 0.0088137677 0.26606384
-0.13521838 0.0088384356 0.26680851
-0.13515729 0.0088701528 0.26776597
-0.13519923 0.0089089172 0.26893616
-0.13518317 0.0089441594 0.27000001
-0.13150796 0.0090322606 0.27265957
-0.13120711 0.0090498812 0.27319148
-0.13054797 0.009042833 0.27297872
-0.061015315 0.0063750921 0.19244681
-0.060656175 0.0063786157 0.19255319
-0.060329892 0.006385664 0.19276595
-0.060035825 0.0063962364 0.1930851
-0.059707593 0.0064032846 0.19329788
-0.05937849 0.0064103329 0.19351064
-0.059016094 0.0064138565 0.19361702
-0.058588848 0.0064103329 0.19351064
-0.058194023 0.0064103329 0.19351064
-0.057830974 0.0064138565 0.19361702
-0.057593733 0.0064314776 0.19414894
-0.057385653 0.0064526219 0.19478723
-0.057206094 0.0064772908 0.19553192
-0.056961682 0.0064949114 0.19606383
-0.05662303 0.0065019592 0.19627659
-0.019884652 0.0079926522 0.24127659
-0.019418024 0.0080032246 0.24159575
-0.018966759 0.0080208452 0.24212766
-0.018521441 0.00804199 0.24276596
-0.018073518 0.0080631347 0.24340425
-0.017607627 0.0080772303 0.24382979
-0.017139999 0.0080913268 0.24425532
-0.016670633 0.0081054233 0.24468085
-0.016396401 0.0082181953 0.24808511
0.021431575 0.0097723212 0.29499999
0.022017576 0.009765273 0.29478723
0.022594545 0.0097547006 0.29446808
0.023170212 0.0097441282 0.29414892
-0.15299134 0.0085784607 0.24393617
-0.15249364 0.0085784607 0.24393617
-0.15199593 0.0085784607 0.24393617
-0.15149823 0.0085784607 0.24393617
-0.15106638 0.0085822027 0.24404256
-0.15076536 0.0085934252 0.2443617
-0.15052846 0.0086083896 0.24478723
-0.15035503 0.0086270953 0.24531914
-0.15011443 0.0086420607 0.24574468
-0.14980733 0.0086532841 0.24606383
-0.14949895 0.0086645074 0.24638298
-0.14918925 0.0086757308 0.24670213
-0.14894237 0.0086906953 0.24712765
-0.14862984 0.0087019186 0.24744681
-0.14831603 0.008713142 0.24776596
-0.1480009 0.0087243663 0.24808511
-0.14781097 0.0087430719 0.24861702
-0.14755584 0.0087580364 0.24904256
-0.14742459 0.0087804832 0.24968085
-0.14722815 0.0087991888 0.25021276
-0.14696717 0.0088141542 0.25063831
-0.14658011 0.0088216355 0.25085106
-0.14619218 0.0088291178 0.25106382
-0.14586513 0.0088403411 0.25138298
-0.14565977 0.0088590467 0.25191489
-0.14545226 0.0088777523 0.2524468
-0.14512043 0.0088889766 0.25276595
-0.14472643 0.008896458 0.25297871
-0.14439221 0.0089076823 0.25329787
-0.14405668 0.0089189056 0.25361702
-0.14378007 0.0089338711 0.25404257
-0.1435017 0.0089488346 0.25446808
-0.14316183 0.0089600589 0.25478724
-0.14288022 0.0089750225 0.25521275
-0.14253752 0.0089862458 0.25553191
-0.14231178 0.0090049515 0.25606382
-0.14202496 0.0090199169 0.25648937
-0.1417951 0.0090386225 0.25702128
-0.14144611 0.0090498459 0.25734043
-0.14103757 0.0090573281 0.25755319
-0.14062816 0.0090648104 0.25776595
-0.1402757 0.0090760337 0.2580851
-0.13997956 0.0090909991 0.25851065
-0.13962425 0.0091022216 0.25882977
-0.13932486 0.009117187 0.25925532
-0.1389098 0.0091246692 0.25946808
-0.13849387 0.0091321506 0.25968084
-0.1381336 0.0091433749 0.25999999
-0.13788463 0.0091620805 0.2605319
-0.1376335 0.009180787 0.26106384
-0.13743605 0.0092032328 0.26170212
-0.13729167 0.0092294216 0.26244682
-0.13708879 0.0092518674 0.2630851
-0.13682809 0.009270574 0.26361701
-0.13645524 0.0092817973 0.26393616
-0.13608107 0.0092930207 0.26425532
-0.13576019 0.0093079861 0.26468086
-0.13554624 0.0093304319 0.26531914
-0.13532969 0.0093528796 0.26595744
-0.13511056 0.0093753263 0.26659575
-0.13499619 0.0094052553 0.26744682
-0.13493183 0.0094389254 0.26840425
-0.13486359 0.0094725965 0.2693617
-0.13452618 0.00948756 0.26978722
-0.13392292 0.0094838198 0.26968086
-0.133057 0.0094613731 0.26904255
-0.13224609 0.0094426665 0.26851064
-0.1315939 0.0094351852 0.26829788
-0.13130629 0.0094538908 0.26882979
-0.13137873 0.0094987843 0.27010638
-0.13149747 0.0095474189 0.27148935
-0.13135403 0.0095773479 0.27234042
-0.13105384 0.0095960535 0.27287233
-0.13049708 0.0095960535 0.27287233
-0.12999101 0.0095997956 0.27297872
-0.12968625 0.0096185012 0.27351063
-0.12963046 0.0096559124 0.27457446
-0.0608804 0.0067527788 0.19202128
-0.06058915 0.0067640021 0.19234042
-0.060329892 0.0067789666 0.19276595
-0.060035825 0.0067901905 0.1930851
-0.059707593 0.0067976727 0.19329788
-0.059345849 0.0068014138 0.19340426
-0.058983669 0.006805155 0.19351064
-0.058588848 0.006805155 0.19351064
-0.058162034 0.0068014138 0.19340426
-0.057830974 0.0068088961 0.19361702
-0.057562169 0.0068238606 0.19404255
-0.05741699 0.00685379 0.19489361
-0.057299465 0.0068874601 0.19585106
-0.057085313 0.0069099073 0.19648936
-0.056776483 0.0069211307 0.19680852
-0.019902186 0.0084924148 0.24148937
-0.019418024 0.008496156 0.24159575
-0.018958427 0.0085111205 0.24202128
-0.018505208 0.0085298261 0.24255319
-0.018041922 0.0085447906 0.24297872
-0.017569216 0.0085560139 0.24329787
-0.017095208 0.0085672373 0.24361703
-0.016619897 0.0085784607 0.24393617
-0.016129222 0.0085822027 0.24404256
0.021470219 0.01039292 0.29553193
0.02206525 0.010389178 0.29542553
0.022643521 0.010377955 0.29510638
0.023228873 0.010370472 0.29489362
-0.15312479 0.0090840831 0.24414894
-0.15262665 0.0090840831 0.24414894
-0.1521285 0.0090840831 0.24414894
-0.15163037 0.0090840831 0.24414894
-0.15119807 0.0090880413 0.24425532
-0.15083098 0.0090959575 0.24446808
-0.15059388 0.0091117909 0.24489361
-0.15028982 0.0091236653 0.24521276
-0.15004945 0.0091394978 0.2456383
-0.14974257 0.0091513731 0.24595745
-0.1494344 0.0091632474 0.2462766
-0.14906058 0.0091711637 0.24648936
-0.14875002 0.009183039 0.24680851
-0.14843814 0.0091949124 0.24712765
-0.14818865 0.0092107458 0.24755318
-0.14793743 0.0092265783 0.24797872
-0.14774773 0.0092463698 0.24851064
-0.14755584 0.0092661614 0.24904256
-0.14736179 0.009285952 0.24957447
-0.14716557 0.0093057435 0.25010639
-0.14690478 0.009321576 0.25053191
-0.14645578 0.0093255341 0.25063831
-0.14606829 0.0093334503 0.25085106
-0.14580339 0.0093492828 0.25127658
-0.14565977 0.0093730325 0.25191489
-0.14551356 0.0093967821 0.25255319
-0.14518151 0.0094086565 0.25287235
-0.14472643 0.0094126137 0.25297871
-0.14433157 0.0094205309 0.2531915
-0.14399624 0.0094324052 0.25351062
-0.14365964 0.0094442796 0.25382978
-0.14338171 0.009460113 0.25425532
-0.14304228 0.0094719883 0.25457448
-0.14270155 0.0094838627 0.25489363
-0.14230017 0.0094917789 0.25510639
-0.14201616 0.0095076114 0.25553191
-0.14178933 0.009527402 0.25606382
-0.14156033 0.0095471926 0.25659573
-0.14121221 0.0095590679 0.25691488
-0.14086279 0.0095709423 0.25723404
-0.14045404 0.0095788585 0.2574468
-0.14010222 0.0095907338 0.25776595
-0.13980673 0.0096065672 0.2581915
-0.13950948 0.0096223988 0.25861701
-0.13921052 0.0096382322 0.25904256
-0.1387959 0.0096461484 0.25925532
-0.13843714 0.0096580237 0.25957447
-0.1380771 0.0096698981 0.25989363
-0.13782834 0.0096896887 0.26042554
-0.13757741 0.0097094802 0.26095745
-0.13743605 0.0097371871 0.26170212
-0.13723601 0.0097609367 0.26234043
-0.13697793 0.0097807273 0.26287234
-0.13671766 0.0098005189 0.26340425
-0.13634524 0.0098123932 0.2637234
-0.13597152 0.0098242676 0.26404256
-0.13565104 0.0098401001 0.26446807
-0.13538319 0.0098598916 0.26499999
-0.13522144 0.0098875994 0.26574469
-0.1349488 0.00990739 0.2662766
-0.1347277 0.0099311396 0.2669149
-0.13450399 0.0099548884 0.26755318
-0.13433096 0.0099825962 0.26829788
-0.13410181 0.010006345 0.26893616
-0.13365877 0.010014262 0.26914895
-0.13300438 0.010006345 0.26893616
-0.1322985 0.0099944714 0.26861703
-0.13175043 0.0099944714 0.26861703
-0.13141021 0.010010304 0.26904255
-0.13127524 0.010041969 0.26989362
-0.13123983 0.010081551 0.27095744
-0.13109748 0.010113217 0.27180851
-0.13084947 0.010136967 0.27244681
-0.13044623 0.010148841 0.27276596
-0.13009232 0.010164673 0.27319148
-0.12978713 0.010184464 0.27372339
-0.12953001 0.010208214 0.2743617
-0.12927027 0.010231963 0.27500001
-0.1291573 0.010267586 0.27595744
-0.12918915 0.010315086 0.27723405
-0.060678024 0.0071208128 0.19138297
-0.060455102 0.0071406038 0.19191489
-0.060230013 0.0071603954 0.19244681
-0.059969671 0.0071762279 0.19287235
-0.059641872 0.0071841441 0.1930851
-0.059280559 0.0071881022 0.19319148
-0.058918819 0.0071920608 0.19329788
-0.058556639 0.0071960189 0.19340426
-0.058194023 0.0071999771 0.19351064
-0.057830974 0.0072039352 0.19361702
-0.057593733 0.0072237267 0.19414894
-0.05741699 0.0072514336 0.19489361
-0.057330593 0.0072910162 0.19595745
-0.057116218 0.0073147649 0.19659574
-0.019937258 0.0090009607 0.2419149
-0.019443676 0.0090009607 0.2419149
-0.018958427 0.0090049189 0.24202128
-0.018488977 0.0090167942 0.24234043
-0.018018223 0.0090286685 0.24265957
-0.017538488 0.0090365848 0.24287234
-0.017050417 0.0090405429 0.24297872
-0.016561912 0.009044501 0.2430851
-0.016065942 0.009044501 0.2430851
0.021485677 0.011003814 0.29574469
0.022073196 0.010995897 0.29553193
0.022643521 0.010980064 0.29510638
0.023228873 0.010972148 0.29489362
-0.15312479 0.0095822234 0.24414894
-0.15262665 0.0095822234 0.24414894
-0.1521948 0.0095863985 0.24425532
-0.1517625 0.0095905736 0.2443617
-0.15132979 0.0095947487 0.24446808
-0.15096226 0.0096030999 0.24468085
-0.15065929 0.0096156253 0.245
-0.15035503 0.0096281506 0.24531914
-0.15004945 0.0096406769 0.2456383
-0.14974257 0.0096532032 0.24595745
-0.1494344 0.0096657285 0.2462766
-0.14906058 0.0096740788 0.24648936
-0.14875002 0.0096866051 0.24680851
-0.14843814 0.0096991304 0.24712765
-0.14812498 0.0097116567 0.24744681
-0.14787397 0.0097283572 0.24787234
-0.14768447 0.0097492337 0.24840425
-0.14749281 0.0097701102 0.24893618
-0.14736179 0.0097951619 0.24957447
-0.14710297 0.0098118624 0.25
-0.14678003 0.0098243887 0.25031915
-0.14639361 0.0098327389 0.25053191
-0.14606829 0.0098452652 0.25085106
-0.14586513 0.0098661408 0.25138298
-0.1457828 0.0098953675 0.25212765
-0.14557487 0.009916245 0.25265959
-0.14518151 0.0099245952 0.25287235
-0.14472643 0.0099287694 0.25297871
-0.14427091 0.0099329455 0.25308511
-0.14387539 0.0099412957 0.25329787
-0.14353922 0.0099538211 0.25361702
-0.14326175 0.0099705234 0.25404257
-0.14292273 0.0099830478 0.25436169
-0.14258243 0.0099955741 0.25468084
-0.14218149 0.010003925 0.25489363
-0.14183879 0.01001645 0.25521275
-0.14161262 0.010037327 0.2557447
-0.14138427 0.010058204 0.25627661
-0.14103679 0.010070728 0.25659573
-0.14068803 0.010083254 0.25691488
-0.14027993 0.010091606 0.25712767
-0.13998659 0.010108306 0.25755319
-0.13969153 0.010125007 0.25797874
-0.1394521 0.010145884 0.25851065
-0.13909616 0.010158408 0.25882977
-0.13873893 0.010170935 0.25914893
-0.13838039 0.010183461 0.25946808
-0.1380771 0.010200162 0.25989363
-0.13777202 0.010216863 0.26031914
-0.13752133 0.010237739 0.26085106
-0.13732432 0.010262791 0.26148936
-0.13706905 0.010283667 0.26202127
-0.13681161 0.010304543 0.26255319
-0.1364968 0.010321245 0.26297873
-0.13618024 0.010337945 0.26340425
-0.13580716 0.010350471 0.2637234
-0.13548735 0.010367173 0.26414895
-0.13522016 0.010388049 0.26468086
-0.13500489 0.0104131 0.26531914
-0.13473314 0.010433977 0.26585105
-0.13440552 0.010450678 0.2662766
-0.13407615 0.010467378 0.26670212
-0.13385157 0.01049243 0.26734042
-0.1336244 0.010517482 0.26797873
-0.13339463 0.010542534 0.26861703
-0.13289917 0.010546708 0.2687234
-0.13240328 0.010550885 0.26882979
-0.13190696 0.010555059 0.26893616
-0.13156609 0.01057176 0.2693617
-0.13132699 0.010596812 0.27000001
-0.13113679 0.010626039 0.27074468
-0.13084093 0.010646915 0.27127659
-0.130594 0.010671967 0.2719149
-0.13029359 0.010692843 0.27244681
-0.13004167 0.010717895 0.27308512
-0.12968625 0.010734595 0.27351063
-0.12937933 0.010755472 0.27404255
-0.12912025 0.010780524 0.27468085
-0.12900794 0.010818101 0.27563831
-0.12899084 0.010864028 0.2768085
-0.12887029 0.010901606 0.27776596
-0.12859841 0.010926657 0.27840427
-0.060762994 0.0074737165 0.19042553
-0.060543109 0.007494593 0.19095744
-0.060354572 0.0075196447 0.19159575
-0.06016342 0.0075446959 0.19223404
-0.059903514 0.0075613973 0.19265957
-0.05957615 0.007569748 0.19287235
-0.059215274 0.0075739231 0.19297872
-0.058853962 0.0075780982 0.1930851
-0.05852443 0.0075864489 0.19329788
-0.058194023 0.0075947992 0.19351064
-0.057894528 0.007607325 0.19382979
-0.057656847 0.0076282015 0.1943617
-0.057479676 0.0076574283 0.19510639
-0.057361715 0.0076950057 0.19606383
-0.057147123 0.0077200569 0.19670212
-0.020484746 0.0095195947 0.24255319
-0.019972328 0.0095112445 0.24234043
-0.019469326 0.0095070684 0.24223404
-0.018975092 0.0095070684 0.24223404
-0.018488977 0.0095112445 0.24234043
-0.018010324 0.0095195947 0.24255319
-0.01751544 0.0095195947 0.24255319
-0.017020555 0.0095195947 0.24255319
-0.016525671 0.0095195947 0.24255319
-0.016030787 0.0095195947 0.24255319
0.021477947 0.011603049 0.29563829
0.02206525 0.011594699 0.29542553
0.022627197 0.011573823 0.29489362
0.023203732 0.011561297 0.29457447
-0.15312479 0.010080364 0.24414894
-0.15269315 0.010084756 0.24425532
-0.15232736 0.01009354 0.24446808
-0.15196072 0.010102325 0.24468085
-0.15159319 0.010111109 0.24489361
-0.15115918 0.010115502 0.245
-0.15079013 0.010124287 0.24521276
-0.15055063 0.010141856 0.2456383
-0.1502444 0.010155033 0.24595745
-0.14993688 0.010168211 0.2462766
-0.14962804 0.010181387 0.24659574
-0.14925358 0.010190171 0.24680851
-0.14894237 0.010203348 0.24712765
-0.14862984 0.010216525 0.24744681
-0.14831603 0.010229702 0.24776596
-0.1480009 0.010242879 0.24808511
-0.14774773 0.010260449 0.24851064
-0.14755584 0.01028241 0.24904256
-0.14736179 0.010304372 0.24957447
-0.14710297 0.010321941 0.25
-0.14678003 0.010335118 0.25031915
-0.14645578 0.010348295 0.25063831
-0.14619218 0.010365864 0.25106382
-0.1460503 0.010392218 0.25170213
-0.14596733 0.010422964 0.2524468
-0.14569744 0.010440534 0.25287235
-0.14530367 0.010449318 0.25308511
-0.1447873 0.010449318 0.25308511
-0.14433157 0.010453711 0.2531915
-0.14387539 0.010458102 0.25329787
-0.14353922 0.01047128 0.25361702
-0.14326175 0.010488849 0.25404257
-0.14292273 0.010502025 0.25436169
-0.14252287 0.010510811 0.25457448
-0.14212215 0.010519595 0.25478724
-0.14177968 0.010532772 0.25510639
-0.1414948 0.010550341 0.25553191
-0.14126688 0.010572302 0.25606382
-0.14091985 0.010585479 0.25638297
-0.14057152 0.010598657 0.25670213
-0.14022188 0.010611834 0.25702128
-0.13987096 0.010625011 0.25734043
-0.13963392 0.010646973 0.25787234
-0.13939472 0.010668933 0.25840425
-0.13909616 0.010686503 0.25882977
-0.13873893 0.010699679 0.25914893
-0.13838039 0.010712856 0.25946808
-0.1380771 0.010730427 0.25989363
-0.13777202 0.010747995 0.26031914
-0.13746524 0.010765566 0.26074469
-0.13721259 0.010787527 0.2612766
-0.13695775 0.010809488 0.26180851
-0.13664532 0.010827057 0.26223403
-0.13627592 0.010840233 0.26255319
-0.13596024 0.010857804 0.26297873
-0.13564281 0.010875372 0.26340425
-0.13532366 0.010892943 0.2638298
-0.13505711 0.010914904 0.26436171
-0.1348425 0.010941257 0.26499999
-0.1345714 0.010963219 0.26553193
-0.13419072 0.010976396 0.26585105
-0.13386223 0.010993965 0.2662766
-0.13358526 0.011015926 0.26680851
-0.13335916 0.011042281 0.26744682
-0.13313046 0.011068634 0.26808509
-0.13279395 0.011086204 0.26851064
-0.13240328 0.011099381 0.26882979
-0.13201132 0.011112558 0.26914895
-0.13167001 0.011130127 0.26957446
-0.13132699 0.011147697 0.27000001
-0.13098221 0.011165265 0.27042553
-0.13063569 0.011182835 0.27085108
-0.13038963 0.011209188 0.27148935
-0.13014096 0.011235543 0.27212766
-0.12983903 0.011257504 0.27265957
-0.12948449 0.011275074 0.27308512
-0.1291282 0.011292642 0.27351063
-0.12887022 0.011318997 0.27414894
-0.1286594 0.011349742 0.27489361
-0.12854469 0.011389274 0.27585107
-0.12842607 0.011428804 0.2768085
-0.12815614 0.011455158 0.27744681
-0.1276879 0.011463943 0.27765957
-0.12697527 0.011450766 0.27734041
-0.12626396 0.011437589 0.27702129
-0.12574701 0.011441981 0.27712765
-0.12546991 0.011468335 0.27776596
-0.12542939 0.011516651 0.27893618
-0.12543172 0.011569358 0.28021276
-0.12538143 0.011617674 0.28138298
-0.12247919 0.01200859 0.29085106
-0.060661156 0.0078490674 0.19010638
-0.060475655 0.0078754211 0.19074468
-0.060321059 0.0079061678 0.19148937
-0.060130127 0.0079325214 0.19212766
-0.05983736 0.0079456987 0.19244681
-0.059510428 0.0079544829 0.19265957
-0.059149984 0.007958875 0.19276595
-0.058821537 0.0079676602 0.19297872
-0.05852443 0.0079808375 0.19329788
-0.058226015 0.0079940138 0.19361702
-0.057958078 0.0080115832 0.19404255
-0.057719965 0.0080335448 0.19457448
-0.057542358 0.0080642905 0.19531915
-0.057392839 0.0080994293 0.19617021
-0.057116218 0.0081169987 0.19659574
-0.020529669 0.010036441 0.2430851
-0.020016164 0.010027656 0.24287234
-0.019503528 0.010018871 0.24265957
-0.019000093 0.010014479 0.24255319
-0.018505208 0.010014479 0.24255319
-0.018010324 0.010014479 0.24255319
-0.017507758 0.010010087 0.24244681
-0.017005626 0.010005695 0.24234043
-0.016511176 0.010005695 0.24234043
-0.016023757 0.010010087 0.24244681
0.021454761 0.012193067 0.29531914
0.022041412 0.012184283 0.29510638
0.022602709 0.012162321 0.29457447
0.023186974 0.012153537 0.29436171
-0.15282616 0.010592331 0.24446808
-0.15252623 0.010606159 0.24478723
-0.15229106 0.010624597 0.24521276
-0.15192246 0.010633816 0.24542554
-0.15155299 0.010643035 0.2456383
-0.15124807 0.010656863 0.24595745
-0.15094185 0.010670692 0.2462766
-0.15056933 0.01067991 0.24648936
-0.15026072 0.010693738 0.24680851
-0.15001535 0.010712176 0.24723405
-0.1497039 0.010726003 0.24755318
-0.14939117 0.010739831 0.24787234
-0.14907715 0.01075366 0.24819149
-0.14869811 0.010762879 0.24840425
-0.1483817 0.010776707 0.2487234
-0.14806396 0.010790535 0.24904256
-0.14780796 0.010808973 0.24946809
-0.14755023 0.01082741 0.24989362
-0.14729075 0.010845847 0.25031915
-0.14702953 0.010864284 0.25074467
-0.1467666 0.010882722 0.25117022
-0.14650191 0.01090116 0.25159574
-0.14635895 0.010928816 0.25223404
-0.14615187 0.010951863 0.25276595
-0.14582004 0.010965691 0.25308511
-0.14542581 0.010974909 0.25329787
-0.14496988 0.010979519 0.25340426
-0.14451349 0.010984127 0.25351062
-0.14405668 0.010988737 0.25361702
-0.14365964 0.010997956 0.25382978
-0.14332172 0.011011784 0.25414893
-0.14298251 0.011025612 0.25446808
-0.14258243 0.01103483 0.25468084
-0.14212215 0.011039441 0.25478724
-0.14177968 0.011053269 0.25510639
-0.1414948 0.011071706 0.25553191
-0.1412082 0.011090145 0.25595745
-0.14086139 0.011103973 0.25627661
-0.14057152 0.011122409 0.25670213
-0.14016384 0.011131627 0.25691488
-0.13987096 0.011150066 0.25734043
-0.13963392 0.011173112 0.25787234
-0.13939472 0.011196159 0.25840425
-0.13909616 0.011214596 0.25882977
-0.13873893 0.011228424 0.25914893
-0.13832368 0.011237644 0.25936171
-0.13796404 0.011251471 0.25968084
-0.13765943 0.011269909 0.26010638
-0.13735306 0.011288346 0.2605319
-0.13710085 0.011311394 0.26106384
-0.13684645 0.011334441 0.26159576
-0.13653445 0.011352878 0.26202127
-0.1361655 0.011366706 0.26234043
-0.13585024 0.011385143 0.26276594
-0.13553324 0.011403581 0.26319149
-0.13521451 0.011422018 0.26361701
-0.1349484 0.011445066 0.26414895
-0.13468012 0.011468112 0.26468086
-0.13440967 0.011491159 0.26521277
-0.13413703 0.011514206 0.26574469
-0.13375527 0.011528035 0.26606384
-0.13347873 0.011551081 0.26659575
-0.13325308 0.011578738 0.26723406
-0.13297199 0.011601784 0.26776597
-0.1326361 0.011620221 0.26819149
-0.13224609 0.011634049 0.26851064
-0.13190696 0.011652486 0.26893616
-0.13156609 0.011670925 0.2693617
-0.13117175 0.011684753 0.26968086
-0.13082762 0.011703189 0.27010638
-0.13043045 0.011717018 0.27042553
-0.13013417 0.011740064 0.27095744
-0.12988658 0.011767721 0.27159575
-0.12958574 0.011790768 0.27212766
-0.12923229 0.011809206 0.27255321
-0.12887709 0.011827643 0.27297872
-0.12862018 0.0118553 0.27361703
-0.12836064 0.011882955 0.27425531
-0.12814811 0.011915221 0.27500001
-0.12788317 0.011942877 0.27563831
-0.12756647 0.011965925 0.27617022
-0.12714975 0.011979751 0.27648935
-0.12663434 0.011984361 0.27659574
-0.12606999 0.011984361 0.27659574
-0.1256022 0.01199358 0.2768085
-0.12537381 0.012025846 0.2775532
-0.12528588 0.012071939 0.27861702
-0.12524123 0.012122643 0.27978724
-0.12519182 0.012173346 0.28095746
-0.12485451 0.012196393 0.28148937
-0.12451503 0.012219439 0.28202128
-0.12403312 0.012228658 0.28223404
-0.12249 0.012482174 0.2880851
-0.12239739 0.012532877 0.28925532
-0.1221208 0.012565142 0.28999999
-0.12161828 0.012574362 0.29021278
-0.12111488 0.01258358 0.29042554
-0.12065477 0.012597408 0.29074469
-0.060912382 0.0082185064 0.18968084
-0.060661156 0.0082369437 0.19010638
-0.060509384 0.0082692094 0.19085106
-0.060388081 0.0083060842 0.19170213
-0.06016342 0.0083291307 0.19223404
-0.05983736 0.0083383499 0.19244681
-0.059510428 0.008347569 0.19265957
-0.059149984 0.0083521781 0.19276595
-0.058853962 0.0083660064 0.1930851
-0.058556639 0.0083798347 0.19340426
-0.058290001 0.0083982721 0.19382979
-0.058053404 0.0084213186 0.1943617
-0.057814635 0.0084443651 0.19489361
-0.057605043 0.0084720217 0.19553192
-0.057392839 0.0084996782 0.19617021
-0.057085313 0.0085135065 0.19648936
-0.020556623 0.010546238 0.24340425
-0.020051235 0.010541629 0.24329787
-0.01953773 0.01053241 0.2430851
-0.019033426 0.010527801 0.24297872
-0.018521441 0.010518583 0.24276596
-0.018010324 0.010509363 0.24255319
-0.017500076 0.010500144 0.24234043
-0.017020555 0.010509363 0.24255319
-0.016540168 0.010518583 0.24276596
-0.016065942 0.01053241 0.2430851
0.021431575 0.012781782 0.29499999
0.022009632 0.012767955 0.29468086
0.022586383 0.012754126 0.29436171
0.023170212 0.012744907 0.29414892
-0.15309218 0.011110429 0.24489361
-0.15285766 0.011129734 0.24531914
-0.15268749 0.011153867 0.24585107
-0.15244928 0.011173173 0.2462766
-0.1521437 0.011187651 0.24659574
-0.15183683 0.01120213 0.24691489
-0.15152866 0.011216611 0.24723405
-0.15115419 0.011226263 0.24744681
-0.15084362 0.011240742 0.24776596
-0.15059631 0.011260048 0.24819149
-0.15041158 0.01128418 0.2487234
-0.15009646 0.011298659 0.24904256
-0.14978004 0.011313139 0.24936171
-0.14933494 0.011317966 0.24946809
-0.14895287 0.011327618 0.24968085
-0.14856994 0.011337271 0.24989362
-0.14824918 0.011351749 0.25021276
-0.14792711 0.01136623 0.25053191
-0.14760374 0.011380709 0.25085106
-0.14740382 0.01140484 0.25138298
-0.14720173 0.011428973 0.25191489
-0.14693554 0.011448279 0.25234044
-0.1466676 0.011467584 0.25276595
-0.14633641 0.011482064 0.25308511
-0.14600392 0.011496543 0.25340426
-0.14567013 0.011511022 0.25372341
-0.14527418 0.011520674 0.25393617
-0.14481671 0.011525501 0.25404257
-0.14435881 0.011530328 0.25414893
-0.14384027 0.011530328 0.25414893
-0.14344171 0.01153998 0.25436169
-0.14310205 0.011554459 0.25468084
-0.14270155 0.011564113 0.25489363
-0.14224082 0.011568939 0.255
-0.14183879 0.011578592 0.25521275
-0.14155371 0.011597898 0.2556383
-0.14126688 0.011617203 0.25606382
-0.14097834 0.01163651 0.25648937
-0.14062978 0.011650989 0.25680852
-0.14027993 0.011665468 0.25712767
-0.13992876 0.011679946 0.2574468
-0.13969153 0.01170408 0.25797874
-0.1394521 0.011728211 0.25851065
-0.13909616 0.01174269 0.25882977
-0.13868199 0.011752344 0.25904256
-0.13826694 0.011761996 0.25925532
-0.13790753 0.011776475 0.25957447
-0.13754682 0.011790955 0.25989363
-0.13729699 0.011815087 0.26042554
-0.13710085 0.011844045 0.26106384
-0.13690209 0.011873003 0.26170212
-0.13658988 0.01189231 0.26212767
-0.13622072 0.01190679 0.26244682
-0.13585024 0.011921267 0.26276594
-0.13553324 0.011940574 0.26319149
-0.13521451 0.011959879 0.26361701
-0.1349484 0.011984012 0.26414895
-0.13468012 0.012008145 0.26468086
-0.13435574 0.012027449 0.26510638
-0.13402964 0.012046755 0.26553193
-0.13375527 0.012070888 0.26606384
-0.13342546 0.012090193 0.26648936
-0.13314697 0.012114325 0.26702127
-0.1328135 0.012133631 0.26744682
-0.13242567 0.01214811 0.26776597
-0.13203651 0.012162589 0.26808509
-0.13164607 0.012177068 0.26840425
-0.13130629 0.012196374 0.26882979
-0.13096477 0.01221568 0.26925531
-0.13062152 0.012234986 0.26968086
-0.13027652 0.012254291 0.27010638
-0.1299298 0.012273598 0.27053192
-0.1296322 0.012297729 0.27106383
-0.12933244 0.012321861 0.27159575
-0.12898007 0.012341167 0.27202126
-0.12867619 0.0123653 0.27255321
-0.12842013 0.012394257 0.27319148
-0.12811169 0.012418389 0.27372339
-0.12780108 0.012442521 0.27425531
-0.12743895 0.012461828 0.27468085
-0.12702593 0.012476307 0.27500001
-0.12661162 0.012490787 0.27531916
-0.126196 0.012505266 0.27563831
-0.12577906 0.012519744 0.27595744
-0.12540911 0.012539051 0.27638298
-0.12518159 0.012572835 0.27712765
-0.1250467 0.012616273 0.27808511
-0.12490789 0.012659711 0.27904254
-0.12476519 0.012703149 0.28
-0.12447702 0.012732108 0.28063831
-0.12413928 0.01275624 0.28117022
-0.12379936 0.012780372 0.28170213
-0.12331767 0.012790024 0.28191489
-0.12274247 0.012790024 0.28191489
-0.12221339 0.012794851 0.28202128
-0.12191327 0.012823809 0.28265956
-0.12193023 0.012886554 0.28404257
-0.12198699 0.012954122 0.28553191
-0.12190197 0.013007213 0.28670213
-0.12167714 0.013045825 0.28755319
-0.12135923 0.013074784 0.2881915
-0.12094955 0.013094089 0.28861701
-0.1205825 0.01311822 0.28914893
-0.12030159 0.013152007 0.28989363
-0.11997369 0.013180965 0.2905319
-0.11968691 0.01321475 0.2912766
-0.1193101 0.013238882 0.29180852
-0.11884455 0.013253362 0.29212767
-0.11715046 0.013610517 0.30000001
-0.061014872 0.0086199939 0.19
-0.060762994 0.0086392993 0.19042553
-0.06061057 0.0086730849 0.19117022
-0.060488619 0.0087116957 0.19202128
-0.060230013 0.008731002 0.19244681
-0.059903514 0.0087406542 0.19265957
-0.059543289 0.0087454803 0.19276595
-0.059182633 0.0087503074 0.19287235
-0.058886386 0.0087647866 0.19319148
-0.058621056 0.008784092 0.19361702
-0.058353987 0.0088033974 0.19404255
-0.058085177 0.0088227037 0.19446808
-0.057846192 0.0088468352 0.19499999
-0.057573698 0.0088661416 0.19542553
-0.057299465 0.0088854469 0.19585106
-0.056961682 0.0088951001 0.19606383
-0.020574592 0.011052512 0.24361703
-0.020068768 0.011047686 0.24351063
-0.019563381 0.011042858 0.24340425
-0.019050093 0.011033206 0.2431915
-0.018537674 0.011023553 0.24297872
-0.018018223 0.011009074 0.24265957
-0.01751544 0.011004248 0.24255319
-0.017057881 0.011028379 0.2430851
-0.016612649 0.011062165 0.24382979
-0.016143285 0.01108147 0.24425532
0.02139293 0.013359542 0.29446808
0.021977847 0.01334989 0.29425532
0.022553731 0.013335411 0.29393616
0.023145074 0.013330584 0.2938298
-0.15332167 0.011665567 0.24606383
-0.15321605 0.011695827 0.24670213
-0.15304196 0.011721045 0.24723405
-0.15293133 0.011751305 0.24787234
-0.15262187 0.011766437 0.24819149
-0.15224586 0.011776523 0.24840425
-0.15186901 0.01178661 0.24861702
-0.1516856 0.011811827 0.24914894
-0.15162912 0.011847132 0.24989362
-0.15150525 0.011877392 0.25053191
-0.15112232 0.01188748 0.25074467
-0.15054683 0.011882436 0.25063831
-0.15003546 0.011882436 0.25063831
-0.14958753 0.01188748 0.25074467
-0.14913918 0.011892524 0.25085106
-0.14875342 0.01190261 0.25106382
-0.148304 0.011907654 0.25117022
-0.1480419 0.011927827 0.25159574
-0.14784047 0.011953045 0.25212765
-0.14763689 0.011978263 0.25265959
-0.1473072 0.011993392 0.25297871
-0.14691451 0.01200348 0.2531915
-0.14652094 0.012013567 0.25340426
-0.14618781 0.012028698 0.25372341
-0.14597552 0.012053914 0.25425532
-0.1457002 0.012074088 0.25468084
-0.14524122 0.012079132 0.25478724
-0.14466093 0.012074088 0.25468084
-0.1440209 0.012064002 0.25446808
-0.14356171 0.012069046 0.25457448
-0.14316183 0.012079132 0.25478724
-0.1427611 0.012089219 0.255
-0.1423595 0.012099305 0.25521275
-0.14195704 0.012109393 0.25542554
-0.14167152 0.012129567 0.25585106
-0.14138427 0.012149741 0.25627661
-0.14109527 0.012169914 0.25670213
-0.1407463 0.012185045 0.25702128
-0.140396 0.012200176 0.25734043
-0.14010222 0.012220349 0.25776595
-0.13986433 0.012245566 0.25829786
-0.13956688 0.012265741 0.25872341
-0.13921052 0.012280871 0.25904256
-0.13873893 0.012285914 0.25914893
-0.13826694 0.012290958 0.25925532
-0.137851 0.012301045 0.25946808
-0.13754682 0.012321219 0.25989363
-0.13735306 0.012351479 0.2605319
-0.13721259 0.012386784 0.2612766
-0.13701339 0.012417044 0.26191488
-0.1367562 0.012442263 0.26244682
-0.13638635 0.012457392 0.26276594
-0.13601524 0.012472522 0.2630851
-0.1356976 0.012492698 0.26351064
-0.13532366 0.012507828 0.2638298
-0.13500275 0.012528001 0.26425532
-0.13468012 0.012548176 0.26468086
-0.13430181 0.012563305 0.26499999
-0.13397594 0.01258348 0.26542553
-0.13364831 0.012603653 0.26585105
-0.13337222 0.012628872 0.26638299
-0.13304089 0.012649045 0.26680851
-0.13265501 0.012664176 0.26712766
-0.1322152 0.012674262 0.26734042
-0.13177453 0.012684349 0.26755318
-0.13138518 0.012699479 0.26787233
-0.13104649 0.012719654 0.26829788
-0.13075779 0.012744871 0.26882979
-0.13046694 0.012770088 0.2693617
-0.13017391 0.012795306 0.26989362
-0.1298787 0.012820523 0.27042553
-0.12953046 0.012840698 0.27085108
-0.12918046 0.012860871 0.27127659
-0.12882875 0.012881045 0.27170214
-0.12852551 0.012906263 0.27223405
-0.1282701 0.012936522 0.27287233
-0.12796232 0.01296174 0.27340424
-0.12760279 0.012981915 0.27382979
-0.1271428 0.012992001 0.27404255
-0.12673108 0.013007131 0.2743617
-0.12631808 0.013022263 0.27468085
-0.12590376 0.013037393 0.27500001
-0.12553662 0.013057566 0.27542552
-0.1252643 0.013087828 0.27606383
-0.12503742 0.013123131 0.2768085
-0.12480751 0.013158437 0.2775532
-0.12457456 0.013193741 0.27829787
-0.12429116 0.013224002 0.27893618
-0.12395798 0.013249219 0.27946809
-0.12362262 0.013274437 0.28
-0.12328508 0.013299653 0.28053191
-0.12289886 0.013319829 0.28095746
-0.12246456 0.013334958 0.28127658
-0.12202898 0.013350088 0.28159574
-0.12168385 0.013375306 0.28212765
-0.12151923 0.013420697 0.28308511
-0.12139614 0.013471132 0.28414893
-0.12122349 0.013516524 0.28510639
-0.12091187 0.013546783 0.28574467
-0.12050806 0.013566958 0.28617021
-0.1201025 0.013587131 0.28659573
-0.11982831 0.013622437 0.28734043
-0.11959523 0.013662784 0.2881915
-0.11944653 0.013713219 0.28925532
-0.11924978 0.013758611 0.29021278
-0.11891863 0.013788871 0.29085106
-0.11849832 0.013809046 0.2912766
-0.11781789 0.013798958 0.29106382
-0.11709551 0.013783828 0.29074469
-0.1165023 0.013783828 0.29074469
-0.11633319 0.013834262 0.29180852
-0.11632853 0.013904871 0.29329789
-0.11669558 0.014020871 0.29574469
-0.11680207 0.01410661 0.29755318
-0.11656886 0.014152002 0.29851064
-0.11595981 0.014152002 0.29851064
-0.11514521 0.014126784 0.29797873
-0.11408743 0.014071306 0.29680851
-0.061185684 0.0090328706 0.19053191
-0.060932722 0.009053044 0.19095744
-0.060779214 0.0090883486 0.19170213
-0.06058915 0.0091186091 0.19234042
-0.060296599 0.0091337403 0.19265957
-0.059903514 0.0091337403 0.19265957
-0.059543289 0.0091387834 0.19276595
-0.059215274 0.0091488706 0.19297872
-0.058918819 0.0091640009 0.19329788
-0.058653269 0.0091841752 0.19372341
-0.058385979 0.0092043495 0.19414894
-0.058116958 0.0092245229 0.19457448
-0.057814635 0.0092396531 0.19489361
-0.057511017 0.0092547834 0.19521277
-0.057143845 0.0092598274 0.19531915
-0.056776237 0.0092648705 0.19542553
-0.020565607 0.011544523 0.24351063
-0.020060001 0.01153948 0.24340425
-0.019554831 0.011534437 0.24329787
-0.019058427 0.011534437 0.24329787
-0.01854579 0.011524349 0.2430851
-0.018034022 0.011514262 0.24287234
-0.017553851 0.011524349 0.2430851
-0.017117603 0.011564697 0.24393617
-0.016699627 0.011620175 0.24510638
-0.01624875 0.01165548 0.24585107
0.020792125 0.013960349 0.29446808
0.021377474 0.013950262 0.29425532
0.021946065 0.013930089 0.2938298
0.022529243 0.013920001 0.29361701
0.023119934 0.013914959 0.29351065
-0.15381068 0.012246522 0.24765958
-0.15363464 0.012272825 0.24819149
-0.15352206 0.012304387 0.24882978
-0.15321063 0.012320169 0.24914894
-0.15276748 0.012325429 0.24925531
-0.15225892 0.012325429 0.24925531
-0.15272188 0.012404338 0.25085106
-0.15298466 0.012467464 0.25212765
-0.15292059 0.012504288 0.25287235
-0.15221231 0.012488507 0.25255319
-0.15131362 0.012456942 0.25191489
-0.15035386 0.01242012 0.25117022
-0.14990485 0.012425379 0.25127658
-0.14945541 0.01243064 0.25138298
-0.14900556 0.012435901 0.25148937
-0.14855525 0.012441161 0.25159574
-0.1482297 0.012456942 0.25191489
-0.1481524 0.012493768 0.25265959
-0.1479477 0.01252007 0.2531915
-0.14761694 0.012535851 0.25351062
-0.14716142 0.012541112 0.25361702
-0.1468285 0.012556893 0.25393617
-0.14661686 0.012583196 0.25446808
-0.14646414 0.01261476 0.25510639
-0.14618708 0.012635801 0.25553191
-0.14566572 0.012635801 0.25553191
-0.14496307 0.012620019 0.25521275
-0.14426175 0.012604238 0.25489363
-0.14368168 0.012598977 0.25478724
-0.14322162 0.012604238 0.25489363
-0.14288022 0.012620019 0.25521275
-0.1424782 0.012630541 0.25542554
-0.14219354 0.012651582 0.25585106
-0.14196606 0.012677885 0.25638297
-0.1417364 0.012704188 0.25691488
-0.14138764 0.012719969 0.25723404
-0.14103757 0.012735751 0.25755319
-0.1406862 0.012751533 0.25787234
-0.14039133 0.012772574 0.25829786
-0.14009476 0.012793617 0.25872341
-0.13973904 0.0128094 0.25904256
-0.13932486 0.01281992 0.25925532
-0.1387959 0.01281992 0.25925532
-0.13832368 0.012825181 0.25936171
-0.13790753 0.012835702 0.25957447
-0.13765943 0.012862004 0.26010638
-0.13752133 0.012898827 0.26085106
-0.1373802 0.012935652 0.26159576
-0.13723601 0.012972475 0.26234043
-0.13703336 0.013004038 0.26297873
-0.13666245 0.013019821 0.26329789
-0.13629024 0.013035601 0.26361701
-0.13591672 0.013051383 0.26393616
-0.13554192 0.013067164 0.26425532
-0.1351658 0.013082947 0.26457447
-0.13473424 0.013093467 0.26478723
-0.13430181 0.013103988 0.26499999
-0.13392223 0.013119769 0.26531914
