# .PCD v0.7 - Point Cloud Data file format
VERSION 0.7
FIELDS x y z
SIZE 4 4 4
TYPE F F F
COUNT 1 1 1
WIDTH 1359
HEIGHT 1
VIEWPOINT 0 0 0 1 0 0 0
POINTS 1359
DATA ascii
-0.15066637 0.043787051 0.24393554
-0.15062071 0.043921921 0.24399658
-0.15058108 0.044015616 0.2440276
-0.15052302 0.044127896 0.24412373
-0.15044948 0.0442736 0.24418961
-0.15036628 0.044401899 0.24432278
-0.15030801 0.044605535 0.24444188
-0.15023696 0.044718925 0.24456599
-0.15020628 0.044772174 0.24459323
-0.061753154 0.031988166 0.19111253
-0.061749585 0.032036737 0.1911201
-0.061736707 0.032002803 0.19113275
-0.061730005 0.032002281 0.19113788
-0.061713189 0.031968351 0.19114789
-0.061704256 0.031965885 0.19115031
-0.061695471 0.031933643 0.19115534
-0.061686557 0.031911902 0.19115965
-0.061678883 0.031879514 0.19116533
-0.061663937 0.031870805 0.19116898
-0.06165595 0.031852197 0.1911713
-0.061644956 0.031855687 0.19117431
-0.061640393 0.031861641 0.19117749
-0.061627261 0.031918384 0.19117777
-0.061617158 0.031969126 0.19117755
-0.061572503 0.031921916 0.19120909
-0.021287285 0.040066291 0.23933488
-0.02127919 0.039994307 0.23934685
-0.021272793 0.039958894 0.23935458
-0.021251526 0.039798331 0.2393541
-0.021244274 0.03967483 0.2393347
-0.021224774 0.039589442 0.23931852
0.019317446 0.047475833 0.28842199
0.019335324 0.047200315 0.28846264
0.019345473 0.047108952 0.28847095
-0.15059064 0.044021137 0.24402069
-0.1505561 0.04410046 0.24404556
-0.15050299 0.044195481 0.24410498
-0.15046306 0.044269845 0.24416457
-0.15041623 0.04445117 0.24422844
-0.1503326 0.044601087 0.24434152
-0.15025218 0.044741906 0.24446923
-0.15018053 0.044845331 0.24457401
-0.15014584 0.044899102 0.24463761
-0.15012042 0.044929966 0.24464819
-0.061804611 0.032338325 0.1910589
-0.061780468 0.032321468 0.19107839
-0.061778862 0.032370586 0.19108409
-0.061764836 0.03233739 0.19109558
-0.061755624 0.032317057 0.19110607
-0.06174612 0.032304179 0.19111092
-0.061732747 0.03227118 0.19111712
-0.061723854 0.032238677 0.19112481
-0.061718609 0.032227129 0.19112869
-0.061705228 0.032195978 0.19113442
-0.061696913 0.032217354 0.19113521
-0.061686881 0.032198254 0.19113596
-0.061675899 0.032201458 0.19113842
-0.061673068 0.032218888 0.19114012
-0.061660398 0.032251734 0.19114003
-0.061651498 0.032286558 0.19113795
-0.061614394 0.032281961 0.19115563
-0.021332204 0.040436011 0.23930958
-0.021318913 0.040332988 0.23931858
-0.021318914 0.040332992 0.23931861
-0.021293253 0.040171433 0.23932149
-0.021281824 0.040045422 0.23931152
0.019269364 0.048075628 0.2882379
0.019274496 0.047983207 0.28824717
0.019306509 0.047722045 0.28831106
-0.15055202 0.04424794 0.24406517
-0.15048608 0.04434916 0.24413303
-0.15044194 0.044437975 0.24419288
-0.15039784 0.044516932 0.24424095
-0.15035157 0.044597335 0.244286
-0.15027586 0.044736803 0.2443845
-0.15021627 0.044890877 0.24448578
-0.15016262 0.045023017 0.24458987
-0.15009442 0.045101579 0.2446973
-0.15004818 0.04515034 0.24473812
-0.15000428 0.045213949 0.24478035
-0.061819639 0.032635421 0.19103478
-0.06180742 0.032644659 0.19104497
-0.061807211 0.032694865 0.19104947
-0.061793864 0.032661732 0.19106111
-0.061783716 0.032619473 0.1910702
-0.06176861 0.032577317 0.19107877
-0.061758377 0.032586958 0.19108315
-0.061753023 0.0325654 0.19108862
-0.061744459 0.032532915 0.19109778
-0.061734714 0.032511927 0.19110297
-0.061726607 0.032491259 0.19110663
-0.061713632 0.032513682 0.19110674
-0.061705336 0.032528128 0.19110622
-0.061702754 0.032544434 0.19110583
-0.061692569 0.032607723 0.1911006
-0.06168345 0.032629777 0.19109787
-0.061649546 0.032592628 0.19111425
-0.021372188 0.040779684 0.23926778
-0.021365372 0.040744562 0.23927549
-0.02135461 0.040680259 0.23927449
-0.021342233 0.040583242 0.23927017
-0.021325585 0.040485851 0.23927207
0.019212177 0.048845422 0.28804663
0.019218067 0.048754625 0.28806299
0.019246003 0.048582565 0.28809214
-0.15046889 0.044417903 0.24414602
-0.15042087 0.044504583 0.24420717
-0.15037286 0.044598795 0.24425991
-0.1503347 0.04471736 0.24430646
-0.15027016 0.044868905 0.24440767
-0.15020354 0.044984806 0.24450718
-0.15013045 0.045126718 0.24462283
-0.15006906 0.045229059 0.24471377
-0.15002258 0.045338478 0.24478814
-0.14996161 0.045440853 0.24484868
-0.14987917 0.045550615 0.24492019
-0.061839897 0.032960504 0.19100843
-0.061832383 0.032969896 0.19101767
-0.061838098 0.033019282 0.19102047
-0.061819047 0.032975957 0.19102913
-0.06181141 0.032943666 0.19103126
-0.061795417 0.032880962 0.19104449
-0.06179003 0.032922529 0.1910422
-0.061775543 0.032890953 0.19105457
-0.061770499 0.032869335 0.19106118
-0.061764698 0.032847855 0.19106817
-0.061760291 0.03284879 0.19106798
-0.061742872 0.032829393 0.19107386
-0.061733902 0.032896411 0.19107053
-0.06173059 0.032890506 0.19107045
-0.06172622 0.03296471 0.1910587
-0.061715826 0.032955423 0.19105677
-0.061670873 0.032914136 0.19108459
-0.021418607 0.041224129 0.23924249
-0.021400884 0.041123729 0.23924659
-0.021390205 0.040994886 0.23922789
-0.021390205 0.040994886 0.23922789
-0.021360951 0.040866829 0.23922248
0.019161681 0.049548622 0.28791839
0.01917805 0.049465988 0.28792554
0.019192489 0.049569841 0.28788766
-0.15041034 0.044658218 0.24424313
-0.15035796 0.044730693 0.24429068
-0.150327 0.044789098 0.24431244
-0.15027641 0.044872914 0.24437729
-0.15020013 0.045077775 0.24450894
-0.15011643 0.045221113 0.24464439
-0.15004428 0.045361809 0.2447549
-0.14998023 0.04547514 0.24484713
-0.14992249 0.045619946 0.24491656
-0.14984138 0.04578761 0.24499558
-0.1497886 0.045860361 0.24503903
-0.14972112 0.045942422 0.24509519
-0.061911114 0.033420343 0.19096991
-0.061894245 0.033377584 0.19097686
-0.061881013 0.033353344 0.19098267
-0.061871711 0.033331752 0.19099204
-0.061850712 0.033299681 0.19099362
-0.061840892 0.033287209 0.19099602
-0.061826903 0.033235669 0.19100682
-0.061819255 0.033225823 0.19100952
-0.06180485 0.033235721 0.1910176
-0.061802574 0.033224694 0.19102047
-0.061793078 0.033194032 0.19102958
-0.061782211 0.03317444 0.19103359
-0.061777703 0.033185668 0.19103621
-0.06176294 0.033230837 0.19103794
-0.061760053 0.033236738 0.19103433
-0.061754037 0.033297803 0.19102232
-0.061748359 0.033306591 0.19101256
-0.061687846 0.033211462 0.19105965
-0.021456674 0.041666493 0.23923604
-0.021439273 0.041532952 0.23923253
-0.021428872 0.041404475 0.23921196
-0.021411898 0.041244064 0.23918879
-0.021406081 0.041281268 0.23917478
0.019111181 0.050357483 0.28772357
0.01912736 0.050274007 0.28772616
0.019138608 0.050189789 0.28773275
-0.15034881 0.04480077 0.24430458
-0.15030889 0.044898216 0.24435191
-0.15025076 0.045003019 0.24441129
-0.15021403 0.045100585 0.24448359
-0.15012972 0.045272656 0.24462777
-0.15004797 0.045450505 0.24475907
-0.14997564 0.045597218 0.24487522
-0.14990763 0.045737065 0.24494746
-0.14982615 0.045842458 0.24501412
-0.14975998 0.046069864 0.24510054
-0.14969799 0.046150956 0.245151
-0.14964186 0.046218418 0.24519812
-0.0620743 0.033915155 0.19088688
-0.062030535 0.033918507 0.19089241
-0.061969209 0.033861596 0.19091816
-0.06195388 0.033779576 0.19093166
-0.0619324 0.033717819 0.19094767
-0.061922066 0.03369477 0.19095501
-0.061905093 0.033671834 0.19096178
-0.061887041 0.033661671 0.19096258
-0.061872642 0.03362916 0.19096619
-0.061862282 0.033597495 0.1909754
-0.061853167 0.033588909 0.19097777
-0.061838605 0.033588666 0.19098313
-0.061829079 0.033557892 0.19098698
-0.061826378 0.033547629 0.19099134
-0.061818767 0.033538193 0.19099589
-0.061808124 0.033529624 0.19100055
-0.061790522 0.033554751 0.19100289
-0.061788194 0.033559486 0.19099875
-0.061780501 0.033619005 0.19098793
-0.061764941 0.033624984 0.19098473
-0.06169704 0.033637412 0.19102158
-0.061562229 0.033623073 0.19107817
-0.021520197 0.042182498 0.23922208
-0.021506535 0.042113792 0.23922361
-0.021489229 0.041948322 0.23920511
-0.021467747 0.041846756 0.23920645
-0.021455191 0.041690759 0.2391623
-0.021444818 0.041599084 0.23912996
0.019049577 0.050884474 0.28760943
0.019049579 0.05088447 0.28760943
0.019060001 0.05080127 0.28761488
-0.15029809 0.045011438 0.244389
-0.15024598 0.045103617 0.24443842
-0.1501957 0.045229964 0.24452183
-0.15014239 0.045375083 0.24462627
-0.15006268 0.045530502 0.24475621
-0.14997588 0.045660224 0.24486555
-0.14991364 0.04580389 0.24495558
-0.14982431 0.0459917 0.24504717
-0.14975804 0.046102837 0.24510105
-0.14967856 0.046307936 0.2451832
-0.14960219 0.046451002 0.24525253
-0.14954965 0.046546739 0.24530241
-0.062678747 0.034573991 0.19064008
-0.062369816 0.034494773 0.19080053
-0.062185384 0.034304105 0.19084498
-0.062083893 0.034193106 0.19085917
-0.062031876 0.034212455 0.19088039
-0.062005922 0.034190122 0.19088896
-0.061994657 0.034141622 0.19089721
-0.06196804 0.034065571 0.19091108
-0.061948523 0.034023792 0.19092122
-0.061936449 0.034011491 0.19092822
-0.061924424 0.033979625 0.19093558
-0.061910536 0.033978604 0.19093895
-0.061894119 0.033937659 0.19094768
-0.061893038 0.033948116 0.19094768
-0.061879296 0.03393919 0.19095029
-0.0618673 0.033898078 0.19095895
-0.061862722 0.03388847 0.19095893
-0.061854258 0.033857625 0.19096448
-0.061850034 0.033868998 0.19096822
-0.061834645 0.0338943 0.19096912
-0.061837465 0.033906892 0.19096577
-0.061821252 0.033956982 0.19095595
-0.06179896 0.03398598 0.19094691
-0.061734334 0.034038633 0.19098899
-0.061582413 0.034022462 0.19104984
-0.061463475 0.034040678 0.19111086
-0.021564344 0.042533983 0.23919195
-0.021568371 0.042654034 0.23923308
-0.021562139 0.042618427 0.23923574
-0.021529775 0.042422105 0.2392194
-0.021518722 0.042264011 0.23918201
-0.021498501 0.04210829 0.2391316
-0.021494158 0.042018842 0.23909582
0.018959144 0.051570967 0.28750017
0.018973822 0.051489986 0.28750351
0.018983576 0.051408134 0.28750992
-0.15024437 0.045233496 0.24448448
-0.15018496 0.04534274 0.24455765
-0.15013109 0.045436449 0.24464741
-0.15004912 0.045655545 0.24479246
-0.14996518 0.045818564 0.24490274
-0.14989765 0.045955248 0.2449936
-0.14982989 0.046104543 0.24505967
-0.14975134 0.046282697 0.24512236
-0.14968297 0.046402272 0.24517407
-0.1495979 0.046541132 0.24524257
-0.14953178 0.046660602 0.24530032
-0.14947443 0.046752162 0.24535379
-0.14941902 0.046845634 0.24540919
-0.062577508 0.034582283 0.1905728
-0.062470142 0.034591712 0.19064526
-0.062387396 0.034549136 0.19070075
-0.062310804 0.034523789 0.1907468
-0.062222145 0.03447235 0.19077435
-0.062151078 0.034473818 0.19080982
-0.06209328 0.034458727 0.19083469
-0.062064733 0.034473609 0.19085667
-0.062041197 0.034450386 0.19086836
-0.0620206 0.034425754 0.19087537
-0.06199665 0.034371093 0.19088154
-0.061982933 0.034349665 0.19089028
-0.06196703 0.034317937 0.19089784
-0.061948862 0.03427536 0.19090362
-0.061941966 0.034274884 0.19090746
-0.061929356 0.034255549 0.19091597
-0.061924551 0.034234546 0.19092153
-0.061920136 0.034266062 0.19092211
-0.061908066 0.034225147 0.19093022
-0.06189847 0.034206215 0.19092982
-0.061890043 0.034175422 0.19093521
-0.061886054 0.034175921 0.19093907
-0.061870877 0.034158371 0.19093925
-0.061870478 0.034224059 0.19093342
-0.061854869 0.034260996 0.19092986
-0.061843164 0.034330118 0.19092344
-0.06178759 0.034370419 0.19094825
-0.061689835 0.034392141 0.19098662
-0.061555441 0.034420069 0.19103189
-0.061516833 0.034344107 0.19104579
-0.061498038 0.034193125 0.19105265
-0.061449576 0.034158926 0.19106813
-0.021620817 0.042939562 0.2390984
-0.021616872 0.042961378 0.23912825
-0.021605814 0.042879354 0.23917161
-0.021616351 0.043124642 0.23923032
-0.021605419 0.043173738 0.23927002
-0.021591673 0.043047804 0.23925287
-0.021568047 0.042734768 0.23919465
-0.021538101 0.042516105 0.23912771
-0.021529239 0.042336944 0.23905824
-0.02150555 0.042240504 0.23902698
0.018879704 0.052061774 0.2874437
0.018912302 0.051893134 0.28747329
0.018926335 0.051813673 0.28748101
-0.1501873 0.045430515 0.24458055
-0.15012367 0.04556207 0.24466954
-0.15005584 0.045710817 0.24478069
-0.14995596 0.045996979 0.24492964
-0.14987209 0.046155959 0.24501887
-0.1497854 0.046294078 0.24508518
-0.14973862 0.046394851 0.24511415
-0.14965905 0.046503466 0.24517801
-0.14958596 0.046635348 0.24522842
-0.14953427 0.046730142 0.24526928
-0.14946853 0.046829779 0.24533358
-0.14938673 0.046967018 0.24541277
-0.14931752 0.047080785 0.24548487
-0.1492535 0.047155026 0.24556592
-0.062614664 0.034966368 0.19054705
-0.062495805 0.034923784 0.19064164
-0.062425796 0.034862071 0.19067413
-0.062339302 0.034824979 0.19072072
-0.062260672 0.03477031 0.19073881
-0.062174637 0.034672108 0.19076833
-0.062123053 0.034622189 0.19079994
-0.062079236 0.03462474 0.19082557
-0.062053662 0.034659412 0.19084539
-0.062042959 0.034668479 0.19084959
-0.062027551 0.03465566 0.19085488
-0.062014401 0.034635015 0.19086228
-0.061997455 0.034612831 0.19086593
-0.061991487 0.034570392 0.19087228
-0.061979424 0.034550816 0.19088183
-0.061965942 0.034562211 0.19088732
-0.061955765 0.034531973 0.19089162
-0.061943971 0.034512475 0.19089322
-0.061938461 0.034491897 0.19089945
-0.061935175 0.034492303 0.19090119
-0.061927903 0.034482691 0.19090633
-0.061908245 0.034444597 0.19091058
-0.061904449 0.034445304 0.19091067
-0.061898716 0.034478836 0.19090806
-0.061887372 0.034514114 0.19090581
-0.061876487 0.034538195 0.19090667
-0.061860453 0.034585051 0.19090444
-0.06180533 0.034597345 0.19091584
-0.061726563 0.034603294 0.19094001
-0.061636247 0.034551427 0.19096932
-0.061576497 0.034494661 0.19099905
-0.06149343 0.034475312 0.19103853
-0.061394598 0.034479726 0.19108577
-0.061311707 0.034447685 0.19114141
-0.021701552 0.04351129 0.23908186
-0.021678537 0.043409161 0.23909082
-0.021666626 0.043339498 0.23910108
-0.021667155 0.043411151 0.23916991
-0.021677624 0.043641843 0.23923542
-0.021669269 0.043664679 0.23925476
-0.02164641 0.043567851 0.23925906
-0.021624126 0.043298766 0.23920803
-0.02158235 0.042929173 0.23911382
-0.02156302 0.042745043 0.23904258
-0.021550898 0.042701501 0.23894951
-0.021535996 0.04261139 0.23890717
0.018800367 0.052745413 0.28732339
0.018827664 0.052576754 0.28735116
0.018854886 0.052407827 0.28737706
-0.15014012 0.045665111 0.24465735
-0.15006308 0.045864571 0.24476467
-0.14997269 0.046041001 0.24488126
-0.14986011 0.046256807 0.24499667
-0.14977065 0.046393059 0.2450783
-0.14970116 0.046508465 0.24512796
-0.14964442 0.046599001 0.2451738
-0.14958866 0.046693284 0.24520642
-0.1495406 0.046753842 0.24524812
-0.14946987 0.046883497 0.24530663
-0.14938827 0.0470182 0.2453839
-0.14930275 0.047149155 0.24547715
-0.14922206 0.047285158 0.24556017
-0.14914216 0.047406822 0.24565329
-0.14905977 0.04750061 0.24575076
-0.0625664 0.035307322 0.19060975
-0.062481023 0.035253536 0.1906611
-0.06238135 0.035155345 0.1906818
-0.062292576 0.0350338 0.19069724
-0.062238991 0.034931008 0.19070074
-0.062193748 0.034844335 0.19071735
-0.062152203 0.034785401 0.19074485
-0.062083717 0.034790255 0.19080548
-0.062065128 0.034824427 0.19082557
-0.062043902 0.034835 0.19083714
-0.062040038 0.034868088 0.19083859
-0.06203001 0.034857012 0.19084249
-0.062014922 0.034846887 0.19084676
-0.062004808 0.034816135 0.19085269
-0.061994925 0.034796003 0.19085807
-0.061985891 0.034776486 0.19086564
-0.061983272 0.034808174 0.19086733
-0.061975177 0.034777343 0.1908741
-0.061967347 0.03475786 0.19087654
-0.06195331 0.034728833 0.19087942
-0.061949179 0.034729287 0.19088285
-0.061943986 0.034719195 0.19088414
-0.061922155 0.034703922 0.19088662
-0.061916698 0.034747928 0.19088781
-0.061902091 0.034751885 0.19088925
-0.061889078 0.034755234 0.19088718
-0.061844904 0.034754656 0.19088718
-0.061793804 0.034671262 0.19089215
-0.061748825 0.034666192 0.19089791
-0.061679747 0.034638904 0.19091523
-0.061586756 0.034664415 0.19097349
-0.061490078 0.034702163 0.19103175
-0.061393075 0.034732856 0.19108436
-0.021760955 0.044013329 0.23905797
-0.021745155 0.043911833 0.23906815
-0.021736013 0.043906491 0.239081
-0.021724395 0.04393499 0.23915689
-0.021740764 0.044157561 0.23920621
-0.021724798 0.04409261 0.23921199
-0.021708764 0.044027556 0.23921701
-0.021677263 0.043814935 0.23921084
-0.021632282 0.043435961 0.23910169
-0.021600913 0.043124568 0.23900844
-0.021589749 0.04300962 0.23893231
-0.02157931 0.042986624 0.23888515
0.018747153 0.053424038 0.28721246
0.018751372 0.053330868 0.28722915
0.018773142 0.053163245 0.28725302
-0.15006076 0.045941081 0.24472673
-0.14996864 0.046122279 0.24484773
-0.14987752 0.046269041 0.24494703
-0.14978085 0.04642462 0.2450459
-0.14967898 0.046582472 0.24513061
-0.14962469 0.046674673 0.24516979
-0.14956443 0.046781607 0.24521095
-0.14949915 0.046879251 0.24526735
-0.14946076 0.046948124 0.24530423
-0.14939757 0.047045611 0.24536966
-0.14932109 0.04718313 0.24544452
-0.14923638 0.047314566 0.24553736
-0.14913546 0.047479525 0.24564303
-0.14902924 0.047642641 0.24575377
-0.14894411 0.047778808 0.24585885
-0.1488287 0.048015177 0.24598494
-0.14869052 0.048260015 0.24617247
-0.14846681 0.048728123 0.24648441
-0.062628731 0.03567918 0.19058365
-0.062528811 0.035625752 0.19062255
-0.062431622 0.035501514 0.19064891
-0.062330235 0.035308275 0.19065976
-0.062292762 0.035170451 0.19063948
-0.062251493 0.035025414 0.19061908
-0.062232111 0.034964535 0.19063157
-0.062157527 0.034942251 0.19069955
-0.062098529 0.035050157 0.19078983
-0.062083934 0.03511693 0.19081265
-0.062076177 0.03515017 0.19081688
-0.062065091 0.035107832 0.19082084
-0.062046114 0.035046842 0.19082722
-0.062041689 0.035037264 0.1908298
-0.062034652 0.035080887 0.19083324
-0.062024485 0.03506133 0.19083799
-0.062020518 0.035061263 0.19084124
-0.06200964 0.03502037 0.19084629
-0.062002596 0.035033025 0.19085346
-0.061994933 0.035013396 0.1908558
-0.061976772 0.034974765 0.19086091
-0.061966401 0.034955535 0.19086356
-0.061943229 0.034931518 0.19086373
-0.061933123 0.034921467 0.19086541
-0.061912782 0.034881748 0.19086623
-0.061890967 0.034856699 0.19086646
-0.0618545 0.03482056 0.19087122
-0.061805338 0.034792162 0.19087812
-0.061744921 0.034735184 0.1908841
-0.061699897 0.034750175 0.19089428
-0.061643682 0.034777012 0.19091102
-0.061560035 0.034867417 0.19097325
-0.061455324 0.034939315 0.1910405
-0.0218169 0.044626351 0.23904923
-0.021800889 0.044609845 0.23907441
-0.021797426 0.044533841 0.2390902
-0.021798238 0.044651899 0.23914362
-0.021793252 0.044617549 0.23914866
-0.021777326 0.044552691 0.23915482
-0.021761326 0.044487733 0.23916021
-0.021741461 0.044395879 0.2391679
-0.021695891 0.044114754 0.23911966
-0.021652814 0.043661177 0.23902571
-0.021638932 0.043389454 0.23891224
-0.021629428 0.043331627 0.23885404
0.018664202 0.0541416 0.28709304
0.018685607 0.053977061 0.28711742
0.01870699 0.053812455 0.28714088
-0.14997561 0.046156637 0.24481662
-0.14987797 0.046317238 0.2449111
-0.14978439 0.046478841 0.24501804
-0.14969997 0.046610698 0.24508782
-0.14961582 0.046727858 0.24516527
-0.14956164 0.046818797 0.24520797
-0.14947732 0.046951205 0.2452783
-0.14943293 0.04703144 0.24532358
-0.14937937 0.047118414 0.24537787
-0.14930585 0.047239259 0.24545702
-0.14923686 0.047347955 0.24553169
-0.1491514 0.047476817 0.24562344
-0.14906289 0.047619626 0.24571796
-0.14896923 0.047796264 0.24581602
-0.14884388 0.048045106 0.24594586
-0.14871706 0.048301205 0.24608862
-0.14857787 0.048587408 0.24625157
-0.14838389 0.048967943 0.24653189
-0.14818858 0.049287781 0.24678722
-0.14796712 0.049616337 0.24704675
-0.06247199 0.03584443 0.19061446
-0.062370673 0.035655979 0.1906185
-0.062344253 0.035471238 0.19057921
-0.062331535 0.035314314 0.19052865
-0.0622993 0.035289176 0.19055268
-0.062209561 0.035274602 0.19065307
-0.062146552 0.035407327 0.19076756
-0.062142748 0.035502687 0.19078213
-0.062127516 0.035463985 0.19079149
-0.062107917 0.035413142 0.19080038
-0.062094823 0.035373375 0.19080348
-0.06208564 0.035352774 0.19080754
-0.062079832 0.035354242 0.19081019
-0.06207158 0.035333667 0.19081716
-0.062060062 0.035324957 0.1908228
-0.0620552 0.035357703 0.19082618
-0.062039815 0.035318363 0.19082917
-0.062039521 0.035329957 0.19082972
-0.062021371 0.035279457 0.19083811
-0.0620008 0.035220034 0.19084167
-0.06197359 0.035131149 0.19084565
-0.061939787 0.035086568 0.19084519
-0.061914507 0.035003718 0.1908488
-0.061890971 0.034952812 0.19085
-0.061837871 0.034949604 0.19085208
-0.061768837 0.034894466 0.19086149
-0.061748091 0.034890912 0.19086337
-0.061693192 0.034890134 0.19087268
-0.06166644 0.034933303 0.19088219
-0.061590541 0.0349853 0.19092166
-0.061516386 0.035093945 0.19098002
-0.021871919 0.045247246 0.23906524
-0.021862935 0.045178652 0.23907492
-0.021850659 0.045110818 0.23908335
-0.021845469 0.04507653 0.23908827
-0.021838572 0.04504231 0.23909205
-0.021820983 0.044977579 0.23909742
-0.021807721 0.044915766 0.23910244
-0.021784198 0.044793427 0.23911496
-0.021732679 0.044440661 0.23905002
-0.02168926 0.043980554 0.23896636
-0.021672817 0.043635804 0.23886655
0.018615315 0.054590195 0.28700697
0.018645387 0.054430384 0.28702614
0.018656721 0.054358318 0.28703496
-0.14987686 0.046373546 0.2448924
-0.14978676 0.046516102 0.24498713
-0.14970033 0.046635572 0.24508113
-0.1496072 0.04677986 0.24516793
-0.14956453 0.046843342 0.24520181
-0.14949052 0.046967704 0.245267
-0.14942591 0.047061678 0.2453268
-0.14935817 0.047188651 0.24539785
-0.14929517 0.047282279 0.24546751
-0.14923546 0.047380611 0.24553233
-0.14915258 0.047529321 0.2456229
-0.14906736 0.047672808 0.24571276
-0.14898022 0.047828406 0.24580058
-0.14888297 0.048005953 0.2459029
-0.14875877 0.048271362 0.24603373
-0.14863692 0.048520446 0.24617355
-0.1485053 0.048819259 0.24631293
-0.14832993 0.049179513 0.24654487
-0.14812596 0.049528826 0.24681287
-0.14794661 0.04981561 0.24704883
-0.062334746 0.035631996 0.19053975
-0.062254895 0.035692543 0.19065587
-0.06218636 0.035750367 0.19074871
-0.062197119 0.035856493 0.19075982
-0.062182479 0.035808813 0.19076964
-0.062162533 0.03574805 0.19077832
-0.062148951 0.035709057 0.1907814
-0.062134009 0.035680078 0.19078693
-0.062126745 0.035680864 0.19079286
-0.062117916 0.035671961 0.19079754
-0.062107306 0.035662398 0.19080403
-0.062104352 0.035684794 0.19080557
-0.062102363 0.035695914 0.19080831
-0.062083621 0.035656851 0.1908163
-0.062071577 0.035593852 0.19081675
-0.062056564 0.035553753 0.19081961
-0.062009413 0.035447866 0.190819
-0.06197606 0.03536728 0.190825
-0.061946172 0.035275593 0.19082753
-0.061884459 0.035189819 0.19083056
-0.061834257 0.035134818 0.19083747
-0.06178546 0.035101168 0.19084291
-0.061708413 0.035048336 0.19085972
-0.061676215 0.035046455 0.19086644
-0.061631214 0.03510949 0.19088376
-0.021918766 0.045605361 0.23901926
-0.021909464 0.045537844 0.2390288
-0.02190572 0.045503654 0.23903392
-0.021900315 0.045469638 0.23903862
-0.021893494 0.045467194 0.23903652
-0.021875933 0.045402605 0.23904151
-0.021868309 0.0453397 0.23904938
-0.02184226 0.04521668 0.23906007
-0.021813177 0.045098059 0.23907046
-0.021767657 0.04478221 0.23900642
0.018559102 0.055229187 0.28688309
0.018569285 0.055140764 0.28689981
0.018583942 0.055053491 0.2869145
0.018594541 0.054982737 0.28692141
-0.14979033 0.046525836 0.24497691
-0.14970425 0.046667807 0.24506992
-0.14961989 0.046799194 0.2451397
-0.14953493 0.046928912 0.24522284
-0.14948319 0.046998624 0.24527055
-0.1494095 0.04711955 0.24534206
-0.14934018 0.047243316 0.24541621
-0.14929868 0.047325112 0.24546421
-0.14921974 0.047454942 0.24555083
-0.14915322 0.047564946 0.24562278
-0.14905645 0.047744457 0.24572171
-0.14896654 0.047905654 0.24581476
-0.14888777 0.048062492 0.24589641
-0.14880358 0.048238806 0.24598029
-0.14868312 0.048492439 0.24610573
-0.14855734 0.048731927 0.24625033
-0.14843749 0.049015403 0.24637938
-0.14827849 0.04933219 0.24656306
-0.14810984 0.049680129 0.24677975
-0.147912 0.05003174 0.24703367
-0.14776447 0.050288737 0.2472001
-0.062264957 0.036089759 0.19069625
-0.062256705 0.036188383 0.19072463
-0.062258903 0.036213879 0.1907385
-0.062244195 0.036194969 0.19074836
-0.062220018 0.036104128 0.19075562
-0.06220847 0.036053348 0.19076295
-0.062201057 0.03604462 0.19076966
-0.062192749 0.036077704 0.1907783
-0.062181275 0.036080267 0.19078352
-0.062174588 0.036080979 0.19078906
-0.062158957 0.036051646 0.19079414
-0.062145878 0.036032818 0.19079967
-0.062132943 0.036013622 0.19080056
-0.062117163 0.035994407 0.19080304
-0.062099103 0.035944488 0.19080827
-0.062074531 0.035829414 0.19080859
-0.062038463 0.035753794 0.19080493
-0.062002815 0.03563045 0.19080766
-0.061925042 0.035475712 0.19081606
-0.061863534 0.035442464 0.19082329
-0.061787188 0.035342272 0.19082908
-0.06172489 0.035332721 0.19083287
-0.021971617 0.046029698 0.23896362
-0.0219652 0.045962289 0.23897287
-0.021951631 0.045862108 0.23898683
-0.021947766 0.045860369 0.23898546
-0.02193884 0.045795266 0.23899545
-0.021938888 0.045826863 0.23898888
-0.021923102 0.045732517 0.23899944
-0.021908829 0.045670666 0.23900388
-0.021897834 0.045608304 0.23900983
0.018518418 0.055770669 0.28677875
0.018534739 0.055598218 0.28681836
0.018534739 0.055598214 0.28681827
0.018534739 0.055598214 0.28681827
-0.14970866 0.046679318 0.2450597
-0.14961657 0.046840589 0.24513651
-0.14954427 0.046945311 0.24521482
-0.14949647 0.047018047 0.24525954
-0.14943555 0.047137566 0.24531701
-0.14935182 0.047280546 0.24540485
-0.1492895 0.04737889 0.24546984
-0.14919952 0.047549542 0.24557105
-0.14913948 0.047652241 0.24563533
-0.14904004 0.047837902 0.24573997
-0.14896841 0.047969338 0.24581143
-0.14885989 0.048173264 0.24592157
-0.14877087 0.048356552 0.24601071
-0.1486837 0.048528135 0.24610344
-0.14859104 0.048727762 0.24620029
-0.14847957 0.04894086 0.24632229
-0.14834814 0.049209904 0.24647112
-0.14823394 0.049478147 0.24659616
-0.14807425 0.049814362 0.24681115
-0.14791501 0.050124798 0.247005
-0.14775121 0.050384834 0.24718405
-0.062364258 0.036642414 0.19068095
-0.062342491 0.036614049 0.19070294
-0.062331703 0.03661637 0.19071549
-0.06232398 0.036587577 0.19072291
-0.062307078 0.036518488 0.19072984
-0.06228511 0.036469262 0.19073774
-0.062269207 0.036482517 0.19075032
-0.062248379 0.036485236 0.1907613
-0.062235776 0.03647716 0.19076894
-0.062220674 0.036436878 0.19077429
-0.062212314 0.036438785 0.19078091
-0.062203724 0.036439568 0.19078435
-0.062186603 0.036410742 0.19078623
-0.062170234 0.036402926 0.19078971
-0.062150624 0.03636352 0.19078942
-0.062133845 0.0362898 0.1907918
-0.062101182 0.036166918 0.19079381
-0.062069304 0.036077149 0.19079506
-0.061993595 0.035895467 0.19079417
-0.022030031 0.046448305 0.23890978
-0.022011939 0.0463515 0.23892027
-0.022001056 0.046252083 0.23893297
-0.021996934 0.046218861 0.23893724
-0.021991197 0.046185862 0.23894152
-0.021983856 0.046153076 0.23894577
-0.021975443 0.046121657 0.23894829
-0.021968646 0.0460901 0.23895119
-0.021954879 0.046027906 0.23895675
0.018476987 0.056148119 0.28672668
0.018471977 0.056217942 0.28671968
0.018488718 0.056050323 0.28675875
0.018493783 0.055980276 0.28676596
-0.149628 0.046846054 0.24512236
-0.14953943 0.047010344 0.24521562
-0.14947122 0.047116823 0.24527979
-0.14941888 0.047208983 0.24532902
-0.149344 0.047324423 0.24540736
-0.14927401 0.047468275 0.24548461
-0.14919756 0.047623985 0.24556924
-0.14909393 0.047806617 0.24567261
-0.14902169 0.047949292 0.24575099
-0.14894322 0.048088688 0.24583086
-0.14884667 0.048260011 0.24593084
-0.14874554 0.048471041 0.24603003
-0.14864545 0.048680104 0.2461343
-0.14856777 0.048836779 0.24621567
-0.14850281 0.048963115 0.24627037
-0.14839512 0.049168102 0.24639811
-0.14827271 0.049419925 0.24654202
-0.14814013 0.049703833 0.24668007
-0.14797929 0.050048098 0.24689664
-0.14784127 0.05030781 0.24706186
-0.1476817 0.050580874 0.24725191
-0.14756401 0.050801005 0.24737798
-0.062409259 0.037005514 0.19067258
-0.062396172 0.037006922 0.19068827
-0.062373836 0.036937729 0.19069916
-0.0623638 0.036888871 0.19070694
-0.062348899 0.036870591 0.19071613
-0.062337238 0.036883678 0.190725
-0.062320076 0.036896963 0.19073735
-0.062305123 0.036878418 0.19074714
-0.062295228 0.036859456 0.19075252
-0.06227728 0.03683183 0.19075915
-0.062262796 0.036823642 0.19076112
-0.06223128 0.036765259 0.19076478
-0.062220737 0.036765076 0.19076869
-0.062202506 0.036736451 0.19077146
-0.062181726 0.036707114 0.19077682
-0.062144928 0.036622472 0.19077747
-0.06212784 0.036524095 0.19078013
-0.022100402 0.046892464 0.23887451
-0.02208049 0.046798632 0.23887372
-0.022048704 0.046639726 0.23887832
-0.022041658 0.046573918 0.23888551
-0.022035759 0.046541423 0.23888959
-0.022027979 0.046541288 0.23888704
-0.022020139 0.046477642 0.23889701
-0.022013625 0.046446018 0.23890084
-0.022000385 0.046383593 0.23890784
0.018444022 0.05653533 0.28666112
0.018443776 0.056606714 0.286652
0.01846087 0.056440424 0.28668913
0.018460868 0.05644042 0.28668913
-0.14952898 0.047124147 0.24518918
-0.14944775 0.047271311 0.24528402
-0.14938751 0.047358163 0.24535142
-0.14932486 0.047472473 0.24541046
-0.14925154 0.047605954 0.24549145
-0.14919935 0.047694918 0.24554752
-0.14908046 0.047930997 0.24567221
-0.14898971 0.048091076 0.24576524
-0.1489073 0.048236016 0.24585313
-0.14882444 0.048387989 0.24593958
-0.14872377 0.048580743 0.24605142
-0.14861996 0.048810132 0.24614973
-0.14852965 0.048966844 0.24624857
-0.14847527 0.04909623 0.24630497
-0.14837617 0.049270853 0.24639831
-0.14829499 0.04943962 0.2464906
-0.14818163 0.049657408 0.24662641
-0.1480415 0.049960937 0.24679434
-0.14788526 0.050301664 0.24699232
-0.14768779 0.050676052 0.24724557
-0.14755629 0.050946597 0.24738683
-0.1474265 0.051184654 0.2475484
-0.14736867 0.051266048 0.24761486
-0.062462013 0.037444323 0.1906493
-0.062450204 0.037406966 0.19065781
-0.062431857 0.037358601 0.190672
-0.062410019 0.037289072 0.19068731
-0.062401555 0.037259933 0.19069496
-0.062388603 0.037284244 0.19070141
-0.062377181 0.037276249 0.19071071
-0.062354244 0.037217956 0.19071837
-0.062348429 0.037197877 0.19072226
-0.062328007 0.037160337 0.19073007
-0.062308017 0.037131935 0.19073983
-0.062292699 0.037124321 0.19074336
-0.062273066 0.037105873 0.19074737
-0.062248457 0.037077658 0.19074987
-0.062236857 0.037066285 0.19075651
-0.062198792 0.037021674 0.19076014
-0.022125503 0.04711701 0.23883753
-0.022114601 0.047087885 0.23882708
-0.02209021 0.046993244 0.23882496
-0.02208082 0.046960924 0.23882708
-0.022071939 0.046896636 0.23883587
-0.022064498 0.046832506 0.23884618
-0.022058224 0.046800721 0.23885055
-0.022053605 0.046768885 0.23885559
0.018380351 0.057126202 0.28660893
0.018380348 0.057126198 0.28660899
0.018398004 0.057060789 0.28660223
0.018406879 0.05699132 0.28660312
-0.14942601 0.047414519 0.2452793
-0.14934735 0.047553144 0.24536467
-0.14929594 0.047636967 0.24542031
-0.14922512 0.047750425 0.24549776
-0.14915815 0.047869943 0.24557388
-0.14909127 0.048001371 0.24564026
-0.14897524 0.048201688 0.24576283
-0.14887084 0.048413433 0.24587509
-0.14879309 0.048534438 0.2459603
-0.14869851 0.048706532 0.24605386
-0.14859623 0.048903048 0.24616869
-0.14850363 0.049102101 0.24625692
-0.14842594 0.049269639 0.24634875
-0.14833577 0.049419567 0.24645416
-0.14827955 0.04953061 0.24650906
-0.14817451 0.049758613 0.24661998
-0.14806673 0.049992025 0.24675359
-0.1479345 0.050265133 0.24690959
-0.14775442 0.050636847 0.24713866
-0.14758275 0.050958134 0.24735184
-0.14742571 0.051266681 0.24754523
-0.14731207 0.051477652 0.24767362
-0.14723791 0.051593821 0.24775803
-0.1471545 0.051701773 0.24784735
-0.1471103 0.051722147 0.24788891
-0.06251017 0.037877955 0.19062372
-0.062496543 0.037829772 0.19063345
-0.062485717 0.037781514 0.19064082
-0.062458467 0.037691798 0.19065765
-0.062441632 0.037641857 0.19066751
-0.062431164 0.037623901 0.19067438
-0.06242143 0.037594836 0.19068149
-0.062404465 0.037545267 0.19069149
-0.062392082 0.037527665 0.19069315
-0.062376101 0.037477672 0.19070254
-0.062352914 0.037461244 0.19071102
-0.062343795 0.037441041 0.19071569
-0.062333971 0.037461855 0.19072275
-0.062310103 0.037452448 0.19073454
-0.062274441 0.037397198 0.19073708
-0.0622533 0.037388545 0.19074418
-0.022173025 0.04750625 0.23878671
-0.022159871 0.047442224 0.23878951
-0.022143168 0.047379691 0.23878659
-0.022133388 0.047347255 0.23878641
-0.022123948 0.047283515 0.23878849
-0.02211692 0.047218904 0.23879914
-0.022110859 0.047186866 0.23880363
-0.022106415 0.04715471 0.23880853
0.018308135 0.05762871 0.28658789
0.018318115 0.057642374 0.28656918
0.018343477 0.05750766 0.28656361
0.018378267 0.057304509 0.2865549
-0.14924802 0.047843795 0.24543613
-0.14917658 0.047952972 0.24551633
-0.1491231 0.048044551 0.24558255
-0.14902958 0.048206285 0.24568462
-0.14894794 0.048342574 0.24577557
-0.14885704 0.048495185 0.24587101
-0.14875332 0.048690997 0.2459776
-0.14866556 0.04886426 0.24607612
-0.14857325 0.049026228 0.2461824
-0.14848571 0.049210139 0.24629021
-0.14840174 0.049370252 0.24638435
-0.1482939 0.04959432 0.24649654
-0.14821446 0.049773097 0.24658832
-0.14812644 0.049959496 0.24668695
-0.14803641 0.050158326 0.24679048
-0.14792237 0.050379034 0.24692118
-0.14779846 0.050618596 0.24707131
-0.14763075 0.050932728 0.24726997
-0.14748341 0.051195547 0.24745914
-0.14731444 0.051519092 0.24766684
-0.14720643 0.051712461 0.24779283
-0.14709835 0.05188524 0.24792381
-0.14699925 0.052018557 0.24802557
-0.14692725 0.052121542 0.24810334
-0.1468017 0.052312233 0.24824178
-0.14664862 0.05253331 0.24840795
-0.062559023 0.038297422 0.1905982
-0.062544741 0.038241629 0.19060767
-0.062529959 0.038194545 0.19061784
-0.06251771 0.038093507 0.19062376
-0.062493421 0.0380027 0.19063839
-0.062477078 0.037942465 0.190648
-0.062467169 0.037913434 0.19065464
-0.062453359 0.037874185 0.19066285
-0.062444352 0.03784385 0.19066797
-0.062427688 0.037803799 0.19067834
-0.062408097 0.037776388 0.19068323
-0.062395155 0.037778385 0.19069305
-0.062378656 0.037789751 0.19070199
-0.062363278 0.037790135 0.19071387
-0.062331535 0.037765656 0.1907229
-0.062291741 0.037713908 0.19072808
-0.022224788 0.047892701 0.23874491
-0.022196952 0.047799032 0.23874311
-0.022187065 0.047766954 0.23874339
-0.022182114 0.047766525 0.23874164
-0.022181237 0.047733672 0.23874697
-0.022177057 0.047635678 0.23876427
-0.022171175 0.047603309 0.23876867
-0.022171831 0.047602355 0.23877105
0.018271191 0.057998426 0.2865575
0.018283155 0.057929277 0.28655553
0.018280938 0.058019798 0.28652215
0.018314002 0.057816908 0.28651428
-0.14908177 0.048231397 0.24560882
-0.14900252 0.048362128 0.24570778
-0.14890583 0.048516728 0.24581659
-0.14882144 0.048669145 0.24590401
-0.14875025 0.048802946 0.24598472
-0.14864425 0.04898715 0.24609379
-0.14854011 0.049174 0.24620815
-0.14847206 0.049323425 0.24629499
-0.14836684 0.049544185 0.24641922
-0.14828639 0.049754236 0.2465139
-0.14817822 0.049943231 0.24663979
-0.14808732 0.050131917 0.24672945
-0.14798993 0.05032244 0.24683517
-0.14787424 0.050521292 0.24696912
-0.14778648 0.050710469 0.247063
-0.14764337 0.050967894 0.24724837
-0.14748625 0.051247366 0.24744995
-0.14735861 0.05148796 0.24760346
-0.14721218 0.051748402 0.24778266
-0.14709385 0.051946513 0.24792445
-0.1469496 0.052179381 0.24809256
-0.14681967 0.052378695 0.2482366
-0.14670607 0.052535251 0.24835545
-0.14654659 0.052772872 0.24854685
-0.1463227 0.053079467 0.24881868
-0.14609569 0.05336589 0.24908377
-0.062592708 0.038574584 0.19057727
-0.062583499 0.038570173 0.19058841
-0.062572666 0.038533296 0.19059707
-0.062559828 0.038454648 0.19060387
-0.062542379 0.038364235 0.1906143
-0.062523998 0.03825026 0.19062333
-0.062514082 0.038221337 0.19063009
-0.06250041 0.038182184 0.19063878
-0.062490493 0.038161937 0.19064555
-0.062475983 0.038143378 0.19065604
-0.062465057 0.038132939 0.19066375
-0.06245181 0.038112905 0.19067384
-0.062437683 0.038125038 0.19068722
-0.062418655 0.038118232 0.19069524
-0.062391669 0.03810294 0.19070171
-0.022257233 0.048278838 0.23868783
-0.022243792 0.048248209 0.23868586
-0.022228247 0.04818349 0.23869045
-0.022228247 0.048183486 0.23869045
-0.022226209 0.048084285 0.23870745
-0.022231165 0.048114035 0.23871221
-0.022224555 0.048080053 0.23871563
-0.022225101 0.048006363 0.23873173
0.018218132 0.058594838 0.28651753
0.018236669 0.058444601 0.28652731
0.018239332 0.058371536 0.28652757
0.018250855 0.05830089 0.28652373
-0.14886871 0.048768751 0.2458583
-0.1487696 0.048946936 0.24597634
-0.14868687 0.049052827 0.24606296
-0.1485969 0.049209524 0.24616544
-0.14852928 0.049338154 0.24624649
-0.14843412 0.049536552 0.24635197
-0.14833079 0.049729045 0.24646634
-0.14824939 0.049931537 0.24654858
-0.14813402 0.050124425 0.24667786
-0.14806436 0.050244298 0.24675032
-0.14794421 0.05047898 0.24688332
-0.14783637 0.050667841 0.2470078
-0.14775735 0.050820556 0.24710105
-0.14764553 0.05101537 0.24723966
-0.14753163 0.051222593 0.24738915
-0.14741191 0.051437084 0.24754515
-0.14728105 0.051657438 0.24769732
-0.14711767 0.051951461 0.24789976
-0.146983 0.052177012 0.24805987
-0.14680268 0.05247226 0.24826747
-0.14661917 0.052760329 0.24848667
-0.1464331 0.053008538 0.24870403
-0.1462197 0.053281274 0.24896654
-0.1460318 0.053544298 0.24917939
-0.14585289 0.053768061 0.24937023
-0.14566422 0.054017298 0.24957164
-0.1453945 0.054377183 0.24989921
-0.062658712 0.038801268 0.19051993
-0.06262973 0.03881897 0.19054972
-0.062621303 0.038836837 0.19056301
-0.062616535 0.038850199 0.19056821
-0.06260103 0.038752999 0.19058107
-0.062584944 0.038673203 0.19059289
-0.062565863 0.038569443 0.19060402
-0.062557027 0.038519666 0.19060934
-0.06254568 0.038521543 0.19061996
-0.062539011 0.038511742 0.19062561
-0.062530465 0.03851226 0.19063389
-0.06251391 0.038492739 0.19064733
-0.062505148 0.038472351 0.19065307
-0.06248853 0.038441818 0.19066596
-0.062470756 0.038413797 0.19067018
-0.062438827 0.038369596 0.19068225
-0.022300042 0.048662271 0.23862834
-0.02228665 0.048632402 0.23862764
-0.02227507 0.048601348 0.23862866
-0.02227135 0.048568483 0.23863353
-0.022273533 0.048497576 0.2386544
-0.022290297 0.048606008 0.23865938
-0.022429442 0.048971314 0.2388124
-0.022458399 0.049001805 0.23889479
0.018168706 0.059129458 0.28648168
0.018182667 0.058977295 0.28648832
0.018196564 0.058825213 0.28649405
0.018207567 0.058752771 0.28648666
-0.14859958 0.049523618 0.24619699
-0.14849502 0.049693603 0.24631155
-0.14843628 0.049739152 0.24636662
-0.14837071 0.049814414 0.24642605
-0.14828746 0.049977962 0.24652074
-0.14819363 0.050129756 0.24661593
-0.14811285 0.050249349 0.24670403
-0.14799502 0.050464794 0.24683113
-0.147919 0.050589077 0.24691398
-0.14780292 0.050793458 0.24705124
-0.14772013 0.050941147 0.24714908
-0.1476116 0.051143721 0.24727795
-0.14752817 0.051283002 0.24738587
-0.14741245 0.051489703 0.24753177
-0.14729391 0.051688787 0.24768443
-0.14718013 0.051887903 0.24781971
-0.14701977 0.052153952 0.24801029
-0.14684086 0.052462567 0.24822713
-0.14659944 0.052835289 0.24851829
-0.14640078 0.05312996 0.24875824
-0.14618875 0.053415105 0.24902008
-0.14601825 0.053645793 0.24921377
-0.14586359 0.053861476 0.24938866
-0.1456804 0.054097023 0.24958709
-0.1454896 0.054339148 0.24978958
-0.14524288 0.054666016 0.25008804
-0.14490995 0.055079598 0.25048095
-0.14454538 0.055547748 0.25093043
-0.062725574 0.039024428 0.19045167
-0.062677659 0.03905654 0.19051038
-0.062663928 0.039079636 0.19052641
-0.062653333 0.039064761 0.19054016
-0.062640943 0.039029714 0.19055462
-0.06262292 0.038948145 0.19056505
-0.06261345 0.038883615 0.19057189
-0.062605046 0.038856972 0.1905822
-0.062588386 0.038819026 0.19059822
-0.062581986 0.038820349 0.19060522
-0.062571235 0.038810324 0.19061594
-0.062566973 0.038831245 0.19062178
-0.062552877 0.038768522 0.1906296
-0.062530868 0.038723655 0.19063716
-0.062518403 0.038700145 0.19064678
-0.022352064 0.049074784 0.23856574
-0.022338673 0.049045555 0.23856553
-0.022327017 0.049015038 0.23856637
-0.022319255 0.048981804 0.23857664
-0.022340769 0.048989099 0.23861288
-0.022481252 0.049389664 0.23878102
-0.022507928 0.049758211 0.23903748
-0.022499457 0.049874123 0.23915316
0.018112913 0.059811123 0.28648415
0.01811628 0.05973269 0.28649387
0.018143866 0.059509207 0.28647688
0.018155565 0.059432223 0.28648183
-0.14848004 0.04994642 0.24636634
-0.14837329 0.050083887 0.24647109
-0.1482823 0.050150812 0.24655133
-0.14823754 0.050192244 0.24659036
-0.1481557 0.05029536 0.24667731
-0.14804766 0.050495349 0.24678743
-0.14792864 0.050700095 0.24691948
-0.14784561 0.050816674 0.24700382
-0.14774995 0.050968807 0.24712153
-0.14767973 0.051075377 0.24720336
-0.14761138 0.051193316 0.24727546
-0.14752749 0.051339738 0.24737661
-0.14741354 0.051538542 0.24752635
-0.14731713 0.051702119 0.24764313
-0.14719084 0.051905874 0.24780588
-0.14705497 0.052123956 0.24797186
-0.14687502 0.052436806 0.24818465
-0.14670545 0.052725036 0.2483858
-0.14644386 0.053148888 0.24871224
-0.14619052 0.053463805 0.24902667
-0.14603701 0.053664427 0.24919762
-0.1458841 0.053865802 0.24937093
-0.14570864 0.054135781 0.24957697
-0.14553373 0.05437227 0.24976587
-0.14534473 0.054650925 0.24998555
-0.14509395 0.054960657 0.25028107
-0.14471839 0.055447619 0.25072688
-0.14437497 0.055901539 0.25114822
-0.14397404 0.056334898 0.25163984
-0.062786832 0.039348822 0.19039083
-0.062741779 0.039360158 0.19045374
-0.062714197 0.039378989 0.19048613
-0.062696494 0.039350305 0.19050467
-0.062689357 0.039345101 0.19051291
-0.062667012 0.039265174 0.190533
-0.062656559 0.039193388 0.19054194
-0.062647954 0.039121941 0.19054917
-0.062631883 0.039104186 0.1905676
-0.062626407 0.039137293 0.19057679
-0.062617347 0.039149638 0.19058619
-0.062606566 0.039097905 0.19059651
-0.062588267 0.039081223 0.190603
-0.062572308 0.039008096 0.19061324
-0.062546819 0.038905676 0.19062676
-0.0224071 0.049513772 0.2385039
-0.022396905 0.049483553 0.23850565
-0.022383133 0.049453951 0.23850155
-0.022382163 0.049352251 0.23853695
-0.022459958 0.049614467 0.23861933
-0.02253684 0.049982078 0.23884615
-0.022535978 0.050351303 0.23904264
0.018061398 0.060402226 0.28649139
0.018061398 0.060402233 0.28649139
0.018091684 0.060104288 0.28648105
0.018113093 0.05995648 0.28647068
-0.14826837 0.050395187 0.24659215
-0.14816511 0.050485142 0.24669388
-0.14807095 0.050598469 0.24679032
-0.14799067 0.050740365 0.24686609
-0.14788458 0.050855152 0.24698162
-0.14779057 0.051012781 0.24707839
-0.1477081 0.051139202 0.24717025
-0.14760818 0.051284626 0.24729341
-0.14756975 0.05134986 0.24733192
-0.14747965 0.0514801 0.24743709
-0.14741312 0.051597107 0.24753036
-0.14730902 0.051768396 0.24765268
-0.14720179 0.051938988 0.24777924
-0.14708005 0.052145649 0.24793765
-0.14692283 0.05239252 0.24812585
-0.14676501 0.052654743 0.24831861
-0.1465435 0.053041659 0.248596
-0.14628157 0.053430326 0.24891813
-0.14606051 0.053734865 0.24918813
-0.14590207 0.053935662 0.24937305
-0.14576881 0.054104336 0.24952132
-0.14563145 0.054315936 0.24968261
-0.14545161 0.054550923 0.24987765
-0.14524011 0.054842506 0.25011063
-0.14496854 0.055197872 0.250433
-0.14462137 0.055663101 0.25085101
-0.14421339 0.056286268 0.25137642
-0.14388995 0.056641605 0.25177413
-0.14359985 0.056946266 0.25213385
-0.062850855 0.03972673 0.19033608
-0.062796012 0.039684396 0.19040248
-0.062755689 0.0396761 0.19044718
-0.06273932 0.039655276 0.19046527
-0.06272646 0.039621379 0.19048062
-0.062713012 0.039571084 0.19049221
-0.062704422 0.039522704 0.19050123
-0.06269405 0.039471898 0.190512
-0.062677026 0.039443225 0.190532
-0.06266845 0.039444096 0.19054192
-0.06265761 0.039446943 0.19055678
-0.062639967 0.039418198 0.19056384
-0.062632121 0.039364256 0.19056705
-0.062600277 0.039220739 0.19058351
-0.062562592 0.039166179 0.1905874
-0.022502981 0.049974795 0.23851842
-0.022468088 0.049937416 0.23845752
-0.022446191 0.049851868 0.23845153
-0.022454675 0.049838725 0.23850757
-0.022530023 0.050073083 0.23861115
-0.02255985 0.050527703 0.23883322
-0.022561282 0.050658166 0.23899987
0.017996976 0.060979124 0.28647488
0.018002708 0.06096445 0.28645563
0.01802364 0.06082106 0.28644711
0.018045407 0.060677033 0.28645334
-0.14806047 0.050776254 0.24680834
-0.14794026 0.050925843 0.24693371
-0.1478446 0.051066268 0.24703655
-0.14776689 0.051163316 0.24711391
-0.14764321 0.051357321 0.24725497
-0.14757034 0.051445555 0.24734175
-0.14750561 0.051546518 0.24741356
-0.14743651 0.051637631 0.2474881
-0.1473878 0.051700912 0.24754272
-0.14728221 0.051873352 0.2476804
-0.14718792 0.052035451 0.24779652
-0.14707412 0.052205205 0.24793595
-0.14692107 0.052450858 0.24812554
-0.14678472 0.052686956 0.24829303
-0.14660476 0.053000767 0.24852176
-0.14639659 0.053303346 0.24877168
-0.14614531 0.053678527 0.24909921
-0.14593898 0.053942926 0.24934036
-0.14582846 0.054068115 0.24946131
-0.14569414 0.054239426 0.24960636
-0.14554465 0.054458782 0.24977639
-0.14535819 0.054711018 0.24999017
-0.14514817 0.05500719 0.25021949
-0.14488658 0.055334639 0.25052202
-0.14459904 0.055801637 0.25089756
-0.14425954 0.056254588 0.25129804
-0.14390424 0.056791916 0.25174761
-0.14365526 0.057101488 0.25205603
-0.1434124 0.057349 0.2523396
-0.062909588 0.040130522 0.19028717
-0.06286227 0.040077828 0.19033368
-0.062809207 0.040022541 0.19039012
-0.062781855 0.039973732 0.19041775
-0.062764741 0.03995578 0.19043627
-0.062756747 0.039929502 0.19044548
-0.06274841 0.039879695 0.19045596
-0.062736526 0.039831951 0.1904708
-0.062722623 0.03977349 0.19048829
-0.062709838 0.039752085 0.19050004
-0.062698215 0.039786227 0.19050673
-0.062681943 0.039735258 0.1905234
-0.06266132 0.039645832 0.19053665
-0.062622584 0.03951082 0.1905486
-0.062578045 0.039464649 0.19056265
-0.022594146 0.050478607 0.23850068
-0.022555746 0.050341491 0.23845159
-0.02252732 0.050226834 0.23844917
-0.022539167 0.050282955 0.23847827
-0.022609875 0.050389525 0.2386378
-0.022598406 0.050892387 0.23877214
0.017933153 0.061449762 0.28637189
0.017939618 0.061436217 0.28635228
0.017952481 0.061364166 0.28636456
0.017952483 0.061364166 0.28636459
-0.14784603 0.051168952 0.24703579
-0.14775772 0.051261071 0.24712498
-0.14766978 0.05139384 0.24722297
-0.14758727 0.05150342 0.24730927
-0.14748703 0.051656831 0.24743858
-0.14740457 0.05177347 0.24752532
-0.14734554 0.051856972 0.24759401
-0.14728156 0.051948357 0.24767382
-0.147167 0.052114729 0.24781315
-0.14704707 0.052306633 0.2479668
-0.1469233 0.052514538 0.24812286
-0.14675799 0.052792031 0.24833405
-0.1465984 0.053045679 0.24853276
-0.14641705 0.053333845 0.24875061
-0.14622997 0.053614374 0.24898739
-0.14601067 0.053883687 0.24925275
-0.14580797 0.054166652 0.24949169
-0.14569256 0.054297499 0.24962197
-0.14557385 0.054468729 0.24975495
-0.14543363 0.054664552 0.24990846
-0.14527985 0.054857202 0.25007999
-0.14506589 0.055151206 0.25031438
-0.1448206 0.055558566 0.25062734
-0.14456137 0.055909865 0.25091591
-0.14426035 0.056363124 0.2512936
-0.14397524 0.056752324 0.25163457
-0.14367752 0.05720127 0.2520141
-0.14344175 0.057563316 0.25234932
-0.14312279 0.057934653 0.2527293
-0.063228421 0.041270379 0.19026786
-0.062991366 0.040544726 0.19024538
-0.062920094 0.040443804 0.19028808
-0.062866002 0.040362645 0.19031844
-0.062834732 0.040314522 0.19034272
-0.062798798 0.040283944 0.19038539
-0.062784664 0.040252436 0.19039966
-0.062779747 0.040234033 0.19040412
-0.062770277 0.040176552 0.19042024
-0.062754445 0.040145766 0.19042985
-0.062744871 0.04016567 0.19044265
-0.06273286 0.040145487 0.19046268
-0.062713437 0.040112332 0.19048233
-0.062679902 0.040026035 0.19049743
-0.062647909 0.039895218 0.19051857
-0.062604927 0.039871179 0.19052972
-0.022693124 0.050871935 0.23855625
-0.022665653 0.050793741 0.23850454
-0.022614945 0.050687559 0.23843478
-0.022602757 0.050630011 0.23842758
-0.022604119 0.050538912 0.23848639
-0.022635285 0.050794195 0.2385677
-0.022628626 0.051118456 0.2387033
0.017902927 0.061724726 0.28629205
0.017912405 0.061653435 0.286309
0.017925961 0.06158305 0.28632498
0.017925959 0.061583057 0.28632495
-0.14772937 0.051373098 0.24715428
-0.14768068 0.051423632 0.24719687
-0.14756183 0.051574495 0.24733329
-0.14745378 0.051759709 0.24745864
-0.14736609 0.051894046 0.2475753
-0.14725858 0.052046772 0.24769029
-0.14715701 0.052214485 0.24781887
-0.14705992 0.05235035 0.24793997
-0.14692554 0.052570473 0.24811728
-0.14676555 0.052828878 0.24832422
-0.14661072 0.053070053 0.24851468
-0.14641321 0.053409114 0.24877334
-0.14624219 0.053654872 0.24897324
