# .PCD v0.7 - Point Cloud Data file format
VERSION 0.7
FIELDS x y z
SIZE 4 4 4
TYPE F F F
COUNT 1 1 1
WIDTH 1311
HEIGHT 1
VIEWPOINT 0 0 0 1 0 0 0
POINTS 1311
DATA ascii
-0.05363081 -0.069165044 0.19851063
-0.053311329 -0.069276243 0.19882978
-0.05296224 -0.069350384 0.19904256
-0.052584186 -0.069387443 0.19914894
-0.052205704 -0.06942451 0.19925532
-0.051854443 -0.069498643 0.19946809
-0.05150231 -0.069572777 0.19968085
-0.051149312 -0.06964691 0.19989362
-0.050714429 -0.069609836 0.19978723
-0.050306771 -0.069609836 0.19978723
-0.049925685 -0.06964691 0.19989362
-0.049596865 -0.069758102 0.20021276
-0.049292881 -0.069906369 0.20063829
-0.048961245 -0.070017569 0.20095745
-0.048628304 -0.070128769 0.2012766
-0.048268575 -0.070202895 0.20148936
-0.047907982 -0.070277028 0.20170213
-0.047571566 -0.07038822 0.20202127
-0.047258683 -0.070536487 0.2024468
-0.046968684 -0.07072182 0.20297873
-0.046725307 -0.070981279 0.2037234
-0.046454713 -0.071203679 0.20436171
-0.046157546 -0.071389005 0.20489362
-0.045810714 -0.071500205 0.20521277
-0.04550964 -0.071685538 0.20574468
-0.045183081 -0.071833797 0.20617022
-0.044877883 -0.07201913 0.20670213
-0.010536864 -0.088179879 0.25308511
-0.010012029 -0.088105746 0.25287235
-0.0094760759 -0.08792042 0.25234044
-0.0089460723 -0.087772153 0.25191489
-0.0084249265 -0.08769802 0.25170213
-0.0079213679 -0.08780922 0.25202128
-0.0074321409 -0.088105746 0.25287235
-0.0069481693 -0.088513479 0.25404257
-0.0064513441 -0.088810004 0.25489363
-0.0059386683 -0.088921189 0.25521275
0.032502372 -0.10756536 0.30872339
0.033120897 -0.1075283 0.30861703
0.03370408 -0.10738003 0.30819148
0.03428553 -0.10723177 0.30776596
0.034865241 -0.10708351 0.30734041
-0.056139786 -0.067875624 0.19595745
-0.055921502 -0.068096712 0.19659574
-0.055700619 -0.068317808 0.19723405
-0.055447299 -0.068502054 0.19776596
-0.055102982 -0.068575747 0.19797872
-0.054699011 -0.068575747 0.19797872
-0.054295044 -0.068575747 0.19797872
-0.053977951 -0.068686299 0.19829787
-0.053659555 -0.068796843 0.19861703
-0.053368378 -0.068944238 0.19904256
-0.053018849 -0.069017939 0.19925532
-0.05266846 -0.06909164 0.19946809
-0.052289322 -0.069128484 0.19957447
-0.051965065 -0.069239035 0.19989362
-0.051612064 -0.069312729 0.20010638
-0.051258199 -0.06938643 0.20031916
-0.050849456 -0.06938643 0.20031916
-0.050413921 -0.069349572 0.20021276
-0.050005391 -0.069349572 0.20021276
-0.049675927 -0.069460124 0.20053191
-0.049371291 -0.069607519 0.20095745
-0.049064923 -0.069754913 0.20138298
-0.04870541 -0.069828607 0.20159574
-0.048345033 -0.069902308 0.20180851
-0.047958516 -0.069939159 0.20191489
-0.047571566 -0.069976009 0.20202127
-0.04723385 -0.070086554 0.20234042
-0.046919446 -0.070233949 0.20276596
-0.046652108 -0.070455045 0.20340426
-0.046406347 -0.070712984 0.20414893
-0.046085648 -0.070860378 0.20457447
-0.045739468 -0.07097093 0.20489362
-0.045439046 -0.071155168 0.20542553
-0.045183081 -0.071413115 0.20617022
-0.04490098 -0.071634203 0.20680851
-0.010536864 -0.087663464 0.25308511
-0.010007816 -0.08755292 0.25276595
-0.0094720805 -0.087368675 0.25223404
-0.0089422949 -0.087221287 0.25180852
-0.0084249265 -0.087184429 0.25170213
-0.0079213679 -0.087294981 0.25202128
-0.0074321409 -0.087589771 0.25287235
-0.0069481693 -0.087995112 0.25404257
-0.0064540361 -0.088326745 0.255
-0.0059436196 -0.088474147 0.25542554
0.032323174 -0.10634585 0.30702129
0.032983888 -0.10645638 0.30734041
0.033611007 -0.10645638 0.30734041
0.034249976 -0.10649324 0.30744681
-0.056072801 -0.067878723 0.19712766
-0.055820793 -0.068061888 0.19765958
-0.055536777 -0.068208411 0.1980851
-0.055162203 -0.068245046 0.19819149
-0.0547578 -0.068245046 0.19819149
-0.054353397 -0.068245046 0.19819149
-0.054006908 -0.068318307 0.19840425
-0.053688295 -0.068428203 0.19872341
-0.053396903 -0.068574734 0.19914894
-0.053103771 -0.068721257 0.19957447
-0.052780818 -0.068831153 0.19989362
-0.052428685 -0.068904415 0.20010638
-0.052075688 -0.068977684 0.20031916
-0.051749256 -0.069087572 0.20063829
-0.051394306 -0.069160841 0.20085107
-0.050984476 -0.069160841 0.20085107
-0.050547857 -0.069124207 0.20074467
-0.050111674 -0.069087572 0.20063829
-0.049754988 -0.069160841 0.20085107
-0.049423564 -0.06927073 0.20117021
-0.049142681 -0.069453895 0.20170213
-0.048808217 -0.069563791 0.20202127
-0.048446972 -0.069637053 0.20223404
-0.048059586 -0.069673687 0.20234042
-0.047671769 -0.069710314 0.2024468
-0.047283519 -0.069746949 0.2025532
-0.046944063 -0.069856845 0.20287234
-0.046676509 -0.070076637 0.20351064
-0.046406347 -0.070296422 0.20414893
-0.046085648 -0.070442952 0.20457447
-0.045739468 -0.070552848 0.20489362
-0.045439046 -0.070736006 0.20542553
-0.045183081 -0.070992433 0.20617022
-0.044924077 -0.071248852 0.20691489
-0.044570517 -0.071358748 0.20723404
-0.010536864 -0.087147057 0.25308511
-0.010007816 -0.087037161 0.25276595
-0.0094760759 -0.086890638 0.25234044
-0.0089460723 -0.0867441 0.25191489
-0.0084284879 -0.08670748 0.25180852
-0.0079213679 -0.086780742 0.25202128
-0.0074258875 -0.087000534 0.25265959
-0.0069365301 -0.087330215 0.25361702
-0.0064459587 -0.08769653 0.25468084
-0.0059386683 -0.087879688 0.25521275
0.03159786 -0.10538969 0.30606383
0.032233573 -0.10542633 0.30617023
0.032892551 -0.10553622 0.30648935
0.033552837 -0.10564611 0.3068085
0.034190722 -0.10568275 0.3069149
-0.055910919 -0.067767814 0.19797872
-0.055566605 -0.067840643 0.19819149
-0.055162203 -0.067840643 0.19819149
-0.054728404 -0.067804225 0.1980851
-0.054353397 -0.067840643 0.19819149
-0.054035865 -0.067949884 0.19851063
-0.053745773 -0.068095542 0.19893616
-0.053453948 -0.068241201 0.1993617
-0.053160384 -0.06838686 0.19978723
-0.052865084 -0.068532519 0.20021276
-0.052512307 -0.068605356 0.20042554
-0.052186307 -0.068714596 0.20074467
-0.051831573 -0.068787426 0.20095745
-0.051475968 -0.068860255 0.20117021
-0.051065486 -0.068860255 0.20117021
-0.050628219 -0.068823837 0.20106383
-0.050217956 -0.068823837 0.20106383
-0.049834043 -0.068860255 0.20117021
-0.049528107 -0.069005914 0.20159574
-0.049220435 -0.069151573 0.20202127
-0.048911028 -0.069297232 0.2024468
-0.048548911 -0.069370061 0.20265958
-0.048185926 -0.069442891 0.20287234
-0.047771972 -0.069442891 0.20287234
-0.047407687 -0.06951572 0.20308511
-0.04706715 -0.069624968 0.20340426
-0.046774108 -0.069807038 0.20393617
-0.046478894 -0.069989115 0.20446809
-0.046133582 -0.070098355 0.20478724
-0.045786962 -0.070207596 0.20510638
-0.045486111 -0.070389673 0.2056383
-0.045229711 -0.070644572 0.20638297
-0.044970274 -0.070899479 0.20712766
-0.044639159 -0.071045138 0.20755319
-0.011057923 -0.086667061 0.2531915
-0.010536864 -0.086630642 0.25308511
-0.010003605 -0.086484991 0.25265959
-0.0094760759 -0.086375743 0.25234044
-0.0089460723 -0.086230077 0.25191489
-0.0084249265 -0.086157255 0.25170213
-0.007914681 -0.086193673 0.25180852
-0.0074133803 -0.086339325 0.25223404
-0.0069219824 -0.086630642 0.25308511
-0.006432496 -0.08699479 0.25414893
-0.005926291 -0.087176859 0.25468084
0.030973347 -0.10476518 0.30606383
0.03159786 -0.10476518 0.30606383
0.032222372 -0.10476518 0.30606383
0.032881137 -0.10487442 0.30638298
0.033529568 -0.10494725 0.30659574
0.034155168 -0.10494725 0.30659574
0.034696288 -0.10469235 0.30585107
-0.055536777 -0.067400038 0.1980851
-0.055102982 -0.067363843 0.19797872
-0.054728404 -0.067400038 0.1980851
-0.05438257 -0.067472436 0.19829787
-0.054093782 -0.06761723 0.19872341
-0.053831998 -0.067798212 0.19925532
-0.053539522 -0.067943007 0.19968085
-0.053245306 -0.068087794 0.20010638
-0.052921265 -0.068196394 0.20042554
-0.052568048 -0.068268783 0.20063829
-0.052213967 -0.068341181 0.20085107
-0.05185901 -0.068413578 0.20106383
-0.051475968 -0.068449773 0.20117021
-0.051092494 -0.068485975 0.2012766
-0.050655007 -0.068449773 0.20117021
-0.050271098 -0.068485975 0.2012766
-0.049886752 -0.06852217 0.20138298
-0.049580384 -0.068666957 0.20180851
-0.049272276 -0.068811752 0.20223404
-0.048962433 -0.068956539 0.20265958
-0.048625369 -0.069065139 0.20297873
-0.048261732 -0.069137529 0.20319149
-0.047897227 -0.069209926 0.20340426
-0.047531854 -0.069282323 0.20361702
-0.047190234 -0.069390915 0.20393617
-0.046871707 -0.069535702 0.20436171
-0.046527259 -0.069644295 0.20468085
-0.046181511 -0.069752887 0.205
-0.045834463 -0.069861487 0.20531915
-0.045533173 -0.070042469 0.20585106
-0.04527634 -0.070295855 0.20659575
-0.045039564 -0.070585437 0.20744681
-0.044730678 -0.070766427 0.20797873
-0.011048629 -0.086078033 0.25297871
-0.010528007 -0.086041838 0.25287235
-0.010003605 -0.085969448 0.25265959
-0.0094720805 -0.085824646 0.25223404
-0.0089422949 -0.085679866 0.25180852
-0.0084213652 -0.085607462 0.25159574
-0.0079079932 -0.085607462 0.25159574
-0.0074071274 -0.085752256 0.25202128
-0.0069103441 -0.085969448 0.25265959
-0.0064190333 -0.086295217 0.25361702
-0.0059114383 -0.086440012 0.25404257
0.03038048 -0.10424926 0.30638298
0.031005645 -0.10424926 0.30638298
0.03163081 -0.10424926 0.30638298
0.032267172 -0.10428545 0.30648935
0.032915391 -0.10435785 0.30670214
0.033564471 -0.10443025 0.3069149
0.034178868 -0.10439405 0.3068085
0.034696288 -0.10406827 0.30585107
0.035111517 -0.10345291 0.30404255
-0.055073373 -0.066923894 0.19787234
-0.054699011 -0.066959873 0.19797872
-0.054411743 -0.067103796 0.19840425
-0.054151695 -0.067283697 0.19893616
-0.053889483 -0.067463607 0.19946809
-0.053596571 -0.067607529 0.19989362
-0.053273611 -0.067715466 0.20021276
-0.052949354 -0.06782341 0.20053191
-0.052595921 -0.067895368 0.20074467
-0.052213967 -0.067931354 0.20085107
-0.051804136 -0.067931354 0.20085107
-0.051421527 -0.067967333 0.20095745
-0.051038485 -0.068003312 0.20106383
-0.050628219 -0.068003312 0.20106383
-0.050244525 -0.068039291 0.20117021
-0.049913105 -0.068147235 0.20148936
-0.049606517 -0.068291157 0.20191489
-0.049324114 -0.068471059 0.2024468
-0.049013834 -0.068614982 0.20287234
-0.048701819 -0.068758905 0.20329787
-0.048337534 -0.06883087 0.20351064
-0.04799743 -0.068938807 0.20382978
-0.047631189 -0.069010772 0.20404255
-0.047288701 -0.069118708 0.20436171
-0.046944901 -0.069226652 0.20468085
-0.046575624 -0.06929861 0.20489362
-0.046229444 -0.069406554 0.20521277
-0.045881957 -0.069514498 0.20553191
-0.045603767 -0.069730379 0.20617022
-0.045369599 -0.070018224 0.20702128
-0.045155052 -0.070342049 0.20797873
-0.04489084 -0.070593916 0.20872341
-0.011039337 -0.085489877 0.25276595
-0.010519148 -0.085453905 0.25265959
-0.0099951802 -0.085381933 0.2524468
-0.0094640916 -0.085238017 0.25202128
-0.0089309607 -0.085058115 0.25148937
-0.0084106829 -0.084986143 0.25127658
-0.007897961 -0.084986143 0.25127658
-0.0073977471 -0.085130073 0.25170213
-0.0068987054 -0.085309975 0.25223404
-0.0064028776 -0.085561834 0.25297871
0.029160496 -0.10373204 0.30670214
0.029786311 -0.10373204 0.30670214
0.030412128 -0.10373204 0.30670214
0.031037943 -0.10373204 0.30670214
0.031674739 -0.10376801 0.3068085
0.032334372 -0.10387596 0.30712765
0.032983888 -0.10394792 0.30734041
0.033634279 -0.10401989 0.3075532
0.034238126 -0.10394792 0.30734041
0.034744561 -0.10358811 0.30627659
0.035185229 -0.10304841 0.30468085
0.035694398 -0.10272457 0.30372339
0.036275975 -0.10261663 0.30340424
-0.055073373 -0.06652014 0.19787234
-0.0547578 -0.066627435 0.19819149
-0.054499272 -0.066806249 0.19872341
-0.054238573 -0.066985071 0.19925532
-0.053946964 -0.067128122 0.19968085
-0.053625092 -0.06723541 0.2
-0.053301923 -0.067342706 0.20031916
-0.052949354 -0.067414232 0.20053191
-0.052568048 -0.067449994 0.20063829
-0.052186307 -0.067485757 0.20074467
-0.051776696 -0.067485757 0.20074467
-0.051339861 -0.067449994 0.20063829
-0.050930467 -0.067449994 0.20063829
-0.050547857 -0.067485757 0.20074467
-0.050217956 -0.067593046 0.20106383
-0.049913105 -0.067736104 0.20148936
-0.049632654 -0.067914918 0.20202127
-0.049350034 -0.068093739 0.2025532
-0.04906524 -0.068272553 0.20308511
-0.048727307 -0.068379849 0.20340426
-0.048388071 -0.068487138 0.2037234
-0.048047531 -0.068594426 0.20404255
-0.047730524 -0.068737485 0.20446809
-0.047362547 -0.068809003 0.20468085
-0.046969306 -0.068844773 0.20478724
-0.046599805 -0.068916298 0.205
-0.046229444 -0.068987824 0.20521277
-0.045929454 -0.069166645 0.20574468
-0.045650829 -0.069381222 0.20638297
-0.045416225 -0.069667332 0.20723404
-0.045224342 -0.070024967 0.20829788
-0.044982359 -0.070311077 0.20914894
-0.044714238 -0.070561416 0.20989361
-0.011030045 -0.084902592 0.25255319
-0.010510289 -0.084866822 0.2524468
-0.009982544 -0.084759533 0.25212765
-0.0094521064 -0.084616482 0.25170213
-0.0089234039 -0.084473424 0.25127658
-0.0084035611 -0.084401898 0.25106382
-0.0078912741 -0.084401898 0.25106382
-0.0073852399 -0.084473424 0.25127658
-0.0068783383 -0.084544957 0.25148937
-0.0063759526 -0.084688008 0.25191489
0.029211069 -0.10328504 0.30723405
0.02983797 -0.10328504 0.30723405
0.030464871 -0.10328504 0.30723405
0.031102536 -0.1033208 0.30734041
0.031751622 -0.10339233 0.3075532
0.032401573 -0.10346386 0.30776596
0.033052392 -0.10353538 0.30797872
0.033680812 -0.10353538 0.30797872
0.03428553 -0.10346386 0.30776596
0.034829039 -0.10321352 0.30702129
0.035320368 -0.10282011 0.30585107
0.035819422 -0.10246249 0.30478725
0.036390454 -0.10231942 0.3043617
0.037050303 -0.10242672 0.30468085
-0.054904759 -0.066400759 0.19872341
-0.054645147 -0.066578493 0.19925532
-0.054383364 -0.066756226 0.19978723
-0.054061927 -0.066862866 0.20010638
-0.053710666 -0.06693396 0.20031916
-0.053301923 -0.06693396 0.20031916
-0.052949354 -0.067005053 0.20053191
-0.052540176 -0.067005053 0.20053191
-0.052158654 -0.0670406 0.20063829
-0.051749256 -0.0670406 0.20063829
-0.05131264 -0.067005053 0.20053191
-0.050876457 -0.066969506 0.20042554
-0.050494283 -0.067005053 0.20053191
-0.050191388 -0.06714724 0.20095745
-0.049913105 -0.067324966 0.20148936
-0.04965879 -0.067538247 0.20212767
-0.049401872 -0.067751527 0.20276596
-0.049116641 -0.06792926 0.20329787
-0.048778277 -0.068035901 0.20361702
-0.048463874 -0.068178087 0.20404255
-0.048147734 -0.068320267 0.20446809
-0.047805026 -0.068426915 0.20478724
-0.047436398 -0.068498001 0.205
-0.0470425 -0.068533547 0.20510638
-0.046648175 -0.068569094 0.20521277
-0.046277374 -0.068640187 0.20542553
-0.045976952 -0.068817921 0.20595744
-0.04569789 -0.069031201 0.20659575
-0.045439538 -0.069280021 0.20734042
-0.045224342 -0.069599941 0.20829788
-0.044982359 -0.069884315 0.20914894
-0.044691578 -0.070097595 0.20978723
-0.044353295 -0.070239782 0.21021277
-0.01101146 -0.084245071 0.25212765
-0.010492573 -0.084209532 0.25202128
-0.0099656964 -0.084102891 0.25170213
-0.0094401212 -0.083996251 0.25138298
-0.0089234039 -0.083960705 0.25127658
-0.0084071225 -0.083925165 0.25117022
-0.007897961 -0.083960705 0.25127658
-0.0073821135 -0.083925165 0.25117022
-0.0068637901 -0.083854072 0.25095746
-0.0063490272 -0.083818518 0.25085106
0.02865345 -0.10290696 0.30797872
0.029281871 -0.10290696 0.30797872
0.029910291 -0.10290696 0.30797872
0.030528165 -0.10287142 0.30787235
0.031156369 -0.10287142 0.30787235
0.03179555 -0.10290696 0.30797872
0.032446373 -0.10297805 0.30819148
0.033075225 -0.10297805 0.30819148
0.033692449 -0.10294251 0.30808511
0.034321085 -0.10294251 0.30808511
0.034913518 -0.10283587 0.30776596
0.035467792 -0.10262259 0.30712765
0.035981953 -0.10230268 0.30617023
0.036530368 -0.1020894 0.30553192
0.037153795 -0.1020894 0.30553192
0.037856147 -0.10230268 0.30617023
0.038601208 -0.10262259 0.30712765
-0.055139899 -0.066277906 0.19957447
-0.054849375 -0.066419229 0.2
-0.054586072 -0.066595875 0.20053191
-0.05420563 -0.066631198 0.20063829
-0.053796235 -0.066631198 0.20063829
-0.053330228 -0.066560544 0.20042554
-0.052921265 -0.066560544 0.20042554
-0.052512307 -0.066560544 0.20042554
-0.052130997 -0.066595875 0.20053191
-0.051721819 -0.066595875 0.20053191
-0.05131264 -0.066595875 0.20053191
-0.050903462 -0.066595875 0.20053191
-0.050521068 -0.066631198 0.20063829
-0.050191388 -0.06673719 0.20095745
-0.049913105 -0.066913836 0.20148936
-0.049684927 -0.067161143 0.20223404
-0.049427789 -0.067373119 0.20287234
-0.04916805 -0.067585096 0.20351064
-0.048854731 -0.067726411 0.20393617
-0.048564944 -0.067903057 0.20446809
-0.048247941 -0.068044379 0.20489362
-0.047929198 -0.068185695 0.20531915
-0.047534864 -0.068221025 0.20542553
-0.047140099 -0.068256348 0.20553191
-0.046720721 -0.068256348 0.20553191
-0.046349272 -0.06832701 0.20574468
-0.046024449 -0.068468332 0.20617022
-0.045721423 -0.068644978 0.20670213
-0.045439538 -0.068856955 0.20734042
-0.045155052 -0.069068931 0.20797873
-0.04489084 -0.069316238 0.20872341
-0.044600923 -0.069528215 0.2093617
-0.044263512 -0.06966953 0.20978723
-0.043924365 -0.069810845 0.21021277
-0.043583479 -0.069952168 0.2106383
-0.04324086 -0.070093483 0.21106383
-0.042831767 -0.070128813 0.21117021
-0.010978937 -0.083483316 0.25138298
-0.010474856 -0.08355397 0.25159574
-0.0099572726 -0.083518647 0.25148937
-0.0094401212 -0.083483316 0.25138298
-0.0089347381 -0.08355397 0.25159574
-0.0084249265 -0.083589301 0.25170213
-0.007914681 -0.083624639 0.25180852
-0.0073914938 -0.083518647 0.25148937
-0.0068696095 -0.083412655 0.25117022
-0.0063490272 -0.08330667 0.25085106
0.028742529 -0.10259651 0.30893618
0.029383017 -0.10263183 0.30904254
0.030003278 -0.10259651 0.30893618
0.030602004 -0.10249052 0.30861703
0.031210197 -0.10241986 0.30840427
0.0318285 -0.10238453 0.30829787
0.032457571 -0.10238453 0.30829787
0.03306381 -0.10231388 0.30808511
0.033680812 -0.10227854 0.30797872
0.034332935 -0.1023492 0.30819148
0.03497386 -0.10238453 0.30829787
0.035566073 -0.10227854 0.30797872
0.036106978 -0.10203124 0.30723405
0.036657561 -0.10181926 0.30659574
0.037257288 -0.1017486 0.30638298
0.037935063 -0.10188992 0.3068085
0.038627949 -0.10206656 0.30734041
0.03929583 -0.10217255 0.30765957
-0.055082776 -0.066292033 0.20085107
-0.054759815 -0.066397369 0.20117021
-0.054320596 -0.066362254 0.20106383
-0.053853285 -0.066292033 0.20085107
-0.053358532 -0.066186696 0.20053191
-0.052893177 -0.066116475 0.20031916
-0.052484434 -0.066116475 0.20031916
-0.052103344 -0.066151582 0.20042554
-0.051721819 -0.066186696 0.20053191
-0.051339861 -0.066221803 0.20063829
-0.050930467 -0.066221803 0.20063829
-0.050574645 -0.066292033 0.20085107
-0.050244525 -0.066397369 0.20117021
-0.049939457 -0.066537812 0.20159574
-0.049684927 -0.066748492 0.20223404
-0.049453709 -0.06699428 0.20297873
-0.049219452 -0.067240059 0.2037234
-0.048931185 -0.067415625 0.20425531
-0.04864075 -0.06759119 0.20478724
-0.048348144 -0.067766748 0.20531915
-0.048028532 -0.067907199 0.20574468
-0.047657948 -0.067977421 0.20595744
-0.047237698 -0.067977421 0.20595744
-0.046817448 -0.067977421 0.20595744
-0.046421167 -0.068012536 0.20606384
-0.046071947 -0.068117872 0.20638297
-0.045744952 -0.068258323 0.20680851
-0.045416225 -0.068398766 0.20723404
-0.045085758 -0.068539217 0.20765957
-0.044753559 -0.068679668 0.2080851
-0.044464946 -0.068890341 0.20872341
-0.044151284 -0.069065906 0.20925532
-0.04383545 -0.069241464 0.20978723
-0.043539453 -0.069452137 0.21042553
-0.043197267 -0.069592588 0.21085106
-0.04281019 -0.069662817 0.21106383
-0.042336799 -0.069592588 0.21085106
-0.04175856 -0.0693468 0.21010639
-0.041078728 -0.068925455 0.20882979
-0.040404104 -0.06850411 0.20755319
-0.010960353 -0.08282993 0.25095746
-0.01045714 -0.082900152 0.25117022
-0.0099530593 -0.082970373 0.25138298
-0.0094441166 -0.083005488 0.25148937
-0.0089460723 -0.083145939 0.25191489
-0.008446292 -0.08328639 0.25234044
-0.007938087 -0.083356611 0.25255319
-0.0074165072 -0.08328639 0.25234044
-0.0068928865 -0.083181053 0.25202128
-0.0063786451 -0.083181053 0.25202128
0.02947405 -0.10231726 0.31
0.030096261 -0.10228214 0.30989361
0.030665299 -0.10207147 0.30925533
0.031231727 -0.1018608 0.30861703
0.0318285 -0.10175546 0.30829787
0.032435175 -0.10168523 0.30808511
0.033052392 -0.10165012 0.30797872
0.033680812 -0.10165012 0.30797872
0.034344789 -0.10175546 0.30829787
0.035022128 -0.10189591 0.30872339
0.035652071 -0.10189591 0.30872339
0.036219496 -0.10172034 0.30819148
0.036772039 -0.10150968 0.3075532
0.037373714 -0.10143945 0.30734041
0.038013987 -0.10147456 0.30744681
0.038681433 -0.1015799 0.30776596
0.03932301 -0.10161501 0.30787235
-0.054846693 -0.066091575 0.20148936
-0.054349337 -0.065986887 0.20117021
-0.05382476 -0.065847307 0.20074467
-0.053330228 -0.065742619 0.20042554
-0.052865084 -0.06567283 0.20021276
-0.052456558 -0.06567283 0.20021276
-0.052075688 -0.065707728 0.20031916
-0.051694382 -0.065742619 0.20042554
-0.051339861 -0.065812409 0.20063829
-0.050984476 -0.065882206 0.20085107
-0.050628219 -0.065951988 0.20106383
-0.050297666 -0.066056676 0.20138298
-0.049965814 -0.066161364 0.20170213
-0.049684927 -0.066335842 0.20223404
-0.049453709 -0.066580109 0.20297873
-0.049245153 -0.066859268 0.20382978
-0.049007639 -0.067103535 0.20457447
-0.048716553 -0.067278013 0.20510638
-0.048398241 -0.067417592 0.20553191
-0.048078198 -0.067557171 0.20595744
-0.047682568 -0.06759207 0.20606384
-0.047286499 -0.067626961 0.20617022
-0.046865817 -0.067626961 0.20617022
-0.046493061 -0.06769675 0.20638297
-0.046119444 -0.067766547 0.20659575
-0.045768484 -0.067871228 0.20691489
-0.045392912 -0.067941017 0.20712766
-0.045016468 -0.068010807 0.20734042
-0.044662036 -0.068115495 0.20765957
-0.04435163 -0.068289973 0.20819148
-0.044061501 -0.068499342 0.20882979
-0.043746531 -0.068673819 0.2093617
-0.043451406 -0.068883188 0.20999999
-0.043131884 -0.069057666 0.21053192
-0.042745456 -0.069127455 0.21074468
-0.042294078 -0.069092564 0.2106383
-0.04175856 -0.068918087 0.21010639
-0.041141506 -0.06860403 0.20914894
-0.040528361 -0.068289973 0.20819148
-0.039980598 -0.068080604 0.20755319
-0.011457833 -0.082213171 0.25063831
-0.010955706 -0.08228296 0.25085106
-0.010452711 -0.08235275 0.25106382
-0.0099488469 -0.08242254 0.25127658
-0.0094481111 -0.082527228 0.25159574
-0.0089536272 -0.082701698 0.25212765
-0.0084569743 -0.082876183 0.25265959
-0.0079514617 -0.082980864 0.25297871
-0.0074352669 -0.082980864 0.25297871
-0.0069132531 -0.082911074 0.25276595
-0.0063974927 -0.082911074 0.25276595
0.029544851 -0.10192897 0.31074467
0.030147919 -0.10182429 0.31042552
0.030696942 -0.10154513 0.30957446
0.031242492 -0.10126597 0.30872339
0.031817518 -0.10109149 0.30819148
0.032423973 -0.1010217 0.30797872
0.033040978 -0.10098681 0.30787235
0.033680812 -0.1010217 0.30797872
0.034356639 -0.10116129 0.30840427
0.035046268 -0.10133576 0.30893618
0.035701212 -0.10140555 0.30914894
0.036307018 -0.10133576 0.30893618
0.03691195 -0.10126597 0.30872339
0.037528954 -0.10123108 0.30861703
0.038158678 -0.10123108 0.30861703
0.038775027 -0.10119618 0.30851063
0.039377358 -0.10112639 0.30829787
-0.054291856 -0.065507047 0.20095745
-0.053767711 -0.065368339 0.20053191
-0.053301923 -0.065298982 0.20031916
-0.052865084 -0.0652643 0.20021276
-0.052456558 -0.0652643 0.20021276
-0.052048031 -0.0652643 0.20021276
-0.051666945 -0.065298982 0.20031916
-0.05131264 -0.065368339 0.20053191
-0.050984476 -0.065472372 0.20085107
-0.050655007 -0.065576404 0.20117021
-0.050324239 -0.065680437 0.20148936
-0.049992166 -0.065784477 0.20180851
-0.049684927 -0.065923192 0.20223404
-0.049453709 -0.066165939 0.20297873
-0.049245153 -0.066443361 0.20382978
-0.049007639 -0.066686109 0.20457447
-0.048741821 -0.066894181 0.20521277
-0.048398241 -0.066998206 0.20553191
-0.048053365 -0.067102246 0.20585106
-0.047682568 -0.067171603 0.20606384
-0.047286499 -0.067206278 0.20617022
-0.046889998 -0.067240961 0.2062766
-0.046517026 -0.067310311 0.20648935
-0.046143193 -0.067379668 0.20670213
-0.045768484 -0.067449026 0.20691489
-0.045392912 -0.067518383 0.20712766
-0.044993371 -0.067553058 0.20723404
-0.044639159 -0.067657098 0.20755319
-0.044306304 -0.067795806 0.20797873
-0.044016607 -0.068003878 0.20861702
-0.043724306 -0.06821195 0.20925532
-0.043407384 -0.06838534 0.20978723
-0.043088295 -0.06855873 0.21031915
-0.042723879 -0.068662763 0.2106383
-0.042294078 -0.068662763 0.2106383
-0.041800845 -0.06855873 0.21031915
-0.041287992 -0.068420015 0.20989361
-0.040756162 -0.068246625 0.2093617
-0.040246997 -0.06810791 0.20893617
-0.039861225 -0.068177268 0.20914894
-0.011472423 -0.081805788 0.25095746
-0.010964998 -0.081840463 0.25106382
-0.01045714 -0.081875145 0.25117022
-0.0099530593 -0.081944495 0.25138298
-0.0094481111 -0.082013853 0.25159574
-0.0089498507 -0.082152568 0.25202128
-0.0084498525 -0.082291275 0.2524468
-0.0079447739 -0.082395315 0.25276595
-0.0074321409 -0.082429998 0.25287235
-0.0069132531 -0.082395315 0.25276595
-0.0064001856 -0.082429998 0.25287235
0.030137589 -0.1011562 0.31031916
0.030675845 -0.10084409 0.3093617
0.031210197 -0.100532 0.30840427
0.031784572 -0.10035861 0.30787235
0.032401573 -0.10032392 0.30776596
0.033040978 -0.10035861 0.30787235
0.033692449 -0.10042796 0.30808511
0.034356639 -0.100532 0.30840427
0.035034198 -0.1006707 0.30882978
0.035713501 -0.10080943 0.30925533
0.036369529 -0.10087878 0.30946809
0.037026428 -0.10094813 0.30968085
0.037684191 -0.10101748 0.30989361
0.038290214 -0.10094813 0.30968085
0.038881995 -0.10084409 0.3093617
-0.053682141 -0.064855777 0.20021276
-0.053273611 -0.064855777 0.20021276
-0.052865084 -0.064855777 0.20021276
-0.052456558 -0.064855777 0.20021276
-0.052048031 -0.064855777 0.20021276
-0.051639501 -0.064855777 0.20021276
-0.05128542 -0.064924702 0.20042554
-0.050957471 -0.065028079 0.20074467
-0.050655007 -0.065165922 0.20117021
-0.050297666 -0.065234847 0.20138298
-0.049965814 -0.065338232 0.20170213
-0.04965879 -0.065476075 0.20212767
-0.049427789 -0.065717302 0.20287234
-0.049219452 -0.065992989 0.2037234
-0.048982158 -0.066234216 0.20446809
-0.048691284 -0.066406526 0.205
-0.048348144 -0.06650991 0.20531915
-0.0480037 -0.066613294 0.2056383
-0.047633331 -0.066682212 0.20585106
-0.047262102 -0.066751137 0.20606384
-0.046889998 -0.066820055 0.2062766
-0.046517026 -0.066888981 0.20648935
-0.046166938 -0.066992365 0.20680851
-0.045792017 -0.067061283 0.20702128
-0.045392912 -0.067095749 0.20712766
-0.044993371 -0.067130208 0.20723404
-0.044616278 -0.067199133 0.20744681
-0.044306304 -0.067371435 0.20797873
-0.044016607 -0.067578197 0.20861702
-0.043746531 -0.067819431 0.2093617
-0.043429397 -0.067991734 0.20989361
-0.043088295 -0.068129577 0.21031915
-0.042723879 -0.068232961 0.2106383
-0.042315438 -0.06826742 0.21074468
-0.04186428 -0.068232961 0.2106383
-0.041434478 -0.068232961 0.2106383
-0.041004676 -0.068232961 0.2106383
-0.040574878 -0.068232961 0.2106383
-0.040205903 -0.068336345 0.21095745
-0.011501602 -0.081500478 0.25159574
-0.010988229 -0.081500478 0.25159574
-0.010470428 -0.081466027 0.25148937
-0.0099572726 -0.081466027 0.25148937
-0.0094481111 -0.081500478 0.25159574
-0.0089422949 -0.081569411 0.25180852
-0.0084391693 -0.081672788 0.25212765
-0.0079280557 -0.081707247 0.25223404
-0.0074102534 -0.081672788 0.25212765
-0.0068899766 -0.081603862 0.25191489
-0.0063786451 -0.081638329 0.25202128
0.030623103 -0.10004055 0.30882978
0.031167131 -0.099764861 0.30797872
0.031751622 -0.099627018 0.3075532
0.032367971 -0.099592559 0.30744681
0.033018142 -0.099661477 0.30765957
0.033669181 -0.099730402 0.30787235
0.034332935 -0.099833779 0.30819148
0.034997996 -0.099937163 0.30851063
0.035676643 -0.10007501 0.30893618
0.036394533 -0.10031624 0.30968085
0.037090022 -0.10048854 0.31021276
0.037774749 -0.10062639 0.31063831
-0.053625092 -0.064378761 0.2
-0.053245306 -0.064413004 0.20010638
-0.052865084 -0.064447246 0.20021276
-0.052456558 -0.064447246 0.20021276
-0.052020375 -0.064413004 0.20010638
-0.051612064 -0.064413004 0.20010638
-0.051258199 -0.064481497 0.20031916
-0.050930467 -0.064584225 0.20063829
-0.050601434 -0.064686954 0.20095745
-0.050271098 -0.06478969 0.2012766
-0.049939457 -0.064892419 0.20159574
-0.049632654 -0.065029398 0.20202127
-0.049401872 -0.065269105 0.20276596
-0.049193751 -0.065543056 0.20361702
-0.048956674 -0.065782763 0.20436171
-0.048666019 -0.065953985 0.20489362
-0.048323095 -0.066056721 0.20521277
-0.04795403 -0.066125207 0.20542553
-0.047584102 -0.066193692 0.2056383
-0.047237698 -0.066296421 0.20595744
-0.046889998 -0.066399157 0.2062766
-0.046540994 -0.066501893 0.20659575
-0.046190687 -0.066604622 0.20691489
-0.045792017 -0.066638865 0.20702128
-0.045392912 -0.066673107 0.20712766
-0.044993371 -0.06670735 0.20723404
-0.044616278 -0.066775844 0.20744681
-0.044306304 -0.066947065 0.20797873
-0.044039052 -0.067186773 0.20872341
-0.04376876 -0.067426473 0.20946808
-0.043473423 -0.067631945 0.21010639
-0.043110088 -0.067734674 0.21042553
-0.042723879 -0.067803159 0.2106383
-0.042315438 -0.067837402 0.21074468
-0.041906565 -0.067871645 0.21085106
-0.041518185 -0.067940138 0.21106383
-0.041149646 -0.068042874 0.21138299
-0.040800296 -0.068179846 0.21180852
-0.040428929 -0.068282574 0.21212766
-0.040056266 -0.06838531 0.21244681
-0.011535645 -0.081226818 0.25234044
-0.011016106 -0.081192575 0.25223404
-0.010483716 -0.081055604 0.25180852
-0.0099614831 -0.080987103 0.25159574
-0.0094441166 -0.080952868 0.25148937
-0.0089347381 -0.080987103 0.25159574
-0.0084249265 -0.081021354 0.25170213
-0.0079079932 -0.080987103 0.25159574
-0.0073852399 -0.080884375 0.25127658
-0.0068608802 -0.080747403 0.25085106
-0.0063436422 -0.080678917 0.25063831
0.031134835 -0.099033706 0.30765957
0.031718671 -0.098896734 0.30723405
0.032334372 -0.098862484 0.30712765
0.032972474 -0.098896734 0.30723405
0.033611007 -0.09893097 0.30734041
0.03426183 -0.09899947 0.3075532
0.034913518 -0.099067956 0.30776596
0.035590645 -0.099204928 0.30819148
0.036344524 -0.099547371 0.30925533
-0.053918224 -0.063834563 0.19957447
-0.053568043 -0.063902609 0.19978723
-0.053217001 -0.06397067 0.2
-0.052836996 -0.064004689 0.20010638
-0.052456558 -0.064038716 0.20021276
-0.052048031 -0.064038716 0.20021276
-0.051639501 -0.064038716 0.20021276
-0.051258199 -0.064072751 0.20031916
-0.050903462 -0.064140804 0.20053191
-0.050601434 -0.064276911 0.20095745
-0.050271098 -0.064378992 0.2012766
-0.049913105 -0.064447045 0.20148936
-0.049632654 -0.064617179 0.20202127
-0.049375951 -0.06482134 0.20265958
-0.04916805 -0.065093555 0.20351064
-0.0489057 -0.065297715 0.20414893
-0.048615482 -0.065467849 0.20468085
-0.04827299 -0.06556993 0.205
-0.047929198 -0.065672018 0.20531915
-0.047584102 -0.065774098 0.2056383
-0.047237698 -0.065876171 0.20595744
-0.046914179 -0.066012286 0.20638297
-0.046612889 -0.066182412 0.20691489
-0.046238184 -0.066250473 0.20712766
-0.045839079 -0.0662845 0.20723404
-0.045439538 -0.066318527 0.20734042
-0.045039564 -0.066352554 0.20744681
-0.044662036 -0.066420607 0.20765957
-0.044328965 -0.066556714 0.2080851
-0.044061501 -0.066794902 0.20882979
-0.04376876 -0.066999063 0.20946808
-0.043473423 -0.067203231 0.21010639
-0.043110088 -0.067305304 0.21042553
-0.042723879 -0.067373365 0.2106383
-0.042294078 -0.067373365 0.2106383
-0.041906565 -0.067441411 0.21085106
-0.04153911 -0.067543499 0.21117021
-0.041211769 -0.067713626 0.21170212
-0.04088226 -0.06788376 0.21223404
-0.040530305 -0.068019874 0.21265957
-0.040156554 -0.068121955 0.21297872
-0.039761662 -0.068190008 0.21319149
-0.011559961 -0.080882065 0.25287235
-0.011030045 -0.080779977 0.25255319
-0.010492573 -0.080609851 0.25202128
-0.0099614831 -0.080473736 0.25159574
-0.0094401212 -0.080405682 0.25138298
-0.0089271823 -0.080405682 0.25138298
-0.0084178057 -0.080439717 0.25148937
-0.0079013053 -0.080405682 0.25138298
-0.0073758606 -0.080269583 0.25095746
-0.0068492414 -0.080099434 0.25042552
-0.0063301795 -0.079997361 0.25010639
0.031707689 -0.098235801 0.30712765
0.032311972 -0.098167755 0.3069149
0.032903969 -0.098065667 0.30659574
0.033517934 -0.09803164 0.30648935
0.034155168 -0.098065667 0.30659574
0.034816973 -0.098167755 0.3069149
0.035492361 -0.098303854 0.30734041
-0.053803258 -0.063292094 0.19914894
-0.053453948 -0.063359715 0.1993617
-0.053160384 -0.063494951 0.19978723
-0.052808907 -0.063562572 0.2
-0.052456558 -0.063630193 0.20021276
-0.052048031 -0.063630193 0.20021276
-0.051666945 -0.063664004 0.20031916
-0.05128542 -0.063697815 0.20042554
-0.050930467 -0.063765429 0.20063829
-0.050601434 -0.063866861 0.20095745
-0.050271098 -0.063968293 0.2012766
-0.049939457 -0.064069718 0.20159574
-0.04965879 -0.064238772 0.20212767
-0.049375951 -0.064407818 0.20265958
-0.049116641 -0.064610675 0.20329787
-0.048854731 -0.064813539 0.20393617
-0.048590213 -0.065016396 0.20457447
-0.04827299 -0.065151639 0.205
-0.047929198 -0.065253064 0.20531915
-0.047584102 -0.065354496 0.2056383
-0.047262102 -0.065489739 0.20606384
-0.046986729 -0.065692596 0.20670213
-0.046684787 -0.065861642 0.20723404
-0.046333179 -0.065963075 0.20755319
-0.045933206 -0.065996885 0.20765957
-0.04550948 -0.065996885 0.20765957
-0.045085758 -0.065996885 0.20765957
-0.044707797 -0.066064507 0.20787235
-0.044374295 -0.066199742 0.20829788
-0.044061501 -0.066368796 0.20882979
-0.04376876 -0.066571653 0.20946808
-0.043451406 -0.066740699 0.20999999
-0.043088295 -0.066842131 0.21031915
-0.042680722 -0.066875942 0.21042553
-0.04227272 -0.066909753 0.21053192
-0.041885421 -0.066977367 0.21074468
-0.04153911 -0.06711261 0.21117021
-0.04119106 -0.067247853 0.21159574
-0.04088226 -0.06745071 0.21223404
-0.040550582 -0.067619763 0.21276596
-0.040176615 -0.067721188 0.2130851
-0.039761662 -0.067754999 0.21319149
-0.039346278 -0.06778881 0.21329787
-0.011559961 -0.080366082 0.25287235
-0.011030045 -0.080264658 0.25255319
-0.010488143 -0.080061793 0.25191489
-0.0099530593 -0.079892747 0.25138298
-0.0094321314 -0.079825126 0.25117022
-0.0089196274 -0.079825126 0.25117022
-0.0084106829 -0.079858929 0.25127658
-0.007897961 -0.079858929 0.25127658
-0.0073821135 -0.079825126 0.25117022
-0.0068637901 -0.079757512 0.25095746
-0.0063463342 -0.079689883 0.25074467
0.031707689 -0.097609118 0.30712765
0.032289572 -0.097473882 0.30670214
0.032846887 -0.097271025 0.30606383
0.033424862 -0.097135775 0.30563828
0.034048505 -0.097135775 0.30563828
0.034708355 -0.097237207 0.30595744
-0.053425424 -0.062919326 0.19925532
-0.05313208 -0.063053697 0.19968085
-0.052808907 -0.063154481 0.2
-0.052456558 -0.063221663 0.20021276
-0.052075688 -0.063255258 0.20031916
-0.051694382 -0.063288853 0.20042554
-0.05131264 -0.063322447 0.20053191
-0.050957471 -0.063389629 0.20074467
-0.050628219 -0.063490406 0.20106383
-0.050297666 -0.06359119 0.20138298
-0.049992166 -0.063725561 0.20180851
-0.049684927 -0.063859932 0.20223404
-0.049375951 -0.063994303 0.20265958
-0.049090941 -0.064162262 0.20319149
-0.048829246 -0.064363815 0.20382978
-0.048564944 -0.064565375 0.20446809
-0.04827299 -0.064733341 0.205
-0.04795403 -0.064867713 0.20542553
-0.047633331 -0.065002084 0.20585106
-0.0473109 -0.065136455 0.2062766
-0.047059279 -0.065371603 0.20702128
-0.046756685 -0.065539569 0.20755319
-0.046404425 -0.065640353 0.20787235
-0.045980267 -0.065640353 0.20787235
-0.045556113 -0.065640353 0.20787235
-0.045131955 -0.065640353 0.20787235
-0.044730678 -0.06567394 0.20797873
-0.04435163 -0.065741122 0.20819148
-0.044016607 -0.065875493 0.20861702
-0.043724306 -0.066077054 0.20925532
-0.043407384 -0.066245019 0.20978723
-0.043044705 -0.066345796 0.21010639
-0.042659145 -0.066412978 0.21031915
-0.04227272 -0.066480167 0.21053192
-0.041885421 -0.066547349 0.21074468
-0.041518185 -0.066648133 0.21106383
-0.04119106 -0.066816099 0.21159574
-0.040861771 -0.066984057 0.21212766
-0.040530305 -0.067152023 0.21265957
-0.040156554 -0.0672528 0.21297872
-0.039741822 -0.067286395 0.2130851
-0.039346278 -0.067353584 0.21329787
-0.038930457 -0.067387171 0.21340425
-0.012065778 -0.079782926 0.25265959
-0.011540508 -0.079715729 0.2524468
-0.011006814 -0.079581365 0.25202128
-0.010470428 -0.079413399 0.25148937
-0.0099404231 -0.079279028 0.25106382
-0.0094201462 -0.079211846 0.25085106
-0.0089120716 -0.079245441 0.25095746
-0.0084071225 -0.079312623 0.25117022
-0.0079046497 -0.079413399 0.25148937
-0.0073977471 -0.079480588 0.25170213
-0.0068899766 -0.07954777 0.25191489
-0.0063867229 -0.079682142 0.25234044
0.031685725 -0.096915253 0.3069149
0.032267172 -0.096780874 0.30648935
0.032812633 -0.096545734 0.30574468
0.033378325 -0.096377768 0.30521277
0.033989251 -0.096344173 0.30510637
0.03461181 -0.096344173 0.30510637
-0.053425424 -0.062512755 0.19925532
-0.053103771 -0.062612884 0.19957447
-0.052780818 -0.062713012 0.19989362
-0.052456558 -0.062813133 0.20021276
-0.052103344 -0.06287989 0.20042554
-0.051749256 -0.06294664 0.20063829
-0.051367082 -0.062980011 0.20074467
-0.050984476 -0.063013397 0.20085107
-0.050628219 -0.063080139 0.20106383
-0.050297666 -0.063180268 0.20138298
-0.049992166 -0.063313775 0.20180851
-0.049684927 -0.063447274 0.20223404
-0.049375951 -0.063580781 0.20265958
-0.04906524 -0.063714281 0.20308511
-0.048803762 -0.063914537 0.2037234
-0.048564944 -0.064148165 0.20446809
-0.04827299 -0.064315043 0.205
-0.04795403 -0.06444855 0.20542553
-0.047633331 -0.06458205 0.20585106
-0.0473109 -0.064715557 0.2062766
-0.047059279 -0.064949185 0.20702128
-0.04673272 -0.065082692 0.20744681
-0.046356928 -0.065149441 0.20765957
-0.045886144 -0.065082692 0.20744681
-0.045439538 -0.065049313 0.20734042
-0.044993371 -0.065015934 0.20723404
-0.044570517 -0.065015934 0.20723404
-0.044170324 -0.065049313 0.20734042
-0.043837037 -0.065182813 0.20776595
-0.043546472 -0.065383069 0.20840426
-0.043275315 -0.065616705 0.20914894
-0.042957526 -0.065783583 0.20968086
-0.042615991 -0.065917082 0.21010639
-0.042229995 -0.065983832 0.21031915
-0.04186428 -0.06608396 0.2106383
-0.041497257 -0.066184089 0.21095745
-0.041170355 -0.066350967 0.21148936
-0.040861771 -0.066551216 0.21212766
-0.040530305 -0.066718094 0.21265957
-0.040156554 -0.066818222 0.21297872
-0.039741822 -0.066851601 0.2130851
-0.039346278 -0.066918351 0.21329787
-0.038969271 -0.067018479 0.21361703
-0.038610153 -0.067151986 0.21404256
-0.011511329 -0.079000376 0.25180852
-0.010983584 -0.078900248 0.25148937
-0.01045714 -0.078800119 0.25117022
-0.0099319993 -0.078699991 0.25085106
-0.0094161509 -0.078666613 0.25074467
-0.0089045148 -0.078666613 0.25074467
-0.0084035611 -0.078766741 0.25106382
-0.0079046497 -0.078900248 0.25148937
-0.0074071274 -0.079067126 0.25202128
-0.0069103441 -0.079267383 0.25265959
-0.0064082635 -0.079434261 0.2531915
0.031641789 -0.096155494 0.30648935
0.032233573 -0.096055374 0.30617023
0.032812633 -0.095921867 0.30574468
0.033389959 -0.095788367 0.30531916
0.033977401 -0.095688239 0.30500001
-0.053425424 -0.062106181 0.19925532
-0.053103771 -0.062205657 0.19957447
-0.052780818 -0.062305138 0.19989362
-0.052456558 -0.06240461 0.20021276
-0.052103344 -0.062470928 0.20042554
-0.051776696 -0.062570401 0.20074467
-0.051394306 -0.062603563 0.20085107
-0.05101148 -0.062636718 0.20095745
-0.050628219 -0.062669881 0.20106383
-0.050297666 -0.062769353 0.20138298
-0.049992166 -0.062901989 0.20180851
-0.049684927 -0.063034624 0.20223404
-0.049375951 -0.063167259 0.20265958
-0.04906524 -0.063299894 0.20308511
-0.048778277 -0.063465685 0.20361702
-0.048514407 -0.063664638 0.20425531
-0.048222888 -0.063830435 0.20478724
-0.047904365 -0.063963071 0.20521277
-0.047559481 -0.064062543 0.20553191
-0.047262102 -0.064228341 0.20606384
-0.046986729 -0.064427286 0.20670213
-0.046684787 -0.064593084 0.20723404
-0.046190687 -0.064493604 0.20691489
-0.045580234 -0.064228341 0.20606384
-0.04501988 -0.064029388 0.20542553
-0.044508331 -0.063896753 0.205
-0.044090033 -0.063896753 0.205
-0.043717064 -0.063963071 0.20521277
-0.043433011 -0.064162016 0.20585106
-0.043190811 -0.064427286 0.20670213
-0.042989157 -0.064758874 0.20776595
-0.042761374 -0.065057307 0.20872341
-0.042486522 -0.065289415 0.20946808
-0.042144552 -0.065422051 0.20989361
-0.041800845 -0.065554686 0.21031915
-0.041476328 -0.065720476 0.21085106
-0.041170355 -0.065919429 0.21148936
-0.04088226 -0.066151537 0.21223404
-0.040550582 -0.066317335 0.21276596
-0.040176615 -0.066416807 0.2130851
-0.039781503 -0.066483125 0.21329787
-0.039385524 -0.066549443 0.21351063
-0.03902749 -0.066682078 0.21393616
-0.038686913 -0.066847876 0.21446809
-0.038325191 -0.066980511 0.21489362
-0.037980486 -0.067146301 0.21542554
-0.011477285 -0.078254454 0.25106382
-0.010960353 -0.078221299 0.25095746
-0.010443852 -0.078188136 0.25085106
-0.0099277869 -0.078154974 0.25074467
-0.0094121564 -0.078121819 0.25063831
-0.0089045148 -0.078154974 0.25074467
-0.0084035611 -0.078254454 0.25106382
-0.0079046497 -0.078387089 0.25148937
-0.0074102534 -0.078586034 0.25212765
-0.0069132531 -0.078784987 0.25276595
-0.0064136484 -0.078983948 0.25340426
-0.0059040119 -0.07908342 0.25372341
0.03153196 -0.095198527 0.30542552
0.032166373 -0.09523169 0.30553192
0.032801215 -0.095264845 0.30563828
0.033413228 -0.09523169 0.30553192
0.034024805 -0.095198527 0.30542552
-0.05333985 -0.061600782 0.19893616
-0.053075466 -0.061765492 0.19946809
-0.052780818 -0.061897259 0.19989362
-0.052456558 -0.06199608 0.20021276
-0.052103344 -0.062061965 0.20042554
-0.051776696 -0.06216079 0.20074467
-0.051421527 -0.062226675 0.20095745
-0.05101148 -0.062226675 0.20095745
-0.050628219 -0.062259614 0.20106383
-0.050271098 -0.0623255 0.2012766
-0.049965814 -0.062457267 0.20170213
-0.049684927 -0.062621973 0.20223404
-0.049350034 -0.062720798 0.2025532
-0.049013834 -0.062819622 0.20287234
-0.048676338 -0.062918447 0.20319149
-0.048362803 -0.06305021 0.20361702
-0.048097633 -0.063247859 0.20425531
-0.047780193 -0.06337963 0.20468085
-0.047436398 -0.063478455 0.205
-0.047140099 -0.063643157 0.20553191
-0.044320453 -0.062621973 0.20223404
-0.043699928 -0.0623255 0.2012766
-0.04331211 -0.062358439 0.20138298
-0.043014508 -0.062523149 0.20191489
-0.042804521 -0.062819622 0.20287234
-0.042679545 -0.063247859 0.20425531
-0.042570934 -0.06370905 0.20574468
-0.042412657 -0.064104348 0.20702128
-0.042206012 -0.064433761 0.2080851
-0.041952308 -0.064697295 0.20893617
-0.04165284 -0.064894944 0.20957446
-0.041371696 -0.065125532 0.21031915
-0.041108225 -0.065389067 0.21117021
-0.040861771 -0.06568554 0.21212766
-0.040550582 -0.065883189 0.21276596
-0.040196676 -0.06601496 0.21319149
-0.039821185 -0.066113777 0.21351063
-0.039464019 -0.066245548 0.21393616
-0.03912453 -0.066410258 0.21446809
-0.03880205 -0.066607907 0.21510638
-0.038439024 -0.066739671 0.21553192
-0.038055509 -0.066838495 0.21585107
-0.037652146 -0.066904381 0.21606383
-0.037247922 -0.066970266 0.2162766
-0.011448106 -0.07754451 0.25042552
-0.010941767 -0.077577457 0.25053191
-0.010434994 -0.077610403 0.25063831
-0.0099277869 -0.077643335 0.25074467
-0.0094161509 -0.077643335 0.25074467
-0.0089082932 -0.077676281 0.25085106
-0.0084035611 -0.077742167 0.25106382
-0.007897961 -0.077808045 0.25127658
-0.0073977471 -0.077939816 0.25170213
-0.0068987054 -0.078104526 0.25223404
-0.0064028776 -0.078335114 0.25297871
-0.0058941096 -0.078433938 0.25329787
0.031323284 -0.09394943 0.30340424
0.032031972 -0.094212957 0.30425531
0.032732718 -0.09444356 0.30500001
0.033401594 -0.094575316 0.30542552
0.034036655 -0.094608262 0.30553192
-0.053544588 -0.060965791 0.19819149
-0.053254284 -0.061096691 0.19861703
-0.053047158 -0.061325759 0.1993617
-0.052780818 -0.061489385 0.19989362
-0.052456558 -0.061587553 0.20021276
-0.052103344 -0.061653007 0.20042554
-0.051749256 -0.061718453 0.20063829
-0.051367082 -0.061751176 0.20074467
-0.050984476 -0.061783902 0.20085107
-0.050628219 -0.061849352 0.20106383
-0.050271098 -0.061914802 0.2012766
-0.049939457 -0.062012974 0.20159574
-0.049606517 -0.062111147 0.20191489
-0.049272276 -0.062209323 0.20223404
-0.048859622 -0.062209323 0.20223404
-0.048497941 -0.062274769 0.2024468
-0.048185926 -0.062405668 0.20287234
-0.047947329 -0.062634744 0.20361702
-0.047705691 -0.062863812 0.20436171
-0.042891525 -0.060769442 0.19755319
-0.042442665 -0.060703993 0.19734043
-0.042243965 -0.060998514 0.19829787
-0.042176034 -0.061489385 0.19989362
-0.042146049 -0.062045701 0.20170213
-0.042064659 -0.062536567 0.20329787
-0.041911375 -0.062929258 0.20457447
-0.041731305 -0.063289233 0.20574468
-0.041525096 -0.063616477 0.20680851
-0.041335691 -0.063976444 0.20797873
-0.041162435 -0.064369142 0.20925532
-0.040963259 -0.064729109 0.21042553
-0.040759306 -0.065089077 0.21159574
-0.040489756 -0.065350875 0.21244681
-0.040196676 -0.065579951 0.21319149
-0.039860871 -0.065743573 0.21372341
-0.039542519 -0.065939918 0.2143617
-0.039240967 -0.066168986 0.21510638
-0.038898002 -0.066332608 0.21563829
-0.038514916 -0.066430785 0.21595745
-0.038093019 -0.066463508 0.21606383
-0.037670687 -0.066496231 0.21617021
-0.037247922 -0.066528961 0.2162766
-0.036806617 -0.066528961 0.2162766
-0.036365312 -0.066528961 0.2162766
-0.011438379 -0.076968081 0.25021276
-0.010937121 -0.077033527 0.25042552
-0.010434994 -0.077098981 0.25063831
-0.0099319993 -0.077164426 0.25085106
-0.0094241416 -0.077197157 0.25095746
-0.0089120716 -0.077197157 0.25095746
-0.0084035611 -0.07722988 0.25106382
-0.0078946184 -0.077262603 0.25117022
-0.0073883669 -0.077328049 0.25138298
-0.0068899766 -0.077491671 0.25191489
-0.0063921078 -0.077688023 0.25255319
-0.0058842083 -0.0777862 0.25287235
0.031125594 -0.092741303 0.30148935
0.031875174 -0.093134001 0.30276597
0.032618545 -0.093493968 0.30393618
0.033308521 -0.093690313 0.30457446
0.033965547 -0.09378849 0.30489361
-0.053458367 -0.060463864 0.19787234
-0.053225756 -0.060658906 0.19851063
-0.053047158 -0.060918968 0.1993617
-0.052836996 -0.06114652 0.20010638
-0.052512307 -0.061244044 0.20042554
-0.052103344 -0.061244044 0.20042554
-0.051694382 -0.061244044 0.20042554
-0.05131264 -0.061276551 0.20053191
-0.050984476 -0.061374076 0.20085107
-0.050655007 -0.061471593 0.20117021
-0.050297666 -0.06153661 0.20138298
-0.049913105 -0.061569117 0.20148936
-0.049475837 -0.06153661 0.20138298
-0.049064923 -0.06153661 0.20138298
-0.0486026 -0.061471593 0.20117021
-0.048243091 -0.06153661 0.20138298
-0.047907982 -0.061634135 0.20170213
-0.041985061 -0.059651177 0.19521277
-0.041858692 -0.060041267 0.19648936
-0.041861791 -0.060626399 0.19840425
-0.041857075 -0.061211538 0.20031916
-0.041690458 -0.061569117 0.20148936
-0.041431893 -0.061796669 0.20223404
-0.04110555 -0.0619267 0.20265958
-0.040948357 -0.06231679 0.20393617
-0.040870532 -0.062836908 0.2056383
-0.040806685 -0.06338954 0.20744681
-0.040714748 -0.063909657 0.20914894
-0.040574878 -0.064364761 0.2106383
-0.040368106 -0.064722344 0.21180852
-0.040136497 -0.065047413 0.21287234
-0.039860871 -0.065307476 0.21372341
-0.039581768 -0.065567538 0.21457447
-0.039279781 -0.065795086 0.21531914
-0.03893638 -0.065957628 0.21585107
-0.038552862 -0.066055141 0.21617021
-0.038111772 -0.066055141 0.21617021
-0.037689228 -0.066087656 0.2162766
-0.037266243 -0.066120163 0.21638298
-0.036842823 -0.066152669 0.21648936
-0.036383197 -0.066120163 0.21638298
-0.035906333 -0.066055141 0.21617021
-0.035430338 -0.065990135 0.21595745
-0.011457833 -0.076587565 0.25063831
-0.010951059 -0.076620065 0.25074467
-0.010448283 -0.076685086 0.25095746
-0.0099446354 -0.0767501 0.25117022
-0.0094321314 -0.0767501 0.25117022
-0.0089196274 -0.0767501 0.25117022
-0.0084035611 -0.076717593 0.25106382
-0.0078946184 -0.0767501 0.25117022
-0.0073914938 -0.07684762 0.25148937
-0.0068928865 -0.077010162 0.25202128
-0.0063921078 -0.077172697 0.25255319
0.030348927 -0.091638513 0.29989362
0.031037729 -0.091866061 0.30063829
0.031774372 -0.092223644 0.30180851
0.03251579 -0.092581227 0.30297872
0.033203814 -0.092776276 0.30361703
0.033858888 -0.092873797 0.30393618
-0.053515844 -0.060124692 0.1980851
-0.053282805 -0.060318436 0.19872341
-0.05313208 -0.06060905 0.19968085
-0.052921265 -0.060835082 0.20042554
-0.052568048 -0.06089966 0.20063829
-0.052103344 -0.060835082 0.20042554
-0.051666945 -0.060802791 0.20031916
-0.05128542 -0.060835082 0.20042554
-0.050957471 -0.060931951 0.20074467
-0.050655007 -0.06106111 0.20117021
-0.050271098 -0.061093405 0.2012766
-0.049834043 -0.06106111 0.20117021
-0.049292881 -0.06089966 0.20063829
-0.048779812 -0.0607705 0.20021276
-0.04831988 -0.060705923 0.2
-0.047988243 -0.060802791 0.20031916
-0.0409742 -0.060705923 0.2
-0.040587686 -0.06073821 0.20010638
-0.040371619 -0.061028823 0.20106383
