# .PCD v0.7 - Point Cloud Data file format
VERSION 0.7
FIELDS x y z
SIZE 4 4 4
TYPE F F F
COUNT 1 1 1
WIDTH 1377
HEIGHT 1
VIEWPOINT 0 0 0 1 0 0 0
POINTS 1377
DATA ascii
-0.1206002 0.088544875 0.20559283
-0.12017171 0.088708736 0.20614114
-0.11996105 0.088799946 0.20640278
-0.11980065 0.088858768 0.20659365
-0.11961907 0.088914588 0.20681654
-0.1194349 0.088972896 0.20701391
-0.11912885 0.089076549 0.20739138
-0.11880589 0.089194514 0.2078061
-0.11839753 0.0893948 0.20835201
-0.11807763 0.089556441 0.20882545
-0.11646083 0.090377934 0.21097448
-0.11599272 0.090593278 0.21161072
-0.1156702 0.090767153 0.21202742
-0.11535741 0.090933047 0.21243513
-0.11504115 0.09109354 0.21283318
-0.11474568 0.091232479 0.21320891
-0.11441666 0.091375537 0.21362686
-0.11416993 0.091470718 0.21388929
-0.11392418 0.091554977 0.21419649
-0.11367641 0.091620855 0.2145047
-0.113424 0.091697037 0.21480097
-0.11310844 0.09181197 0.21517277
-0.11273222 0.09194883 0.21562763
-0.11238958 0.092066765 0.21609583
-0.11198954 0.092226401 0.21658863
-0.11167608 0.092364483 0.21697916
-0.11135852 0.09250021 0.21740465
-0.11115642 0.092586197 0.21767853
-0.11093914 0.09268444 0.21798816
-0.11074891 0.092776924 0.21827038
-0.11058146 0.092867628 0.21852039
-0.11043733 0.092935592 0.21873257
-0.11029491 0.09300413 0.21894275
-0.11007003 0.093113936 0.2192806
-0.10981539 0.093228206 0.21965817
-0.10952247 0.093359016 0.2200934
-0.10926919 0.093475804 0.22046565
-0.10907506 0.093569882 0.22072613
-0.10893425 0.093634278 0.22090577
-0.10882933 0.093677774 0.22105141
-0.10868037 0.093747444 0.22124472
-0.1084037 0.093881503 0.22162408
-0.10804542 0.094060056 0.22211908
-0.10775425 0.094186619 0.2225472
-0.10747627 0.094307289 0.2229075
-0.10719771 0.094434857 0.2232783
-0.10699463 0.094511472 0.22355026
-0.10660817 0.094631337 0.22408341
-0.1063403 0.094732508 0.22445102
-0.10608657 0.094842568 0.22480893
-0.10584182 0.094947077 0.22516935
-0.1055673 0.09506657 0.22557412
-0.10530508 0.09518297 0.2259649
-0.10503925 0.095308743 0.22637603
-0.10480582 0.095428817 0.22671911
-0.10447352 0.095535576 0.22720227
-0.10418359 0.095640756 0.22759894
-0.10389365 0.095766567 0.22799128
-0.10354648 0.09593305 0.22850281
-0.10320199 0.096102409 0.22895843
-0.10288074 0.096294031 0.22940797
-0.10261985 0.096436828 0.22976407
-0.10237615 0.096564405 0.23009543
-0.102158 0.096671708 0.23038495
-0.10189328 0.096800596 0.23073642
-0.10161311 0.096932523 0.23110801
-0.10139248 0.097034976 0.2314112
-0.10115706 0.097143836 0.23173523
-0.1009048 0.097258717 0.23207627
-0.10059467 0.097392857 0.23249935
-0.10032409 0.097510673 0.23286761
-0.10007473 0.097613603 0.23319735
-0.099764071 0.097736403 0.2336003
-0.099299572 0.097893879 0.23420092
-0.098774523 0.09812592 0.2348831
-0.098304927 0.0983252 0.23548894
-0.097910941 0.098496556 0.23599818
-0.097715534 0.098582372 0.2362517
-0.097440854 0.098693281 0.23660469
-0.09717834 0.098789409 0.23694839
-0.096898951 0.098898001 0.23730505
-0.096653678 0.098997198 0.23763585
-0.096452639 0.099073485 0.23790258
-0.096190333 0.099182196 0.23825234
-0.095847368 0.099328928 0.23869206
-0.095459133 0.099503718 0.23918599
-0.095016502 0.09971755 0.23974641
-0.09465944 0.099881969 0.24019696
-0.094361059 0.10001894 0.2405618
-0.093994789 0.10018409 0.24102062
-0.093612872 0.10037928 0.24152505
-0.093143262 0.10065509 0.2421491
-0.092791267 0.10084951 0.24260332
-0.092557155 0.100973 0.24288911
-0.092367262 0.10108802 0.24316242
-0.092197806 0.10119686 0.2434171
-0.091872089 0.10137253 0.24388836
-0.091486879 0.10159914 0.2444559
-0.091108836 0.10181481 0.24500333
-0.090755627 0.10200975 0.24550883
-0.090367667 0.10222025 0.2460728
-0.090071924 0.10237974 0.24649923
-0.089748807 0.10256403 0.24695818
-0.089472964 0.10272448 0.24733596
-0.089175753 0.10286593 0.24773434
-0.088852637 0.1030476 0.24818318
-0.088575497 0.10323929 0.24857269
-0.088244721 0.10346173 0.24905869
-0.087907329 0.10367199 0.24956363
-0.087619811 0.10385273 0.25001442
-0.087261342 0.10406771 0.25059167
-0.086810879 0.10431408 0.25129735
-0.086433314 0.10455068 0.25189906
-0.086020149 0.10482956 0.25258887
-0.085633397 0.10508336 0.25317526
-0.085350029 0.10526309 0.25362414
-0.085120022 0.10538067 0.25399458
-0.084759012 0.10558802 0.25458267
-0.084342532 0.10585684 0.25529945
-0.083919674 0.10610347 0.25605014
-0.083508797 0.10640811 0.25679329
-0.083131284 0.10671252 0.25755623
-0.082753874 0.10695871 0.25823927
-0.082354203 0.10724159 0.25903562
-0.081870869 0.10757228 0.25986776
-0.081487983 0.10777374 0.2605454
-0.081215002 0.10793361 0.26102147
-0.080990925 0.1080578 0.26140758
-0.080796465 0.10817101 0.26177409
-0.080552623 0.10832306 0.26218778
-0.08035402 0.10851643 0.26263466
-0.080068 0.10873242 0.26330578
-0.079810545 0.10897896 0.26391903
-0.079384841 0.10941226 0.2649937
-0.078945413 0.10972884 0.26592988
-0.0785987 0.11016525 0.26664326
-0.078534305 0.11038212 0.26698178
-0.078476705 0.11049307 0.26718554
-0.078353338 0.11056722 0.26745325
-0.078219332 0.11057951 0.26763132
-0.078077927 0.11057798 0.26779827
-0.077880353 0.11065187 0.26801443
-0.077699646 0.11077634 0.26830137
-0.07750348 0.11092779 0.26858178
-0.077261351 0.11111324 0.26893997
-0.076951034 0.11142761 0.26930824
-0.0766562 0.11161797 0.26954305
-0.07639952 0.11169487 0.26969287
-0.12246853 0.087790333 0.2033302
-0.12250225 0.087767072 0.20327747
-0.12248327 0.087773107 0.20330617
-0.12242118 0.087806843 0.20340078
-0.12227383 0.087883174 0.20361288
-0.12197625 0.088005811 0.20398052
-0.12180915 0.088079274 0.204174
-0.12163411 0.088150457 0.20436697
-0.12148037 0.088215046 0.20453423
-0.12140946 0.088239327 0.20460662
-0.12135426 0.08826112 0.20466867
-0.12129431 0.088279046 0.20473143
-0.12127226 0.088286839 0.20475785
-0.12119242 0.088317305 0.20484753
-0.12109231 0.088355675 0.20496705
-0.12095859 0.088408217 0.20512988
-0.12072769 0.08850164 0.20542563
-0.12041984 0.088621877 0.20581897
-0.12007452 0.088758081 0.20625496
-0.11988416 0.08883623 0.20649822
-0.11971434 0.088890769 0.2067125
-0.11955283 0.088949919 0.20689321
-0.11931803 0.089022271 0.20717943
-0.11904562 0.089112625 0.20751543
-0.11875412 0.089229777 0.20786776
-0.11827463 0.08948306 0.20852214
-0.11801637 0.089600645 0.20891218
-0.1178029 0.089689136 0.20923385
-0.11755986 0.089810528 0.20958818
-0.11731042 0.089935027 0.20993836
-0.11695109 0.090157613 0.21037005
-0.11673877 0.090258211 0.21060026
-0.11647277 0.090383835 0.21092938
-0.1160585 0.090565205 0.21149772
-0.11571013 0.09074603 0.21191876
-0.11537955 0.090916753 0.21235518
-0.1150199 0.09110038 0.21280029
-0.114733 0.091243252 0.21315357
-0.11440972 0.091394044 0.2135645
-0.11416129 0.091479965 0.21389619
-0.11393705 0.091552503 0.21418144
-0.11367716 0.091632307 0.21449873
-0.11342568 0.091702946 0.21479867
-0.11314347 0.091802284 0.21513379
-0.11274435 0.091944978 0.21561466
-0.11237389 0.092081688 0.21606958
-0.11202946 0.092219636 0.21652287
-0.11168716 0.092360541 0.2169653
-0.11141048 0.092484273 0.21732914
-0.1112189 0.092570104 0.21759236
-0.11101121 0.092652336 0.21785608
-0.11084749 0.092733905 0.21809252
-0.11065622 0.092825793 0.21840651
-0.11052304 0.092899971 0.21860097
-0.11030695 0.093005285 0.21892682
-0.11005236 0.093124963 0.21930821
-0.10981952 0.093238153 0.21965647
-0.10953514 0.093358502 0.22007915
-0.10931202 0.093464114 0.22038178
-0.10914131 0.093554705 0.22061524
-0.1090586 0.093580231 0.22072197
-0.10889432 0.093659721 0.22093984
-0.10867714 0.093747519 0.22122811
-0.10844038 0.093863077 0.2215727
-0.1081149 0.094033413 0.22201148
-0.10780908 0.094177298 0.22242747
-0.10748808 0.094312251 0.22289433
-0.10732012 0.094400406 0.22311237
-0.10704574 0.094511271 0.22347021
-0.10669411 0.094628744 0.22394073
-0.10636945 0.09473642 0.22438405
-0.10608604 0.094854988 0.22478393
-0.10584103 0.094953336 0.22514518
-0.10557561 0.095077097 0.22553557
-0.1053357 0.095187053 0.22587636
-0.10508092 0.095314823 0.22624798
-0.10484917 0.095422365 0.2266352
-0.10453722 0.095530152 0.22709119
-0.10422075 0.095632933 0.22753872
-0.10394301 0.095746458 0.22791703
-0.10354334 0.095939323 0.22849806
-0.10322486 0.096102342 0.22890638
-0.10289752 0.096297123 0.22937252
-0.10262997 0.096432723 0.22974914
-0.10238814 0.096557848 0.23008107
-0.10216893 0.096672006 0.23036975
-0.10190421 0.096805491 0.23071921
-0.10165794 0.09692701 0.23104194
-0.10137052 0.097047545 0.23143999
-0.10113508 0.097156368 0.23176408
-0.10085059 0.097293295 0.23215024
-0.10057209 0.097413369 0.23252714
-0.10034788 0.09751635 0.23283122
-0.10003755 0.097641617 0.23324053
-0.099726386 0.097763777 0.23364392
-0.099261075 0.097943403 0.23425369
-0.098739825 0.098147564 0.23492941
-0.098262481 0.098357797 0.23555061
-0.097926475 0.098506793 0.23598048
-0.097702064 0.09860266 0.23626566
-0.097421348 0.098714054 0.23663397
-0.097115584 0.098827392 0.23702592
-0.09680286 0.098956265 0.2374313
-0.096616693 0.09901876 0.23768048
-0.096377946 0.099115394 0.23799387
-0.096147612 0.099205054 0.23828989
-0.095834211 0.099343881 0.23870331
-0.095383674 0.099546857 0.23928533
-0.094987966 0.0997352 0.23977561
-0.094654024 0.099899687 0.24018191
-0.094323851 0.10004275 0.24057201
-0.093895942 0.10024316 0.24112494
-0.093535438 0.10042089 0.24159572
-0.093055747 0.10071383 0.24224316
-0.0927044 0.10091472 0.2427
-0.092533931 0.10099564 0.24292782
-0.092327178 0.10110986 0.2432214
-0.092167214 0.10121514 0.24345495
-0.091821976 0.10141584 0.24396397
-0.091406032 0.10165508 0.24457181
-0.091001041 0.10189371 0.24515282
-0.090636678 0.10208397 0.24567707
-0.090312406 0.10225949 0.24614504
-0.090059422 0.10239463 0.24651739
-0.089735255 0.10257559 0.24697305
-0.089351051 0.10278931 0.24750629
-0.08893238 0.10303175 0.24808161
-0.088555343 0.10328234 0.24859655
-0.088281773 0.10345906 0.24901889
-0.088038392 0.10359773 0.24937451
-0.087768354 0.10378469 0.2497744
-0.087534912 0.10393927 0.25015947
-0.087227963 0.10410352 0.25061938
-0.086745664 0.1043606 0.25140584
-0.086405486 0.10457882 0.25193492
-0.085976645 0.10487271 0.25264025
-0.08565557 0.10508875 0.25312394
-0.085296176 0.10531049 0.25370535
-0.085092321 0.10540346 0.25403515
-0.084721342 0.10564166 0.25466642
-0.084288098 0.10591365 0.25540754
-0.083795577 0.10625048 0.25632429
-0.083281025 0.10665693 0.25732425
-0.082751729 0.1071014 0.25839767
-0.082225047 0.10749827 0.25942817
-0.081805982 0.10784015 0.26027682
-0.081390321 0.10805833 0.2610364
-0.081057325 0.10826252 0.26165092
-0.080793984 0.10846833 0.26214865
-0.080566265 0.10862532 0.2627008
-0.080373377 0.10879241 0.26304898
-0.080183581 0.10900378 0.2634525
-0.08006721 0.10912389 0.26373854
-0.079807632 0.10932464 0.26425442
-0.079544209 0.10962299 0.26494876
-0.079225384 0.1102968 0.26590073
-0.078957193 0.11071303 0.26650625
-0.078748643 0.11093857 0.26696479
-0.078636579 0.11106548 0.26726961
-0.078533992 0.1111676 0.26750964
-0.078427806 0.11122499 0.26773584
-0.07828299 0.11126055 0.26790351
-0.07817819 0.11135017 0.26813608
-0.07800293 0.11147391 0.26836312
-0.077796265 0.11165414 0.26863676
-0.077542618 0.11196998 0.26901844
-0.077127233 0.11246428 0.26949191
-0.0768428 0.11263914 0.26976255
-0.076618768 0.11256704 0.26986507
-0.12298229 0.087522388 0.20247377
-0.12281941 0.087609656 0.20275646
-0.12264367 0.087703288 0.203052
-0.12250636 0.087779514 0.20327307
-0.12243368 0.08781334 0.2033824
-0.12240598 0.087827064 0.20342207
-0.12240598 0.087827064 0.20342207
-0.1224318 0.087809242 0.20338292
-0.12239596 0.087828718 0.20343673
-0.12234057 0.087856688 0.20351674
-0.12215602 0.087931074 0.20377252
-0.12191554 0.088033453 0.2040543
-0.12172377 0.088115089 0.20427123
-0.12157341 0.088189706 0.20443514
-0.12144562 0.088229686 0.20456913
-0.12135424 0.08826112 0.20466869
-0.12128356 0.088285074 0.20474365
-0.12121645 0.088311635 0.20482035
-0.121136 0.088341407 0.20491198
-0.12106967 0.088367313 0.20499226
-0.12094753 0.088415176 0.20514224
-0.12081477 0.088469535 0.20530941
-0.12060662 0.08855246 0.20558178
-0.12030505 0.088679627 0.20596102
-0.11996893 0.088805802 0.20639017
-0.11977738 0.088874631 0.20662452
-0.11961693 0.088940643 0.206826
-0.11943436 0.08900623 0.20705061
-0.11924321 0.089065023 0.20726861
-0.1189387 0.089168638 0.20764837
-0.11857003 0.089331992 0.20813286
-0.11828518 0.08948116 0.20851134
-0.11801331 0.089609347 0.20891389
-0.11783317 0.089697912 0.2091824
-0.11758729 0.089809634 0.20953853
-0.11722258 0.090008274 0.20999922
-0.11697146 0.090161718 0.21027653
-0.11675258 0.090257302 0.21056119
-0.1165132 0.090366043 0.21083936
-0.11616618 0.090516567 0.21123908
-0.11578977 0.090717107 0.21176168
-0.11546461 0.090883911 0.21220392
-0.11507718 0.091086313 0.21269745
-0.11471063 0.091262594 0.21316969
-0.11443772 0.091384478 0.21351999
-0.11419784 0.091477968 0.213834
-0.11397646 0.091558442 0.21412113
-0.11369801 0.091628812 0.21447071
-0.11345267 0.091702856 0.21477294
-0.11313396 0.091816239 0.21514627
-0.11277912 0.091942668 0.21557195
-0.11237434 0.092091948 0.21606551
-0.11206279 0.092213117 0.21645574
-0.11179107 0.092326485 0.21679243
-0.1114676 0.092466332 0.21720403
-0.11128612 0.092546299 0.2174488
-0.11109379 0.092619009 0.21771128
-0.11086894 0.092720106 0.21803263
-0.11067859 0.092810586 0.21831721
-0.11051571 0.092900306 0.21858557
-0.11028942 0.09302026 0.21895237
-0.1100349 0.09313941 0.21933402
-0.10980261 0.093260661 0.21967995
-0.10957155 0.09334667 0.22000863
-0.10934053 0.093459561 0.22032465
-0.10918816 0.093541414 0.22054547
-0.1090667 0.09357851 0.22069114
-0.10888602 0.093667857 0.22095248
-0.10865179 0.093772039 0.22126597
-0.10832806 0.093944386 0.22172067
-0.10805801 0.09407369 0.22208723
-0.10781106 0.094182491 0.22242768
-0.10752735 0.09431345 0.22283897
-0.10739072 0.094380237 0.22301537
-0.10710181 0.094501071 0.22338411
-0.10679749 0.094618022 0.22378106
-0.10642006 0.094721362 0.22431348
-0.10608868 0.094860651 0.22476615
-0.10582678 0.09497454 0.22515276
-0.10558721 0.095078081 0.22549517
-0.10536743 0.095183648 0.22580922
-0.10506291 0.095329702 0.2262558
-0.10484407 0.095436655 0.2266082
-0.10451569 0.095545925 0.22711805
-0.10417812 0.095662966 0.22759081
-0.1038752 0.095797062 0.22801012
-0.10350452 0.095966369 0.22852997
-0.10321076 0.096126795 0.22893156
-0.1029122 0.096290767 0.22933966
-0.10267881 0.096409403 0.2296727
-0.10248987 0.096521609 0.22994874
-0.10222298 0.096652761 0.23029548
-0.10193949 0.096800089 0.23067231
-0.10165258 0.096945345 0.23105241
-0.10134902 0.097070694 0.23146595
-0.10110345 0.097187988 0.23180299
-0.10083998 0.097301185 0.23216414
-0.10058476 0.097422071 0.23250952
-0.10032372 0.097533166 0.23285975
-0.10003866 0.09764684 0.23323436
-0.099694148 0.09778364 0.23368552
-0.099198096 0.097991392 0.23434061
-0.098672897 0.098197289 0.23502402
-0.098255746 0.098376334 0.23556313
-0.097981445 0.098505169 0.23591271
-0.097682893 0.098621711 0.23629545
-0.097410746 0.098722711 0.2366493
-0.097104222 0.098848313 0.23703471
-0.096780166 0.098972067 0.23746172
-0.096539952 0.099065349 0.23777814
-0.096305624 0.09915752 0.23809043
-0.095992282 0.099285677 0.23847838
-0.095621444 0.099454649 0.23895727
-0.095220268 0.099644467 0.23946403
-0.09489163 0.099789284 0.23987527
-0.094557337 0.099949814 0.24028635
-0.094233342 0.1000963 0.24068668
-0.093831532 0.10028156 0.24120438
-0.09329962 0.1005907 0.24193616
-0.092883781 0.10083871 0.24247397
-0.092597924 0.10099275 0.24284393
-0.092379585 0.10111932 0.24315839
-0.09221115 0.1011927 0.24339594
-0.091953471 0.10134137 0.24376698
-0.091635503 0.1015333 0.24423589
-0.091273449 0.1017559 0.2447587
-0.090920001 0.10194609 0.24526562
-0.09053088 0.10214666 0.24583012
-0.09023568 0.10230928 0.24625511
-0.089964189 0.10246221 0.24664232
-0.089667439 0.10262346 0.24705766
-0.089096397 0.10296516 0.24786215
-0.088462122 0.10335549 0.24874438
-0.088044442 0.10364932 0.24937956
-0.08777912 0.1038358 0.24978828
-0.087688826 0.10387366 0.24991284
-0.087497413 0.10397616 0.2502141
-0.087269261 0.10409082 0.25054955
-0.086982593 0.10428049 0.25101829
-0.08661855 0.10446776 0.25161099
-0.086286508 0.10469722 0.2521461
-0.085871466 0.10496823 0.25280112
-0.085556306 0.10517137 0.25329223
-0.085224599 0.10536366 0.25380802
-0.084953822 0.10553355 0.2542631
-0.084583394 0.10576263 0.25489596
-0.084169097 0.10599778 0.25560319
-0.083571643 0.10645175 0.25674546
-0.082962781 0.10699552 0.25803202
-0.082273766 0.10762277 0.25952592
-0.081628107 0.10805023 0.26077586
-0.081200764 0.10847534 0.26171955
-0.080831841 0.10892374 0.26263943
-0.080600828 0.10951342 0.26341531
-0.080432102 0.10988747 0.26392132
-0.080323011 0.11000249 0.26413688
-0.080168158 0.1102733 0.26450741
-0.080027506 0.11040752 0.26481637
-0.079906411 0.11048003 0.2650117
-0.079699278 0.11069626 0.26540834
-0.079531096 0.11094919 0.26593301
-0.079240926 0.11123528 0.26651409
-0.079010732 0.11147224 0.26697388
-0.078853846 0.11157093 0.26729655
-0.078715637 0.11172539 0.2675882
-0.078570567 0.11181606 0.2678414
-0.078486502 0.11188884 0.26798677
-0.078380719 0.11198919 0.26823875
-0.078226931 0.11221372 0.26849931
-0.07800106 0.11248482 0.26885295
-0.077697679 0.11315117 0.2693288
-0.077546552 0.11412108 0.27022216
-0.077646516 0.11514174 0.27098584
-0.077463783 0.11536297 0.27127841
-0.12312247 0.087448239 0.20224643
-0.12305664 0.087485962 0.20235051
-0.12295127 0.087549224 0.20252572
-0.12276935 0.087643489 0.20283571
-0.12259518 0.087738059 0.20313452
-0.12246211 0.087806709 0.20333888
-0.12237946 0.087845683 0.20346057
-0.1223607 0.087854303 0.20348737
-0.12235092 0.087856941 0.20350169
-0.12235093 0.087856948 0.20350169
-0.12231398 0.087874532 0.20355575
-0.12222801 0.087913036 0.20367622
-0.12200043 0.087999843 0.20395663
-0.12180915 0.088079296 0.204174
-0.12167278 0.088147327 0.20432881
-0.12151504 0.088210024 0.20449471
-0.12138754 0.088251606 0.20462959
-0.12130797 0.088279434 0.20471817
-0.12121645 0.088311642 0.20482035
-0.12113602 0.088341407 0.20491196
-0.12105877 0.088374302 0.20500469
-0.12094753 0.088415183 0.20514223
-0.12082601 0.088463694 0.20529585
-0.12069412 0.088521548 0.20546421
-0.1204896 0.088605449 0.20572855
-0.12018561 0.088731095 0.20611422
-0.1199037 0.088833824 0.20647682
-0.11967035 0.088921309 0.2067669
-0.11955301 0.088973418 0.20689966
-0.11932764 0.089052983 0.20717824
-0.11905109 0.089144938 0.20751232
-0.1188373 0.089234203 0.20777272
-0.11851146 0.089377902 0.20821023
-0.11822406 0.089524612 0.20859711
-0.11802206 0.089615636 0.20889927
-0.11787169 0.08968693 0.2091182
-0.11767714 0.089770548 0.20940366
-0.11727637 0.089998312 0.20986997
-0.11698765 0.090158209 0.21024175
-0.11676258 0.090262227 0.21048817
-0.11648926 0.090378411 0.21079956
-0.11624113 0.090498731 0.21112022
-0.11584329 0.090685159 0.21167202
-0.11547024 0.090891078 0.21217781
-0.11510644 0.09107966 0.21265252
-0.1147396 0.091256827 0.21312487
-0.11442639 0.091390811 0.21353385
-0.11418739 0.091482267 0.21384676
-0.11396597 0.0915654 0.21413243
-0.11375359 0.091619767 0.21440196
-0.11345357 0.091716602 0.21476862
-0.11310394 0.091837503 0.21518321
-0.11280588 0.091953754 0.21554637
-0.11242244 0.092088148 0.21601595
-0.11209363 0.092211321 0.21641654
-0.1118634 0.092298672 0.21669994
-0.11157039 0.092424192 0.21706577
-0.11130488 0.092539467 0.21741955
-0.11111827 0.092626542 0.21767789
-0.1108788 0.092717297 0.2180174
-0.1107085 0.09280774 0.21827106
-0.11046854 0.092932671 0.2186529
-0.11023115 0.093053691 0.21903491
-0.10999667 0.093169302 0.21938571
-0.10976218 0.093289979 0.21972954
-0.10950887 0.09340357 0.22009563
-0.10936141 0.093462877 0.22029461
-0.10920645 0.093536362 0.22050254
-0.10902882 0.093607835 0.22073863
-0.10879571 0.09371572 0.22106735
-0.10853631 0.093841761 0.22141799
-0.10826092 0.093980387 0.22181189
-0.10796822 0.094114967 0.22220543
-0.10773199 0.094224788 0.22253317
-0.10754227 0.094316341 0.22278999
-0.10732787 0.09441781 0.2230861
-0.10712053 0.094496317 0.22335595
-0.10684589 0.094606772 0.2236986
-0.10641178 0.094736129 0.22430356
-0.1060938 0.094865762 0.22474512
-0.10583 0.094980471 0.22513118
-0.1055259 0.095114149 0.22557619
-0.10522395 0.095268473 0.22599715
-0.10498951 0.095384374 0.2263459
-0.10473159 0.0954827 0.22678886
-0.10445145 0.095585197 0.2271957
-0.1040694 0.095721819 0.2277391
-0.10376304 0.095857672 0.22817843
-0.10346048 0.095997132 0.22859935
-0.10316003 0.096168101 0.22899359
-0.1029122 0.096301682 0.22933552
-0.10266548 0.096430339 0.22969933
-0.102474 0.096546307 0.22997168
-0.10223965 0.096653514 0.23027904
-0.10196381 0.096799485 0.23063816
-0.10162205 0.096964844 0.23109616
-0.10131636 0.097095534 0.23150881
-0.10109372 0.09719687 0.2318168
-0.10082911 0.097315989 0.23217526
-0.10055049 0.09744747 0.23255114
-0.10030381 0.097548589 0.23288177
-0.099971421 0.097684838 0.2333204
-0.09962593 0.097830318 0.23376729
-0.09912686 0.098051041 0.23444331
-0.098672211 0.098221257 0.23503347
-0.098348714 0.098360725 0.23545015
-0.098022826 0.098500602 0.23586379
-0.097712114 0.098626077 0.23626207
-0.097411618 0.098729648 0.23664671
-0.097072802 0.09887588 0.23707823
-0.09673278 0.099004373 0.23752245
-0.096451364 0.099114567 0.23787896
-0.096211925 0.099213116 0.23818716
-0.095865697 0.099351257 0.23863965
-0.095457226 0.099544778 0.23916754
-0.095112912 0.099701129 0.23958279
-0.09474048 0.099875376 0.24004123
-0.094471321 0.099991843 0.24036852
-0.094145387 0.10013188 0.24077284
-0.093570076 0.1004305 0.24154927
-0.09302102 0.10075776 0.24228612
-0.092630327 0.10099132 0.24280193
-0.092370972 0.10113785 0.24317583
-0.092204094 0.10120836 0.24341635
-0.092084289 0.10130208 0.24358457
-0.091819063 0.10145444 0.24397831
-0.09144979 0.10164789 0.24450605
-0.091079071 0.10186089 0.24503015
-0.09062127 0.10210339 0.24569109
-0.090260573 0.10230205 0.24621284
-0.090073809 0.10241106 0.24647847
-0.089874521 0.10252184 0.24676563
-0.089476347 0.10276497 0.2473301
-0.088736109 0.10322912 0.24836898
-0.08805421 0.10368277 0.24936126
-0.087508373 0.10404155 0.25020251
-0.087254822 0.10418891 0.25061983
-0.087254547 0.10417199 0.25062606
-0.08710511 0.10424862 0.25086805
-0.086912021 0.10433213 0.25115693
-0.0865428 0.10456289 0.2517606
-0.08626844 0.10474779 0.25217611
-0.086005054 0.10489991 0.25255471
-0.085649393 0.10513502 0.25316077
-0.085375212 0.10530087 0.25359547
-0.085002042 0.10553953 0.25419864
-0.084624402 0.10575493 0.25483102
-0.084210671 0.10599964 0.25556037
-0.083752558 0.10634219 0.25639999
-0.083231695 0.10679622 0.25744212
-0.082614176 0.10739019 0.25880319
-0.08182402 0.10806067 0.26047379
-0.081238627 0.1088414 0.26195401
-0.080898479 0.11025997 0.26355892
-0.080687575 0.111131 0.26465034
-0.080540873 0.11143639 0.26507348
-0.080393448 0.11156204 0.26528686
-0.080255814 0.11154481 0.2654514
-0.080140322 0.11156961 0.26560032
-0.079985946 0.11161689 0.26585543
-0.079847291 0.11165879 0.26602575
-0.079665273 0.11168587 0.26629144
-0.079474464 0.11184275 0.26659158
-0.079256237 0.11193152 0.2669431
-0.079041876 0.11207002 0.26730818
-0.07890071 0.11220862 0.26757786
-0.078771859 0.1122721 0.26780477
-0.078656696 0.11243566 0.26804996
-0.07851956 0.11256305 0.26828197
-0.078441754 0.11302017 0.26861656
-0.078241944 0.11381724 0.26913443
-0.078466214 0.11523923 0.27008024
-0.079028405 0.11738052 0.27110749
-0.078651041 0.11862347 0.27374461
-0.078915291 0.1206322 0.27779111
-0.079006523 0.12095891 0.27907005
-0.12306459 0.087478869 0.20233819
-0.12299927 0.087520942 0.20244266
-0.12287744 0.087587975 0.20265216
-0.12271306 0.087675527 0.20293663
-0.12256105 0.087759383 0.20318875
-0.12244469 0.087819263 0.20336501
-0.12236071 0.087854311 0.20348738
-0.12232418 0.0878748 0.20354092
-0.12231398 0.087874524 0.20355579
-0.1222954 0.087884359 0.20358267
-0.12222801 0.087913014 0.20367627
-0.12208522 0.087969504 0.20385657
-0.12190709 0.088046625 0.20406312
-0.12175862 0.088109247 0.20423269
-0.1215734 0.088189706 0.20443515
-0.12145827 0.08822719 0.20455691
-0.12135395 0.088265426 0.20466654
-0.12125022 0.088304348 0.20477907
-0.12117079 0.088333085 0.20487079
-0.12106968 0.088367321 0.20499223
-0.12099096 0.088400818 0.20508589
-0.12088047 0.088444225 0.20522466
-0.12078135 0.088486999 0.20534976
-0.12061596 0.08855582 0.20556282
-0.12041295 0.088637188 0.20582213
-0.1200821 0.088774078 0.20624435
-0.11987235 0.088851966 0.20651263
-0.11962768 0.088950001 0.20681801
-0.11944389 0.089019015 0.2070377
-0.11928637 0.089076787 0.20722763
-0.11897602 0.089189485 0.20761703
-0.11867808 0.089339383 0.20798978
-0.11834762 0.089480117 0.20842867
-0.11824704 0.089531168 0.20856766
-0.11807436 0.089599214 0.20882317
-0.11797378 0.089641817 0.20897068
-0.11775974 0.08975596 0.20922858
-0.11727848 0.090011112 0.2098382
-0.11691654 0.090195194 0.21030927
-0.11665929 0.090312943 0.21062134
-0.11642144 0.090414904 0.21087258
-0.11617085 0.090550601 0.21120901
-0.11578298 0.090735964 0.21174522
-0.11542647 0.09092281 0.21222587
-0.11505847 0.091113165 0.21271825
-0.11467646 0.091294572 0.21320106
-0.11442637 0.091390818 0.21353385
-0.11417728 0.091491289 0.21385996
-0.11393289 0.091587767 0.21416958
-0.11376394 0.091640398 0.21438567
-0.11340948 0.091736726 0.21481951
-0.11307433 0.091858134 0.21522067
-0.11281657 0.091954298 0.21553288
-0.11243488 0.09209089 0.21600097
-0.11213541 0.092198975 0.21636206
-0.1118727 0.092297167 0.21668603
-0.11165766 0.092399932 0.21695776
-0.11136871 0.092522405 0.21733359
-0.1111282 0.092627488 0.2176642
-0.1109001 0.092717551 0.21798564
-0.11066912 0.092839196 0.21832505
-0.11046191 0.092936955 0.2186354
-0.1102241 0.093057521 0.21901685
-0.10999602 0.093184531 0.21938084
-0.10974785 0.093308821 0.21975611
-0.10950883 0.093415588 0.22009209
-0.10934481 0.093481794 0.22031954
-0.10920713 0.093539737 0.22050202
-0.10896436 0.093653575 0.22082658
-0.10874563 0.093762197 0.22114508
-0.10843731 0.093910076 0.22157398
-0.10818473 0.094030038 0.22191221
-0.10791304 0.094154544 0.2222788
-0.10771135 0.094239011 0.22255324
-0.10748298 0.094350398 0.22286592
-0.1072685 0.094449915 0.22316055
-0.10704953 0.094531886 0.22343469
-0.10676324 0.094642006 0.22379029
-0.10635804 0.094765902 0.22436462
-0.1060452 0.09488333 0.22481301
-0.10566693 0.095054343 0.22535373
-0.10536517 0.095197745 0.2257994
-0.10512746 0.095320635 0.22613953
-0.10488694 0.095436253 0.22648615
-0.10462803 0.095540658 0.22692464
-0.10427664 0.095654346 0.22744228
-0.10392042 0.095812477 0.22796632
-0.10358818 0.095964901 0.22840835
-0.10319118 0.096171327 0.22896637
-0.10297527 0.096292071 0.22926198
-0.10278329 0.096402027 0.22953081
-0.10259437 0.096482053 0.22979608
-0.10237501 0.096605457 0.23010038
-0.10210238 0.096739657 0.23046204
-0.10182774 0.096886776 0.23082335
-0.10153487 0.097016826 0.23121344
-0.10123779 0.097145438 0.23161088
-0.10098919 0.097259246 0.23195086
-0.1007273 0.097375579 0.23230904
-0.10048344 0.097482331 0.23263925
-0.1002128 0.097594544 0.23300001
-0.099938847 0.097705461 0.23336056
-0.099545248 0.097898953 0.23387487
-0.09918569 0.098058321 0.23436603
-0.098746113 0.09822762 0.2349527
-0.098377757 0.098376147 0.23543388
-0.098050706 0.098495163 0.23583165
-0.097770557 0.098621786 0.23619552
-0.097453348 0.098735616 0.23659034
-0.097026438 0.098907925 0.23713624
-0.096659392 0.099053457 0.23760843
-0.096333854 0.099180877 0.23800997
-0.096081719 0.099274427 0.2383422
-0.095722988 0.099428318 0.23880774
-0.095282808 0.099628247 0.23936835
-0.094884925 0.099824034 0.2398483
-0.094590105 0.099949025 0.24021001
-0.09429343 0.1000881 0.24057579
-0.093959771 0.10026038 0.24101569
-0.093328238 0.10059695 0.24184527
-0.092819721 0.10088393 0.24252741
-0.092496328 0.10106369 0.24300288
-0.09223824 0.10120347 0.24337563
-0.092110954 0.10130072 0.24356686
-0.091925807 0.10139038 0.24382296
-0.091665655 0.10153522 0.24419294
-0.091355361 0.10172398 0.24463697
-0.090878807 0.10197879 0.24531388
-0.090478003 0.1021894 0.24589691
-0.090142541 0.10238157 0.2463727
-0.089913845 0.10251553 0.24669631
-0.089803033 0.10258397 0.24685828
-0.089410834 0.10283803 0.2474167
-0.088539615 0.10337085 0.24864011
-0.087787084 0.10387124 0.24978559
-0.087144338 0.10429494 0.25080207
-0.08686281 0.10444065 0.25127369
-0.086785428 0.10447732 0.25137919
-0.086843386 0.104426 0.25125924
-0.086539693 0.10463357 0.2517916
-0.086179279 0.10483961 0.25231412
-0.085978687 0.1049922 0.25263557
-0.08572302 0.10513137 0.25304884
-0.085498579 0.10525331 0.25338989
-0.085203446 0.1054426 0.25386673
-0.084763981 0.10571207 0.25460786
-0.084219716 0.10605684 0.25558376
-0.083705455 0.10645407 0.25653186
-0.083274029 0.1068462 0.25742662
-0.082875714 0.10726003 0.2583254
-0.082289048 0.10779534 0.25961319
-0.081485935 0.10860112 0.26139835
-0.081032619 0.11095581 0.2638309
-0.080843538 0.11187945 0.26487595
-0.080733106 0.11228281 0.26540133
-0.08054617 0.11250656 0.2656948
-0.080399424 0.11246274 0.26583007
-0.0802636 0.11242402 0.26596603
-0.080077782 0.11243914 0.26619786
-0.079909667 0.11253291 0.26647189
-0.079768166 0.1125752 0.26671717
-0.079605535 0.11260349 0.26695091
-0.079452462 0.11258171 0.26711574
-0.079274461 0.11264075 0.26735863
-0.07912562 0.11275618 0.26761365
-0.078991786 0.11281011 0.26777339
-0.078870058 0.11288884 0.2679511
-0.078735918 0.11312034 0.26824003
-0.07866583 0.1137611 0.26864627
-0.078912988 0.11547229 0.26948845
-0.079831727 0.11778878 0.27046481
-0.07943631 0.11904232 0.2733618
-0.079178169 0.12169042 0.27967948
-0.079618193 0.1233729 0.28273019
-0.079868279 0.12431989 0.28433046
-0.079917818 0.1245263 0.28467938
-0.1230489 0.087496087 0.20236079
-0.12301625 0.087517716 0.20241308
-0.12291882 0.087581031 0.20257486
-0.12280431 0.087636925 0.20277517
-0.12268149 0.087699316 0.20299189
-0.12254433 0.087772191 0.20321558
-0.12244469 0.087819278 0.20336501
-0.12237055 0.087852746 0.20347296
-0.12232419 0.087874807 0.20354097
-0.12228672 0.087893113 0.20359425
-0.12224834 0.087907046 0.20364906
-0.12219962 0.087930501 0.20371427
-0.12202503 0.088002294 0.20392938
-0.12186655 0.088065058 0.20411241
-0.12168444 0.088143267 0.20431687
-0.12155083 0.088201679 0.20445757
-0.12143596 0.088239618 0.20458025
-0.12133104 0.08827582 0.20469119
-0.12122706 0.088310458 0.20480554
-0.1211361 0.088346884 0.20490916
-0.1210364 0.088388272 0.20502964
-0.12092511 0.088428542 0.20516761
-0.12082599 0.088463709 0.20529588
-0.12070421 0.088520251 0.20544849
-0.12056168 0.088578343 0.20563406
-0.12032323 0.088681452 0.20593788
-0.12002032 0.088800833 0.2063182
-0.11984007 0.088867828 0.20655175
-0.11960565 0.088960774 0.206843
-0.11941179 0.089040823 0.20707539
-0.11924049 0.089101911 0.2072812
-0.11891568 0.08922755 0.20768757
-0.11858497 0.089391194 0.20809674
-0.11830868 0.089512661 0.20848222
-0.11820738 0.089564942 0.20862453
-0.11803465 0.089637004 0.20887858
-0.11800314 0.089654639 0.20892102
-0.11766126 0.08981435 0.20932278
-0.11717726 0.090080544 0.20996746
-0.11683016 0.090243988 0.21041377
-0.11650263 0.090388499 0.21079023
-0.11619467 0.09054935 0.21117957
-0.11596579 0.090663537 0.21149354
-0.11570298 0.090783544 0.21185565
-0.1153512 0.090966187 0.21231592
-0.11498006 0.091156259 0.21280208
-0.11464502 0.091309898 0.21323866
-0.11437277 0.091424778 0.21359399
-0.1141444 0.091510005 0.21389943
-0.11393122 0.091591105 0.21416783
-0.11370772 0.091663204 0.21445099
-0.11337542 0.091764197 0.21485856
-0.11306484 0.091870658 0.21523538
-0.11276083 0.091987923 0.21559367
-0.11247435 0.092092678 0.21594347
-0.11213586 0.092205741 0.21635999
-0.11192823 0.09228725 0.21661915
-0.11164737 0.092409186 0.21696991
-0.11136869 0.092522383 0.21733357
-0.11113999 0.092625745 0.21765013
-0.11089979 0.092722088 0.21798584
-0.110727 0.092814192 0.21823899
-0.11049022 0.092924938 0.21859144
-0.11029109 0.093035698 0.21888302
-0.11002722 0.093175836 0.21930516
-0.10980899 0.093289718 0.21965335
-0.10952974 0.093418106 0.22006516
-0.10934529 0.093492642 0.22031592
-0.1091819 0.093568228 0.22053979
-0.10894474 0.093664676 0.22085051
-0.10867844 0.093799017 0.22123358
-0.10838217 0.0939385 0.22165298
-0.10812867 0.094061576 0.22198851
-0.1079141 0.094159164 0.222277
-0.10767399 0.094263203 0.22260153
-0.10742059 0.094390951 0.22295006
-0.10718593 0.09449029 0.22325948
-0.1069245 0.094591759 0.22359028
-0.10666801 0.094687656 0.22392534
-0.1061743 0.094845258 0.22460493
-0.10586458 0.094971739 0.22506715
-0.10549396 0.095140472 0.22558582
-0.10518196 0.095305771 0.22604445
-0.10494868 0.095412411 0.22639726
-0.10474806 0.09548752 0.2267326
-0.10451028 0.095596351 0.22711222
-0.10416409 0.095733032 0.22761759
-0.1038044 0.095874153 0.22812879
-0.10341281 0.096082263 0.22864869
-0.10302879 0.096280776 0.22920413
-0.10282643 0.096389309 0.22946805
-0.10263012 0.096489653 0.22976533
-0.10243609 0.096599713 0.230019
-0.10221288 0.096702315 0.23032923
-0.10195876 0.096830182 0.2306596
-0.10169634 0.096948035 0.23100087
-0.1013947 0.097082913 0.23140937
-0.10108692 0.097218469 0.2318228
-0.1008329 0.097334586 0.23216361
-0.10055383 0.097461641 0.2325388
-0.10035497 0.097549155 0.23279868
-0.10014564 0.097641066 0.23307796
-0.099895075 0.097739778 0.23340301
-0.09950421 0.09793032 0.23392539
-0.099110216 0.098121114 0.23447174
-0.098700076 0.098266281 0.23502935
-0.098392196 0.098369054 0.23541805
-0.098014034 0.098536648 0.23589382
-0.082952984 0.10726149 0.25821275
-0.082575351 0.10761809 0.25903505
-0.082029887 0.1081693 0.26024243
-0.081290238 0.11046068 0.26295796
-0.081033461 0.11215091 0.26471221
-0.080911502 0.11301979 0.26547742
-0.08080551 0.11352187 0.26599708
-0.080656096 0.11353168 0.26618665
-0.080507271 0.11341922 0.26623529
-0.08036831 0.11345135 0.26642591
-0.080222875 0.11351367 0.26666078
-0.08002007 0.11360212 0.26695883
-0.079805322 0.11363655 0.26721928
-0.079655729 0.11350508 0.26732042
-0.079486787 0.11340166 0.26747486
-0.07934805 0.11342525 0.26762533
-0.079214402 0.11340401 0.26774779
-0.079078235 0.11343864 0.2679027
-0.078966677 0.11362494 0.26810876
-0.078850217 0.11424128 0.26845184
-0.079285942 0.11611933 0.26925877
-0.080164596 0.11828733 0.27049974
-0.079596914 0.11996777 0.27467945
-0.07957644 0.12320949 0.28240985
-0.080139972 0.12527637 0.28547931
-0.080258906 0.12591201 0.28637671
-0.080284111 0.12609637 0.2866779
-0.080290228 0.12617432 0.2868588
-0.12302479 0.087517396 0.20239818
-0.12295956 0.087554879 0.20250739
-0.12285478 0.087619878 0.20268844
-0.12274106 0.087680392 0.20288874
-0.12261565 0.08774583 0.20310259
-0.12252731 0.087786719 0.20324132
-0.12246289 0.08781331 0.20333648
-0.12237147 0.087860376 0.20347089
-0.12230629 0.087889932 0.20356567
-0.12226827 0.087904774 0.20362052
-0.12220984 0.087926216 0.20370132
-0.12211003 0.087968908 0.20383084
-0.12195238 0.088032544 0.20401499
-0.12183502 0.088081501 0.20414764
-0.12167387 0.088156082 0.20432581
-0.12153936 0.088208772 0.20446821
-0.12141296 0.088251062 0.20460337
-0.12131992 0.088282563 0.20470309
-0.12120497 0.088323519 0.20483032
-0.12109108 0.088366762 0.2049617
-0.12099057 0.088405631 0.20508364
-0.12091377 0.08843495 0.20518062
-0.12081389 0.088476211 0.20530634
-0.12070316 0.08852414 0.2054466
-0.12053014 0.088599309 0.20567229
-0.12025825 0.088714346 0.20601416
-0.11997635 0.08882162 0.20637284
-0.1197764 0.088901863 0.20662299
-0.11959473 0.088974945 0.20685488
-0.11943199 0.089037538 0.20704702
-0.11922099 0.089119323 0.20730497
-0.11888453 0.089268602 0.20771684
-0.11860638 0.08939068 0.20807007
-0.11826151 0.089542493 0.20855287
-0.11811883 0.08962848 0.20875624
-0.11797484 0.089679703 0.20896418
-0.11779404 0.08976955 0.20915979
-0.11746123 0.08996135 0.20957026
-0.11708267 0.090134144 0.21006215
-0.11673559 0.090292685 0.21050191
-0.11636559 0.090467088 0.21097849
-0.1160237 0.090653926 0.21142638
-0.11577533 0.090769269 0.21175094
-0.11550065 0.090903006 0.21212009
-0.11522739 0.091040969 0.21249005
-0.11490803 0.091196552 0.21289976
-0.11459005 0.091337591 0.21330552
-0.1143399 0.091442965 0.21363364
-0.11413375 0.091516428 0.21391152
-0.11388849 0.091613702 0.21422017
-0.1136648 0.091695189 0.21450253
-0.11335141 0.091785908 0.21488285
-0.11299983 0.091915913 0.21530867
-0.11267752 0.092026852 0.2156978
-0.1123656 0.092143059 0.21607342
-0.11208504 0.09224125 0.2164233
-0.11184413 0.092341043 0.21672197
-0.11162429 0.092429839 0.21699518
-0.11138795 0.092525631 0.21730538
-0.11118664 0.092608914 0.2175823
-0.11097877 0.092707299 0.21787362
-0.11074687 0.092805542 0.21821207
-0.11056477 0.092903972 0.21847825
-0.11031941 0.093023136 0.21884131
-0.11009215 0.093137495 0.21917491
-0.10984626 0.093278982 0.21956258
-0.10961211 0.093401931 0.21993713
-0.10940482 0.093480073 0.22023503
-0.10919103 0.093566336 0.22052403
-0.1089754 0.093663394 0.2208086
-0.10872574 0.093780562 0.22116339
-0.1083696 0.093949258 0.22164468
-0.10809802 0.094083138 0.22202352
-0.10781437 0.094214365 0.22239964
-0.10757536 0.094324216 0.22272159
-0.10733688 0.09443827 0.22305958
-0.10709456 0.09453401 0.22336054
-0.10680551 0.094644681 0.22373381
-0.10651229 0.094756633 0.22411054
-0.10600731 0.094907694 0.22483963
-0.10561568 0.095091693 0.2254127
-0.10516351 0.095319383 0.22606581
-0.1049104 0.095426641 0.22645192
-0.10474502 0.095511138 0.22674882
-0.10452928 0.095610566 0.22708912
-0.10424653 0.095735468 0.22751334
-0.10392928 0.095845036 0.22795963
-0.1034781 0.096076593 0.22857933
-0.10313639 0.096269272 0.22906996
-0.10284249 0.096409135 0.22947013
-0.10256578 0.096544698 0.22985859
-0.10238812 0.096643426 0.23010595
-0.10220832 0.096712045 0.23034057
-0.10199787 0.096819609 0.23061654
-0.10183585 0.096889697 0.23082127
-0.10156529 0.097019091 0.2311767
-0.1013338 0.097122669 0.231492
-0.10099115 0.09727633 0.23195262
-0.10063332 0.097430408 0.23243123
-0.10038698 0.097537406 0.23275916
-0.10015019 0.097650275 0.23306803
-0.099975087 0.097756565 0.23329794
-0.099772744 0.097828217 0.23356977
-0.081142254 0.11332738 0.26523522
-0.08107432 0.11444677 0.26607662
-0.080978639 0.11464896 0.2663433
-0.080791533 0.114382 0.26640213
-0.08061672 0.11412128 0.26642275
-0.080499128 0.11431473 0.26666933
-0.080405697 0.11459074 0.26699489
-0.080326162 0.11492619 0.26730686
-0.08016593 0.11484236 0.26748028
-0.079927996 0.11463132 0.26757595
-0.079639181 0.11441998 0.26767907
-0.079476841 0.11432563 0.26776871
-0.079319298 0.11426875 0.26789173
-0.079167254 0.11427572 0.26798788
-0.079053007 0.11471187 0.2682232
-0.079380363 0.11610968 0.26884332
-0.080256969 0.11808797 0.26973841
-0.080419652 0.1194142 0.27214095
-0.079539798 0.12293371 0.2816866
-0.080209084 0.12551449 0.285723
-0.080365516 0.12646881 0.2870948
-0.080446512 0.12688626 0.28751293
-0.080446497 0.12688625 0.2875129
-0.080382168 0.1266384 0.28731126
-0.080361411 0.12652552 0.2872276
-0.12307432 0.087487713 0.20231973
-0.12301634 0.087527588 0.20240885
-0.12293475 0.087577321 0.20254475
-0.12282225 0.087637395 0.20274469
-0.12270117 0.087706007 0.20296124
-0.1226071 0.087753154 0.20311561
-0.12250954 0.087800123 0.20326702
-0.122454 0.087822318 0.20334834
-0.12239051 0.087857492 0.20344238
-0.1223063 0.08788994 0.20356569
-0.12223975 0.087919734 0.20366006
-0.12214044 0.087965049 0.20378946
-0.12204768 0.087995261 0.20390503
-0.12192123 0.088048227 0.20405078
-0.12181294 0.088091999 0.20417079
-0.12166485 0.088164568 0.20433749
-0.12153937 0.088208772 0.20446818
-0.12143531 0.088246316 0.20457737
-0.12130859 0.088289961 0.20471452
-0.12120498 0.088323511 0.20483033
-0.12106833 0.088379927 0.2049868
-0.12097897 0.088410512 0.20509696
-0.12090237 0.088442057 0.20519336
-0.12081274 0.088480882 0.20530424
-0.12069181 0.088530734 0.20546
-0.12051037 0.088606484 0.20569758
-0.12022869 0.088733025 0.20605133
-0.11995523 0.088832557 0.20639847
-0.11975527 0.088911451 0.20664477
-0.1196046 0.088973776 0.20683853
-0.11944342 0.089040108 0.20703468
-0.11920314 0.089140996 0.20731829
-0.1188892 0.089288175 0.20770819
-0.11852924 0.089450188 0.2081762
-0.11818548 0.089603156 0.20866705
-0.11796538 0.089689314 0.20897901
-0.11777698 0.089809507 0.20920569
-0.11749014 0.089961477 0.20954676
-0.11729295 0.090054929 0.20978659
-0.11699933 0.090179786 0.21017082
-0.11664844 0.090336762 0.21057533
-0.11625879 0.090539858 0.21109158
-0.11594741 0.090701528 0.21151148
-0.11564036 0.09085723 0.21192397
-0.11534511 0.091000751 0.21232393
-0.11512521 0.091096476 0.21260707
-0.1148207 0.091242582 0.21300499
-0.11457692 0.091348194 0.21331909
-0.11431846 0.091456868 0.21366063
-0.11408627 0.091548882 0.21395953
-0.11389294 0.091617338 0.21420342
-0.11362053 0.091720365 0.21455218
-0.11328618 0.091825679 0.21495757
-0.11290008 0.091964446 0.21542236
-0.11257664 0.092072412 0.21581398
-0.11228295 0.09219522 0.21617895
-0.11196842 0.092313245 0.21656498
-0.11174747 0.092387095 0.21683894
-0.11154181 0.092469208 0.21710362
-0.11135741 0.092553332 0.21735038
-0.11119574 0.092611253 0.21756853
-0.11100832 0.092692234 0.21783346
-0.11080255 0.092785634 0.21812646
-0.1106215 0.092873454 0.21839553
-0.11040442 0.092978954 0.2187172
-0.11015922 0.093112968 0.21907738
-0.10993594 0.093229897 0.21940751
-0.10970749 0.093356073 0.21976614
-0.1095115 0.093453318 0.22005142
-0.10926396 0.093541987 0.22040033
-0.10904636 0.093638554 0.22071818
-0.10871608 0.093792707 0.22115469
-0.1083614 0.093966074 0.22165288
-0.10798357 0.094142213 0.22218019
-0.10772654 0.094268717 0.22252527
-0.10746139 0.094389416 0.2228851
-0.10724316 0.094484404 0.22316635
-0.10702782 0.094562054 0.22344626
-0.10676147 0.094665594 0.22377197
-0.10634753 0.094800249 0.22433425
-0.10587309 0.094979346 0.22501315
-0.10537603 0.09521088 0.22574522
-0.10496869 0.095420018 0.22638178
-0.10468692 0.095557481 0.22683556
-0.10449888 0.095639236 0.22713812
-0.10438707 0.095680155 0.22729525
-0.1040917 0.095813677 0.22773191
-0.10360017 0.096071698 0.22843136
-0.10323206 0.09625569 0.22893764
-0.1029669 0.096384905 0.2293268
-0.10271028 0.096502803 0.22966279
-0.10245573 0.096632518 0.23002499
-0.10221935 0.096738301 0.23035051
-0.10204335 0.096813299 0.23056819
-0.10190644 0.096876957 0.23074564
-0.10173237 0.096948333 0.23096734
-0.099982999 0.097773008 0.2332889
-0.081435874 0.11628369 0.26672557
-0.081260614 0.11628007 0.26685497
-0.081095919 0.11601292 0.26683897
-0.080900677 0.11563311 0.26681289
-0.080786213 0.11588509 0.26709846
-0.080810919 0.11657889 0.26746011
-0.08077006 0.11693224 0.26767418
-0.080653466 0.11697844 0.2677215
-0.080396049 0.11662495 0.26768294
-0.080153458 0.11612806 0.26769772
-0.07975249 0.11555387 0.26777056
-0.079466961 0.11532696 0.26787376
-0.079341695 0.11542094 0.26801291
-0.079521894 0.11609963 0.26835039
-0.080325939 0.11786417 0.26899722
-0.080531374 0.11887833 0.27072677
-0.079506226 0.12149622 0.27759558
-0.080054544 0.12472591 0.28446284
-0.08031828 0.12619564 0.28666213
-0.080533385 0.12719576 0.28777927
-0.080616958 0.12761684 0.28811783
-0.080581523 0.12742937 0.28800559
-0.080468848 0.12700209 0.28762904
-0.080382168 0.12663841 0.28731123
-0.12310106 0.087483786 0.20227922
-0.123024 0.087523647 0.20239456
-0.12293477 0.087577313 0.20254475
-0.12281491 0.087643132 0.20275971
-0.12266645 0.087724701 0.20301592
-0.12257311 0.087776892 0.20317076
-0.1225004 0.087808184 0.20327924
-0.12242757 0.087838583 0.2033893
-0.12239051 0.0878575 0.20344241
-0.12227841 0.087908611 0.20360444
-0.12217252 0.087952673 0.20375153
-0.12206978 0.088000678 0.20387724
-0.12196579 0.088036083 0.20400235
-0.1218999 0.088059716 0.2040741
-0.12179226 0.088104457 0.20419422
-0.12164216 0.088175736 0.20436017
-0.12155038 0.088207789 0.20445508
-0.12144644 0.088245146 0.20456411
-0.1213196 0.088288546 0.20470096
-0.12118222 0.088336475 0.20485498
-0.12107911 0.088377975 0.20497246
-0.12095632 0.088423952 0.20512266
-0.12089103 0.088449925 0.20520613
-0.12077952 0.088497616 0.20534499
-0.12066869 0.088545732 0.20548569
-0.12048922 0.088623747 0.20571831
-0.12020561 0.088746801 0.20607543
-0.1199749 0.088835999 0.20636776
-0.11975418 0.088918351 0.20664267
-0.11958253 0.088990726 0.20685643
-0.11939892 0.089059062 0.20708014
-0.11920607 0.089143485 0.20731364
-0.11886673 0.089297526 0.20773003
-0.11848693 0.089474156 0.20822528
-0.1181652 0.089616075 0.20869535
-0.11785607 0.089773014 0.20913371
-0.1174892 0.089966916 0.20957315
-0.11725561 0.090079531 0.20984212
-0.11706914 0.09016183 0.21006723
-0.11690067 0.09022861 0.21025704
-0.11665041 0.090332448 0.21054693
-0.11631955 0.090527818 0.21100448
-0.11594609 0.090728536 0.21150684
-0.11561862 0.090870313 0.21194839
-0.11529236 0.091030814 0.21239211
-0.11504993 0.091135994 0.21270345
-0.11478472 0.091266744 0.21304271
-0.11454443 0.091367468 0.21336064
-0.11431255 0.091466345 0.2136592
-0.11411193 0.091545969 0.21391551
-0.11385967 0.091636613 0.21424073
-0.11356433 0.091752686 0.21461371
-0.11318114 0.091888182 0.21508716
-0.11278756 0.09203539 0.21555489
-0.11238249 0.092185795 0.21605183
-0.11205812 0.092302486 0.21645504
-0.1117752 0.092404917 0.21680683
-0.11158108 0.092474781 0.21705359
-0.11143793 0.092520528 0.2172419
-0.11131641 0.09257926 0.21740486
-0.11118685 0.092625774 0.21758537
-0.11103582 0.092687316 0.21779111
-0.11086959 0.092764683 0.21802934
-0.11067028 0.09285 0.21832635
-0.11051748 0.092938751 0.21854602
-0.11026254 0.093063392 0.21892127
-0.11004074 0.093178913 0.21923599
-0.10983583 0.093288958 0.21953695
-0.10967957 0.093375333 0.21976803
-0.10947305 0.093480498 0.22006321
-0.10909053 0.093622409 0.22063118
-0.10869046 0.093822092 0.22119105
-0.10831677 0.093999177 0.22171544
-0.10796604 0.094164245 0.22220032
-0.10762437 0.09432628 0.22266133
-0.1073468 0.094444536 0.22303426
-0.10713029 0.094540402 0.22329114
-0.10692306 0.094620727 0.22355168
-0.10666711 0.09471035 0.22389129
-0.10622209 0.09484344 0.22449079
-0.10580625 0.095012568 0.22510871
-0.1052319 0.095314242 0.22595572
-0.10485419 0.095489278 0.2265567
-0.10458836 0.09559726 0.22695868
-0.10438676 0.095705472 0.22731416
-0.10420281 0.095804468 0.22756223
-0.1038359 0.095993079 0.22809286
-0.10342399 0.096207663 0.22868285
-0.10308782 0.096363284 0.22915639
-0.081477605 0.11803493 0.26751345
-0.081313156 0.11761757 0.26735502
-0.081185691 0.11747661 0.26736489
-0.081128374 0.11771158 0.26760173
-0.081051707 0.11780292 0.26778117
-0.080956534 0.11782491 0.26793528
-0.080861472 0.11775318 0.26800546
-0.080654271 0.11741941 0.26789421
-0.080351941 0.11694832 0.26780587
-0.080091089 0.11644816 0.26774156
-0.079901636 0.11630035 0.26781648
-0.079859406 0.11647712 0.26802313
-0.080304444 0.11765814 0.26854205
-0.080598183 0.11840601 0.26932627
-0.080712371 0.11946467 0.27144325
-0.079556741 0.12288248 0.28126687
-0.08023867 0.12566409 0.28583941
-0.080496699 0.12701759 0.28761637
-0.080686569 0.12811299 0.28834864
-0.080720112 0.12850587 0.28865871
-0.080671623 0.12799542 0.28828603
-0.080533393 0.12719575 0.28777927
-0.080395587 0.12675424 0.28740746
-0.12310107 0.087483771 0.20227922
-0.12303319 0.087525062 0.20238054
-0.12294374 0.087579459 0.20253007
-0.1227828 0.087675363 0.2028134
-0.12266762 0.087732807 0.20301592
-0.12253803 0.087800503 0.20322555
-0.12249133 0.087817296 0.20329139
-0.12248258 0.087819755 0.20330596
-0.12239973 0.087855093 0.2034283
-0.12228782 0.087905131 0.20359063
-0.12215339 0.087965928 0.20377676
-0.12201961 0.088016972 0.20394133
-0.12191466 0.088061847 0.20406292
-0.12185001 0.088090219 0.20413445
-0.12174105 0.088134617 0.20425378
-0.12163083 0.088180691 0.20437214
-0.12152791 0.088212937 0.20448034
-0.12143485 0.088249445 0.20457652
-0.12131959 0.088288531 0.20470099
-0.12119314 0.088334829 0.20484118
-0.12106756 0.088384293 0.20498534
-0.12095631 0.088423938 0.20512266
-0.12085705 0.088463143 0.20524813
-0.12077952 0.088497609 0.205345
-0.12065997 0.088553041 0.20549767
-0.1204705 0.088636503 0.20574144
-0.12022964 0.08874242 0.20604526
-0.11999819 0.088832632 0.20633316
-0.11978497 0.088913068 0.20660213
-0.11957116 0.089001283 0.20686533
-0.11936417 0.089083821 0.20712216
-0.11915784 0.089175358 0.20736007
-0.11879588 0.089339279 0.20780846
-0.11843439 0.089509413 0.20830502
-0.11809357 0.089666359 0.20878968
-0.11767389 0.089897826 0.20933747
-0.11734353 0.090046845 0.20976542
