# .PCD v0.7 - Point Cloud Data file format
VERSION 0.7
FIELDS x y z
SIZE 4 4 4
TYPE F F F
COUNT 1 1 1
WIDTH 1376
HEIGHT 1
VIEWPOINT 0 0 0 1 0 0 0
POINTS 1376
DATA ascii
0.01084891 0.09716364 0.30851808
0.011056527 0.09715198 0.30850807
0.011402281 0.097133622 0.30847883
0.0117319 0.097095206 0.30847582
0.01204448 0.097102061 0.30847505
0.012364668 0.097091518 0.30848745
0.012676739 0.097082347 0.30850786
0.012990738 0.097084507 0.30852741
0.013295642 0.097125597 0.30853394
0.013605002 0.097142018 0.30854797
0.013898931 0.097152404 0.30856144
0.015199075 0.065806255 0.20829496
0.015202187 0.065828241 0.2082905
0.015198933 0.065781765 0.20830967
0.015211873 0.065647334 0.20836687
0.015215505 0.065646656 0.20836477
0.015223833 0.065759376 0.20831989
0.015221599 0.065782651 0.20830886
0.015221631 0.06576021 0.20831192
0.015227568 0.06569238 0.20833349
0.13651225 0.092823014 0.29287905
0.13652039 0.092745513 0.29289004
0.13652039 0.092745513 0.29289001
0.13653068 0.092669845 0.29289731
0.13653612 0.092633583 0.29289991
0.13654226 0.092634469 0.29288939
0.1365533 0.092601687 0.29288459
0.11675838 0.067587331 0.21306917
0.11677083 0.067582332 0.21306661
0.11677784 0.067578912 0.21306445
0.11679102 0.067560941 0.21306506
0.1167959 0.067543127 0.21306546
0.11680404 0.067526914 0.2130668
0.11681274 0.067510687 0.21306804
0.11682282 0.067496561 0.21307035
0.11683066 0.067483231 0.21307161
0.11683656 0.067469768 0.21307291
0.11684542 0.067442991 0.21307808
0.11685189 0.067430452 0.21307908
0.11686406 0.067404956 0.21308298
0.14026226 0.07332135 0.23146957
0.14026985 0.073319204 0.23147
0.14026985 0.073319204 0.23146997
0.1402842 0.073263742 0.23148893
0.14028984 0.073236547 0.2314973
0.14028984 0.073236533 0.2314973
0.14029433 0.073209263 0.23150605
0.14030756 0.073184051 0.23151271
0.14030926 0.073156297 0.23152165
-0.18124574 0.093170479 0.29476368
-0.1810589 0.093171038 0.29475957
-0.18077317 0.093179755 0.29475379
-0.18049452 0.093225904 0.29474533
-0.18012846 0.093233243 0.29476437
-0.17989857 0.093281575 0.29478016
-0.17964068 0.093284152 0.29481459
-0.17932652 0.093324557 0.29484409
-0.17900717 0.093385406 0.29487327
-0.17854786 0.093378805 0.2949582
-0.17807789 0.093423672 0.29506513
-0.1777081 0.093508132 0.2951405
-0.17740388 0.093552507 0.29519588
-0.17713498 0.09361767 0.2952241
-0.17681281 0.093537956 0.2953099
-0.1763851 0.093553454 0.29536811
-0.17595737 0.093556218 0.29541728
-0.17564464 0.093589611 0.29545742
-0.175504 0.093601495 0.29547042
-0.17540371 0.093664996 0.29548219
-0.1752433 0.093653813 0.29551834
-0.1750278 0.09365838 0.29556003
-0.17481236 0.0936886 0.29558364
-0.17456618 0.093684666 0.29561484
-0.17431919 0.093673334 0.29564896
-0.17408505 0.093662843 0.29568586
-0.17387401 0.093704537 0.29570764
-0.17369178 0.093710862 0.29574209
-0.17342716 0.093760259 0.29577723
-0.17311412 0.093777396 0.29586175
-0.11064431 0.063517056 0.20017456
-0.1106267 0.063465685 0.2001826
-0.1106199 0.063497424 0.20017143
-0.11060724 0.063430987 0.2001884
-0.11058766 0.063349567 0.20021017
-0.11056881 0.063315161 0.20021094
-0.11056633 0.063316181 0.20021266
-0.11055457 0.063300483 0.2002155
-0.11053938 0.063300379 0.20021267
-0.11050595 0.063262723 0.20020863
-0.1104821 0.063245811 0.20020702
-0.1104553 0.063227475 0.20020425
-0.15722384 0.09524361 0.30003667
-0.15648414 0.095374599 0.30004615
-0.15600175 0.095355846 0.30005854
-0.15558963 0.095344163 0.30006531
-0.15529354 0.095365331 0.30006582
-0.15509935 0.095366314 0.30006939
-0.1549353 0.095370457 0.30006695
-0.15470697 0.09536285 0.30004773
-0.1544708 0.095349506 0.30002549
-0.15421653 0.0953428 0.30000171
-0.15397568 0.095319748 0.29998663
-0.15375747 0.095311567 0.29997641
-0.15350556 0.095333762 0.29995126
-0.15316191 0.095326431 0.29991999
-0.15273112 0.095314048 0.29988277
-0.15211105 0.095374949 0.29981488
-0.1513211 0.095370412 0.29974532
-0.15059723 0.095393546 0.29968345
-0.14999445 0.095420323 0.29963601
-0.1492638 0.095425665 0.29958817
-0.14849649 0.095467307 0.29953191
-0.14760923 0.09549699 0.29947197
-0.14684147 0.095511556 0.29942015
-0.14634196 0.095546283 0.29936936
-0.14577881 0.095584624 0.29931816
-0.14509666 0.095626868 0.29925784
-0.14436743 0.095624097 0.29920137
-0.14353095 0.09564086 0.29913384
-0.14287391 0.095676869 0.29908466
-0.14219494 0.095639661 0.29905304
-0.14154555 0.095629238 0.29904127
-0.14092393 0.095628045 0.29903695
-0.14036918 0.095657006 0.29904181
-0.13988632 0.095727064 0.29904068
-0.13926671 0.095747255 0.29905716
-0.13863562 0.095784515 0.2990751
-0.13797136 0.095799185 0.29908904
-0.13728943 0.095809564 0.29911372
-0.13672322 0.09581852 0.29914224
-0.13627683 0.095856301 0.29914549
-0.13566485 0.095877945 0.29915348
-0.13510704 0.095878109 0.29916543
-0.13451459 0.095870279 0.29920104
-0.13398163 0.095891416 0.29922128
-0.13348898 0.095890872 0.299254
-0.13293466 0.095905051 0.29928729
-0.13239375 0.095908679 0.29931802
-0.13176896 0.095897689 0.29935965
-0.13114595 0.095932424 0.29941335
-0.1305728 0.095957622 0.29944167
-0.13003156 0.095982023 0.29946542
-0.12940508 0.096025102 0.29949248
-0.12886362 0.096049517 0.29953066
-0.12836553 0.096083209 0.2995733
-0.12785156 0.096122295 0.29962507
-0.12723498 0.096111678 0.29968375
-0.12664208 0.09608148 0.29973483
-0.12612206 0.096072659 0.29978165
-0.12557925 0.096074417 0.29980767
-0.12497059 0.096106283 0.29984254
-0.12442959 0.096151412 0.29988179
-0.12378805 0.09623149 0.29993856
-0.1231872 0.096296877 0.29997304
-0.12259342 0.09634392 0.29999608
-0.12198792 0.096377514 0.30002263
-0.12142956 0.096399605 0.30004987
-0.12079667 0.096443288 0.30009577
-0.12024669 0.09646938 0.30013245
-0.11976645 0.096503176 0.30017233
-0.11916313 0.096540645 0.300221
-0.1185523 0.096586637 0.30027544
-0.11794692 0.096612997 0.30032298
-0.11723041 0.096657731 0.3003594
-0.11655483 0.096729226 0.30042747
-0.11587279 0.096833907 0.30047089
-0.11523177 0.096885353 0.3005372
-0.11459085 0.096915282 0.30060378
-0.11395814 0.096972257 0.30067822
-0.11337768 0.097032838 0.30072388
-0.11272385 0.097081743 0.30077982
-0.11218077 0.097095005 0.3008365
-0.11161872 0.097123459 0.30088028
-0.11090782 0.097134419 0.30092061
-0.11028995 0.097171478 0.30094615
-0.10963077 0.097212829 0.30101168
-0.10899456 0.097273886 0.30109197
-0.10840767 0.097315811 0.30116263
-0.10764418 0.097363688 0.30117708
-0.10697284 0.09741383 0.30118942
-0.10630341 0.097460777 0.30119315
-0.10564379 0.097508043 0.30120409
-0.10499851 0.097519219 0.30123818
-0.10446861 0.097564727 0.30125526
-0.10398818 0.097606137 0.30129424
-0.10350941 0.09762805 0.30134314
-0.10294665 0.097681075 0.30137929
-0.10242756 0.097705998 0.30141941
-0.10180014 0.097750522 0.30145103
-0.10115479 0.097792394 0.30147174
-0.10056126 0.097823016 0.30148333
-0.099946603 0.097844854 0.30148852
-0.099289425 0.097878024 0.30149281
-0.098789357 0.097906031 0.30150253
-0.098295912 0.097901724 0.30152398
-0.09773355 0.097924493 0.3015545
-0.097134739 0.09794388 0.30158839
-0.096587218 0.097973958 0.30162415
-0.096040584 0.097992532 0.30166414
-0.095563091 0.098020978 0.30169564
-0.095177338 0.098041967 0.3017247
-0.094641291 0.098049402 0.30177253
-0.093948796 0.098118223 0.3017332
-0.093274251 0.098163716 0.30170435
-0.092457294 0.098188013 0.30170655
-0.091729172 0.098226093 0.30171198
-0.090978965 0.098280787 0.30171669
-0.090329386 0.098329812 0.3017717
-0.089696474 0.098367967 0.30182242
-0.089106046 0.098407544 0.30188274
-0.088646539 0.098455235 0.30192924
-0.088142559 0.098483726 0.3019816
-0.087620772 0.098520055 0.30203041
-0.08701589 0.098558046 0.30207375
-0.086366363 0.098617151 0.30210951
-0.08571142 0.098695531 0.30212024
-0.08513581 0.098772176 0.30216044
-0.084689856 0.098851219 0.30219334
-0.08438424 0.09888237 0.30222261
-0.084127054 0.098902985 0.30226481
-0.08379373 0.09894602 0.30230913
-0.083532579 0.09893702 0.30233482
-0.08322569 0.098947018 0.30235231
-0.082919762 0.098958716 0.30237421
-0.082615346 0.098972932 0.30240256
-0.082312882 0.098990262 0.30243909
-0.081987835 0.09902288 0.30247474
-0.081647873 0.099035554 0.30250069
-0.081337422 0.099051133 0.30252293
-0.081023023 0.099064365 0.30253503
-0.080694802 0.099060491 0.30254558
-0.048078295 0.065092809 0.20513557
-0.048058499 0.065105446 0.20516551
-0.048038039 0.065024443 0.20523687
-0.048029646 0.065168612 0.20522365
-0.048020173 0.065151654 0.20523033
-0.048016917 0.065134361 0.20523505
-0.048003871 0.065134615 0.20523565
-0.047994517 0.065117896 0.20523933
-0.047987301 0.065100856 0.20524256
-0.047982361 0.065083608 0.20524588
-0.0099094789 0.099468812 0.31500506
-0.0097927134 0.099400714 0.31535429
-0.0097186957 0.099374019 0.31550002
-0.0094169173 0.099409357 0.31536406
0.0039755553 0.099219404 0.30840096
0.0046075401 0.09909758 0.30835137
0.0052687712 0.098940097 0.30831772
0.005808 0.098831229 0.30829337
0.0062931613 0.098704092 0.30829376
0.0068541919 0.09851864 0.30831173
0.0073337895 0.098390736 0.30832356
0.0078426292 0.098263398 0.30832696
0.0083277822 0.098169073 0.30832732
0.0087600593 0.098068193 0.30834863
0.0092230486 0.097977787 0.30838177
0.0096330391 0.097920984 0.30838355
0.010000792 0.097855978 0.30838296
0.010281761 0.097794861 0.30836681
0.010540651 0.097776391 0.30834135
0.01078731 0.097724512 0.30832767
0.011037368 0.097702667 0.30831417
0.011387617 0.097672097 0.30829203
0.011724834 0.097647466 0.30828872
0.012045541 0.097649954 0.30829072
0.012354264 0.09765511 0.30830413
0.012666658 0.097646467 0.3083277
0.012971309 0.097637333 0.30835149
0.013271116 0.097644061 0.30837128
0.013597754 0.097687408 0.30838129
0.013891615 0.097696215 0.3083975
0.015181786 0.066167444 0.20817178
0.015181221 0.066146128 0.20818287
0.015183322 0.066100672 0.20820212
0.015193211 0.066032209 0.20822667
0.015196783 0.066031128 0.20822339
0.015198576 0.066029996 0.20822033
0.015205655 0.066119902 0.20818451
0.015208334 0.066121764 0.20818265
0.015215622 0.066012338 0.20823419
0.13649012 0.093338482 0.29276603
0.13649167 0.093299583 0.29277375
0.13649882 0.093263313 0.29277506
0.13650703 0.093187831 0.29278281
0.13651119 0.093148358 0.29278639
0.13652432 0.093109593 0.29278034
0.1365356 0.093076102 0.2927756
0.11674881 0.067941204 0.2129596
0.11676168 0.067937158 0.21295875
0.11676884 0.067934267 0.2129575
0.11677974 0.067915507 0.21295848
0.11678328 0.067913808 0.21295664
0.11679178 0.067897961 0.21295884
0.11680076 0.067882039 0.21296071
0.11680384 0.067895778 0.21295559
0.11681408 0.067868218 0.21296063
0.11682017 0.067854755 0.21296181
0.11682615 0.067841791 0.2129629
0.11683306 0.067814678 0.21296772
0.11684258 0.067774557 0.21297687
0.14024192 0.073751025 0.23133758
0.14024951 0.07374905 0.23133847
0.14025323 0.073775776 0.23132958
0.14026059 0.073747419 0.23134063
0.14026062 0.073747419 0.23134063
0.1402656 0.073720001 0.23134758
0.14027217 0.073665105 0.23136288
0.14026648 0.073638387 0.23136857
0.14027369 0.073584929 0.23138459
-0.1814021 0.093755841 0.29461569
-0.18120687 0.09372285 0.2946237
-0.18096571 0.09373533 0.29461631
-0.1807611 0.093804203 0.29460141
-0.18044554 0.093841352 0.29459098
-0.18015023 0.093841627 0.29459998
-0.17987514 0.093809523 0.29463989
-0.17960146 0.093865059 0.29465598
-0.17930448 0.093895413 0.2946848
-0.17892255 0.093922094 0.29473117
-0.17846265 0.093933888 0.29481238
-0.17798157 0.093971588 0.29492939
-0.1776479 0.094049223 0.29498988
-0.17732751 0.094138063 0.29503
-0.17709197 0.094153829 0.29507172
-0.17677642 0.094120093 0.29513556
-0.17625625 0.094110571 0.29521757
-0.17589539 0.094098099 0.29527149
-0.17567867 0.094131097 0.29529625
-0.17550565 0.094137572 0.29532069
-0.17540544 0.094180912 0.29533514
-0.17518914 0.09418077 0.29537204
-0.17498545 0.094212666 0.29538965
-0.17471723 0.094200313 0.2954351
-0.17446117 0.094216451 0.29546151
-0.17422834 0.094217904 0.29549348
-0.17406332 0.09421923 0.29552165
-0.17384255 0.09424258 0.29555133
-0.17365789 0.094277255 0.29557252
-0.17339778 0.09431529 0.29561821
-0.1729992 0.094324224 0.29573306
-0.11066107 0.063900925 0.20005395
-0.11066134 0.063884586 0.20006193
-0.1106478 0.063819498 0.20007764
-0.11064493 0.063818529 0.20007698
-0.11061801 0.063763723 0.20008229
-0.11060768 0.06371408 0.200096
-0.11060219 0.063731983 0.20009355
-0.11060024 0.063748993 0.20008935
-0.11057886 0.063701034 0.20009999
-0.11053105 0.063611954 0.20010227
-0.11049827 0.063626111 0.20008205
-0.1570181 0.095864214 0.29984531
-0.15633583 0.095932074 0.29987907
-0.15588535 0.095950305 0.2998772
-0.15556584 0.095935129 0.2998988
-0.15529349 0.09586864 0.29992068
-0.15504146 0.095819354 0.29992568
-0.15488482 0.095798932 0.29992589
-0.15468469 0.095784791 0.29990995
-0.15442215 0.095763542 0.2998856
-0.15417384 0.095724344 0.29986912
-0.15391707 0.095726967 0.29984802
-0.15367503 0.095727414 0.29982868
-0.15345597 0.095707163 0.29981819
-0.15310782 0.095657773 0.29980338
-0.1526414 0.09567143 0.29975569
-0.15201333 0.095718212 0.29969165
-0.15121831 0.095682569 0.29963624
-0.15056266 0.095649436 0.29960224
-0.14994174 0.095666766 0.29955545
-0.14928718 0.095681109 0.29951388
-0.14850409 0.095663175 0.29947838
-0.1476424 0.095641784 0.299438
-0.14691518 0.09567181 0.29938394
-0.14627674 0.095671818 0.29933521
-0.14565378 0.09571255 0.2992869
-0.14494617 0.095736094 0.29922053
-0.14421673 0.095768049 0.29916218
-0.1435259 0.095743805 0.29911926
-0.14287214 0.095744453 0.29908001
-0.14209796 0.095734827 0.29903892
-0.14151393 0.095727868 0.29902929
-0.14081605 0.095711559 0.29903036
-0.14031811 0.095743008 0.29904097
-0.13975988 0.095785983 0.29904366
-0.13918115 0.095803186 0.29905587
-0.13852406 0.09582784 0.29906961
-0.13793653 0.095843934 0.29908437
-0.13727181 0.095853135 0.29910719
-0.13664731 0.095879391 0.29912746
-0.13610017 0.095914863 0.29913783
-0.13548772 0.095919229 0.29915577
-0.13508849 0.095924601 0.29916316
-0.13445783 0.095912993 0.29919654
-0.13388455 0.095929682 0.2992211
-0.13340786 0.09593083 0.2992481
-0.13285281 0.095937893 0.29928625
-0.13233113 0.095934652 0.29931873
-0.13173155 0.095964916 0.29936683
-0.13106087 0.095981598 0.29940951
-0.13052748 0.095993303 0.29943657
-0.12992287 0.096026301 0.29946101
-0.12936127 0.096061841 0.29948992
-0.12879944 0.096090533 0.29953
-0.12826309 0.096122719 0.299577
-0.12772781 0.096155047 0.299633
-0.12713191 0.096139662 0.2996915
-0.12654087 0.096143134 0.2997449
-0.12597203 0.096123539 0.29977471
-0.12536791 0.096136235 0.29981712
-0.12479312 0.096171476 0.29985556
-0.12425657 0.09621805 0.29989687
-0.12369429 0.096283361 0.29994401
-0.12311369 0.096359938 0.29996496
-0.12249809 0.096376978 0.29999247
-0.1218963 0.096406639 0.30001721
-0.12126474 0.096469134 0.30005613
-0.12069394 0.096483566 0.3000932
-0.12014671 0.096509911 0.30013356
-0.1196409 0.096539617 0.30017647
-0.11906017 0.096574001 0.3002218
-0.1184729 0.096620679 0.30027056
-0.11762896 0.096666537 0.30031687
-0.11700643 0.09670347 0.30037889
-0.11625381 0.096796565 0.30042884
-0.1156152 0.096861131 0.30049923
-0.11490165 0.096914686 0.30056402
-0.11426388 0.096969657 0.30063936
-0.1136578 0.097024709 0.30068755
-0.11310235 0.097069815 0.3007319
-0.11254942 0.097127818 0.30076179
-0.11190908 0.0971632 0.30081335
-0.11127174 0.097178742 0.30086708
-0.11056191 0.097209245 0.30089065
-0.10990655 0.097248502 0.30094063
-0.1091667 0.097313792 0.30097628
-0.10851976 0.097350955 0.30101544
-0.10781965 0.097388782 0.3011117
-0.10711905 0.097436674 0.3011632
-0.10659231 0.097475551 0.30117163
-0.10595565 0.097513877 0.30118623
-0.10539845 0.097543873 0.30120349
-0.10486907 0.097583517 0.30122268
-0.10438827 0.097599566 0.30124873
-0.10383923 0.097629599 0.30129373
-0.1033581 0.097661242 0.3013317
-0.10270024 0.097719058 0.30138385
-0.10207275 0.097758844 0.30141738
-0.10151465 0.097802743 0.30143681
-0.10085352 0.097838581 0.30144864
-0.10028125 0.097875178 0.30145535
-0.099689901 0.097892478 0.30146867
-0.099121489 0.0979155 0.30148187
-0.09855593 0.097937323 0.30149648
-0.098078407 0.097956881 0.30152214
-0.097563162 0.097976699 0.30154902
-0.097032562 0.097990222 0.30158299
-0.096412987 0.098032996 0.30158067
-0.095845081 0.098066255 0.3016164
-0.095301233 0.098091573 0.30165321
-0.094780706 0.09812244 0.30168363
-0.094240032 0.098183013 0.30164149
-0.093649827 0.098212913 0.30164614
-0.092947289 0.09823966 0.30164903
-0.092202373 0.098262541 0.3016645
-0.091522172 0.098296054 0.30167562
-0.09082634 0.098337732 0.30172318
-0.090190262 0.09839543 0.30175287
-0.089620896 0.098423637 0.3018173
-0.088990696 0.098457485 0.30187905
-0.088422894 0.098502211 0.30192897
-0.087918781 0.098529331 0.3019824
-0.087369964 0.098577544 0.30202135
-0.086824104 0.098625585 0.30205789
-0.086132087 0.098688498 0.30209288
-0.085510723 0.098766446 0.30212155
-0.084998056 0.09885253 0.30215561
-0.084692068 0.098875053 0.30218163
-0.084390804 0.098911293 0.30222577
-0.084110774 0.09894415 0.30226487
-0.083866023 0.098970778 0.30229697
-0.083559267 0.098982483 0.30231479
-0.083274961 0.098985724 0.30233788
-0.082990676 0.098987296 0.30236256
-0.082685627 0.099002518 0.30238971
-0.082359672 0.099033259 0.30241942
-0.082011506 0.09907724 0.30244234
-0.081691228 0.099084571 0.30247542
-0.081353396 0.099073611 0.30250114
-0.081062444 0.09907461 0.30252561
-0.080746643 0.099089243 0.30253634
-0.048083957 0.06539157 0.205037
-0.048086014 0.065469049 0.205052
-0.048051752 0.065475218 0.20510341
-0.048043992 0.065534525 0.2051051
-0.048038021 0.065552562 0.20510371
-0.048028696 0.065535858 0.20511138
-0.04802205 0.065501593 0.20512275
-0.048009761 0.065502293 0.2051217
-0.04800291 0.065485373 0.20512554
-0.047999293 0.065450668 0.20513453
-0.061217859 0.10028262 0.30301383
-0.059503127 0.10041767 0.3029294
-0.059239481 0.10044099 0.30293611
-0.058999747 0.10045566 0.30295131
-0.01017091 0.099907726 0.31311232
-0.010054501 0.099745549 0.31380147
-0.0097402167 0.099650502 0.3142179
-0.0093896575 0.099645659 0.31432295
-0.0089905607 0.099715874 0.31408307
0.00310094 0.099996522 0.30824491
0.0038044474 0.099793807 0.30819851
0.0044765053 0.099659011 0.30814716
0.0050813314 0.099541403 0.30810973
0.0056713135 0.099397905 0.30809799
0.0061972793 0.099227987 0.30810726
0.0067015584 0.099055238 0.30812955
0.007199978 0.0989611 0.30812889
0.0077225184 0.098833501 0.30814278
0.0082279369 0.09874665 0.30813766
0.0086510135 0.098672286 0.30814883
0.0091618532 0.098568588 0.30817854
0.0095831174 0.098487906 0.30818951
0.0099349124 0.098438472 0.30818215
0.010245705 0.098356701 0.30817711
0.010499154 0.098329745 0.30815315
0.010769008 0.098272175 0.30813789
0.011039884 0.098239213 0.30812547
0.011380748 0.098219603 0.30810058
0.011717819 0.098194681 0.30809948
0.012034697 0.09821099 0.30810049
0.012339424 0.09821362 0.30811733
0.01264291 0.098221771 0.30813727
0.01295656 0.09819641 0.30817044
0.013261633 0.098207198 0.30819339
0.013573817 0.098201089 0.30821896
0.013871116 0.098245025 0.30822721
0.015167341 0.066485442 0.20806287
0.015163044 0.066485323 0.20806402
0.015168326 0.066439629 0.20808041
0.015180964 0.066349797 0.20811433
0.015181242 0.066372558 0.20810623
0.015184515 0.066348962 0.20811056
0.015187341 0.066372 0.20810422
0.015193393 0.066440478 0.20807621
0.015210302 0.066313393 0.20814244
0.13644664 0.093930893 0.29263911
0.13645744 0.093886852 0.29264179
0.13646367 0.093879499 0.29263544
0.13647401 0.093804866 0.2926431
0.13648401 0.093730055 0.29264998
0.13649492 0.093655944 0.29265884
0.13650209 0.093621291 0.29265967
0.13650845 0.093622558 0.29265353
0.11673712 0.068293348 0.21284746
0.11675145 0.068274871 0.212853
0.11675934 0.068272613 0.21285242
0.11676943 0.068270102 0.21285097
0.11677504 0.068282686 0.21284501
0.11678042 0.068281062 0.21284325
0.11679041 0.068265468 0.21284588
0.11679041 0.06826546 0.21284585
0.11679727 0.068237767 0.21285395
0.1168014 0.068223521 0.212855
0.11680648 0.068209976 0.21285652
0.11681376 0.068182938 0.21286169
0.11682538 0.068156898 0.21286468
0.14023195 0.074210465 0.23120724
0.14023899 0.074208245 0.23120797
0.14024234 0.074234754 0.23119885
0.14024952 0.074206367 0.23120998
0.14025393 0.074178569 0.23121554
0.1402576 0.074120007 0.23122871
0.14025946 0.074123047 0.23122843
0.14025387 0.074096307 0.23123319
0.14025784 0.074041575 0.23124833
-0.18139522 0.094266996 0.29448771
-0.18117039 0.094291262 0.29448465
-0.18092872 0.094284408 0.29447687
-0.18071155 0.094386131 0.29445371
-0.18045157 0.094390504 0.29445586
-0.18013848 0.094389439 0.29446453
-0.17984624 0.094401613 0.29448205
-0.17958686 0.094440214 0.2945013
-0.17926738 0.094451331 0.29453719
-0.17889221 0.094465032 0.29458261
-0.17836048 0.094456986 0.2946822
-0.17793217 0.094521552 0.29477787
-0.17757788 0.094606847 0.29484078
-0.17730686 0.094622754 0.29489103
-0.17706682 0.094729111 0.29490703
-0.17678893 0.094734177 0.29495469
-0.17635146 0.094704241 0.29503614
-0.17602384 0.09470965 0.2950834
-0.17571463 0.094695807 0.29513621
-0.17560336 0.094704278 0.29515737
-0.17539459 0.094713673 0.29518443
-0.1751913 0.094751924 0.29520091
-0.17493923 0.094749048 0.2952365
-0.17464647 0.094735391 0.29527715
-0.17436741 0.094732217 0.29531345
-0.17420366 0.094761319 0.2953296
-0.17402224 0.094790325 0.29535285
-0.17381532 0.094790541 0.29539061
-0.17364542 0.094823495 0.29540315
-0.17333114 0.094863079 0.29547015
-0.17292804 0.094884463 0.29558384
-0.11069022 0.064273275 0.19995083
-0.11068033 0.06422589 0.19996251
-0.11067577 0.064222462 0.19995937
-0.1106613 0.064219058 0.19995391
-0.11064593 0.064135261 0.19997635
-0.11063217 0.064099528 0.1999827
-0.11062045 0.064147882 0.19996597
-0.11061847 0.064147472 0.19996569
-0.11059633 0.064147063 0.19995898
-0.11054459 0.064025231 0.19996755
-0.11052144 0.063958518 0.19997898
-0.15686214 0.09647204 0.29966816
-0.15623924 0.096493855 0.299707
-0.15588936 0.096506745 0.2997207
-0.15557496 0.096443973 0.29975331
-0.15532549 0.096361287 0.29977256
-0.1550781 0.09627679 0.29978368
-0.15482073 0.096234672 0.29977566
-0.15458663 0.096186325 0.2997655
-0.15432878 0.096127592 0.29975101
-0.15407145 0.096095473 0.29973277
-0.15385088 0.096081994 0.2997233
-0.15361811 0.096075341 0.29971257
-0.15335901 0.09603624 0.29969832
-0.1530398 0.096016705 0.29967797
-0.15268198 0.096016176 0.29964769
-0.15199755 0.096016794 0.29959026
-0.15127651 0.096006103 0.29953581
-0.15058884 0.095934518 0.29950932
-0.14995405 0.095924079 0.29947791
-0.14921869 0.095886752 0.2994532
-0.14846271 0.095858783 0.29942486
-0.14772277 0.095844105 0.29938582
-0.14701317 0.095819578 0.29934648
-0.14627272 0.095806383 0.29930225
-0.14555535 0.095788993 0.29925644
-0.14484613 0.095841326 0.2991918
-0.14410244 0.095841438 0.29914701
-0.14341559 0.095863745 0.29909536
-0.14276178 0.095839791 0.29906154
-0.14207819 0.095828399 0.29903743
-0.14136384 0.095815413 0.29901841
-0.140745 0.095815487 0.29902413
-0.14008921 0.095818512 0.29903126
-0.13957429 0.095850475 0.29903769
-0.13905098 0.095868051 0.29905462
-0.1385235 0.095869407 0.29906803
-0.13789895 0.09589123 0.2990745
-0.13719545 0.095918283 0.29909268
-0.13651665 0.095950738 0.29910389
-0.13598324 0.095960245 0.29912537
-0.13548739 0.095963575 0.29914716
-0.13493073 0.095961347 0.29915947
-0.13433406 0.095937707 0.2991882
-0.1337831 0.095939569 0.29922026
-0.13325083 0.095955253 0.29926145
-0.13281114 0.095959224 0.29928604
-0.13230851 0.09594927 0.29932013
-0.13171294 0.095987618 0.29936162
-0.1311634 0.096012332 0.29939553
-0.13058682 0.096023977 0.29942429
-0.12984391 0.096061878 0.29945713
-0.12923764 0.096093573 0.29949442
-0.1286765 0.096123904 0.29953587
-0.12811823 0.096157871 0.29958487
-0.12758522 0.09619274 0.29964057
-0.12700689 0.0961679 0.2996968
-0.12647262 0.096161902 0.29973617
-0.12591654 0.096164472 0.29977855
-0.12527971 0.09616857 0.29982314
-0.1247511 0.09622433 0.29986817
-0.12421548 0.096291445 0.29991487
-0.12360571 0.096347995 0.29994872
-0.12304614 0.096383713 0.29996702
-0.12246973 0.096411861 0.29998919
-0.1218228 0.096444122 0.30001321
-0.1211668 0.096487321 0.30005479
-0.1205712 0.096507564 0.3000938
-0.12002105 0.096555196 0.30013183
-0.11942232 0.096585296 0.3001813
-0.11894035 0.096622013 0.30022317
-0.11833162 0.096661329 0.3002643
-0.11756841 0.096713372 0.30032039
-0.11680973 0.09677159 0.30037022
-0.11610302 0.096838601 0.30043817
-0.11541207 0.096905597 0.30050549
-0.11472432 0.096947871 0.30058008
-0.11406845 0.097021118 0.3006348
-0.11358425 0.097059287 0.30068344
-0.11302994 0.09712293 0.30071661
-0.11240336 0.097168006 0.30075413
-0.11171316 0.097206257 0.30080113
-0.11111883 0.097235322 0.30083796
-0.11034091 0.097261526 0.30088642
-0.10965338 0.097312681 0.3009178
-0.10895007 0.097374782 0.30096525
-0.108192 0.097433835 0.30096504
-0.10749368 0.097477488 0.30099425
-0.106947 0.09749949 0.30107948
-0.10643646 0.097527921 0.30111134
-0.10577806 0.097564876 0.30116484
-0.10521965 0.09757746 0.30120108
-0.10466361 0.09760692 0.30123413
-0.10420585 0.097630225 0.30124843
-0.1037254 0.097653128 0.30129221
-0.10315457 0.097695209 0.30134064
-0.1025466 0.097745374 0.30137357
-0.10192058 0.097801149 0.30139828
-0.10132028 0.097847089 0.30141526
-0.10076778 0.097878024 0.3014358
-0.10013282 0.097914383 0.30143833
-0.099564418 0.097929418 0.30145398
-0.098995648 0.097951271 0.30147335
-0.098495275 0.097968228 0.30149594
-0.097940825 0.097990498 0.30149975
-0.097383931 0.098020412 0.30152419
-0.096839376 0.09806297 0.30153787
-0.096250288 0.098077893 0.30157736
-0.09561573 0.098132312 0.30156678
-0.094985083 0.098181807 0.30157611
-0.094436236 0.098215908 0.30157819
-0.093903519 0.098233245 0.3016001
-0.093371928 0.098261461 0.30161554
-0.092737161 0.098289803 0.30162916
-0.091994226 0.098321676 0.30165538
-0.091279455 0.098360121 0.30167833
-0.090727605 0.098391414 0.3017242
-0.090093113 0.098436765 0.30175638
-0.089482188 0.098466299 0.30181605
-0.088807672 0.098510787 0.30187583
-0.088280194 0.098552771 0.30192509
-0.087733582 0.098588273 0.30197302
-0.087165944 0.098630272 0.30201703
-0.086598836 0.098686114 0.3020497
-0.085974224 0.098766245 0.30207101
-0.085438393 0.09881866 0.30211893
-0.08500161 0.09887702 0.30215433
-0.084676117 0.09892869 0.30217946
-0.084405214 0.098942138 0.30220181
-0.084107451 0.098988026 0.30225548
-0.083882295 0.098987348 0.3022863
-0.083576158 0.099000514 0.30230612
-0.083271578 0.099002659 0.30233237
-0.082965441 0.099017128 0.30235469
-0.082660332 0.099033847 0.30238196
-0.082334504 0.099064708 0.30240622
-0.081985213 0.099121869 0.30241209
-0.081699103 0.099131897 0.30244994
-0.081390582 0.099154055 0.30247343
-0.081086554 0.099144466 0.30249876
-0.080715187 0.099148072 0.30252725
-0.079965457 0.099170737 0.30256411
-0.048104968 0.065741152 0.20494431
-0.04809361 0.065887399 0.20494343
-0.048069302 0.065890461 0.20497048
-0.048063226 0.065934405 0.20497875
-0.048053455 0.065937154 0.20498773
-0.048044235 0.065920711 0.20499615
-0.048037302 0.065921783 0.20500007
-0.048027903 0.065905385 0.20500462
-0.048019711 0.065871112 0.20501338
-0.048012361 0.065871119 0.20501325
-0.061987951 0.10022314 0.30302134
-0.061358571 0.10029048 0.30301112
-0.061074924 0.10032118 0.30300638
-0.060787398 0.10034637 0.30299464
-0.060443845 0.10037521 0.30297258
-0.060150556 0.10039223 0.30295303
-0.059883803 0.10040668 0.30293742
-0.059619579 0.10043127 0.30292907
-0.059351563 0.1004439 0.30293089
-0.059088264 0.10047291 0.30293924
-0.058823619 0.10049504 0.30295736
-0.058530696 0.10051765 0.30298224
-0.058208518 0.10053881 0.30300793
-0.057915237 0.10055806 0.30302361
-0.057485376 0.10055897 0.30303544
-0.05703621 0.10054953 0.30304694
-0.044742499 0.10113617 0.30362508
-0.044232313 0.10114598 0.30367202
-0.040742997 0.10131762 0.30396557
-0.040177956 0.10134678 0.30399427
-0.039521527 0.1013625 0.30402339
-0.010740071 0.1021039 0.3096551
-0.010296565 0.1016621 0.31085443
-0.0098397098 0.10128222 0.31162176
-0.0094756112 0.10099173 0.31194618
-0.0090358099 0.10071178 0.31217998
-0.008482473 0.10071875 0.31187806
-0.0092689712 0.099351317 0.31560168
-0.00052503293 0.10160144 0.30833411
0.00046685606 0.10138827 0.30810204
0.0011792248 0.10117546 0.3080698
0.0018300629 0.10099538 0.30803075
0.0024819428 0.10073278 0.30803496
0.0030978369 0.10057274 0.30799332
0.0037327539 0.10038551 0.30797756
0.0043942253 0.10021907 0.30794483
0.0049820393 0.10008991 0.30791804
0.0055586603 0.099924564 0.30790964
0.0060630939 0.099756725 0.30792755
0.0065694419 0.099625953 0.30793139
0.0070644328 0.099508777 0.30794537
0.0076018819 0.099420838 0.30793798
0.0080919899 0.099313989 0.30795071
0.0085619623 0.099236496 0.30795932
0.0090708435 0.099142283 0.30797848
0.0095246062 0.099093631 0.30798283
0.0098652346 0.099020161 0.30798092
0.010166904 0.098956019 0.30797201
0.010449671 0.098881915 0.307969
0.010729908 0.098836809 0.30794808
0.011026063 0.09879715 0.30793065
0.011373957 0.09876702 0.30791169
0.011698803 0.098764278 0.30790132
0.01201973 0.098767623 0.30790874
0.01230628 0.098752402 0.30793193
0.01261934 0.098776385 0.30795017
0.012947538 0.098763026 0.30798477
0.013263523 0.098769486 0.30801067
0.013579442 0.098799825 0.3080287
0.013873036 0.098807953 0.30805087
0.015148105 0.06682872 0.20795405
0.015148508 0.066806726 0.20796254
0.01515539 0.066738658 0.20798804
0.015161957 0.066715702 0.207995
0.01516481 0.066738978 0.20798934
0.015164809 0.066738971 0.20798934
0.015168118 0.066715352 0.2079937
0.015180123 0.066798955 0.20794432
0.015194202 0.06663473 0.20803812
0.13642193 0.0944665 0.29249272
0.13642508 0.094459943 0.29248995
0.1364457 0.094381474 0.29249561
0.13644911 0.094343267 0.29250303
0.13645437 0.094305113 0.29250962
0.13646184 0.094267249 0.29251617
0.13646616 0.094232216 0.29252046
0.1364802 0.094199494 0.29251561
0.13648975 0.094205067 0.29250467
0.11671112 0.068667807 0.212724
0.11672147 0.068652153 0.21272977
0.11673932 0.068622708 0.21274023
0.11674669 0.068649247 0.21273085
0.11675553 0.06863378 0.21273482
0.11676133 0.068632595 0.21273404
0.1167679 0.068632528 0.21273383
0.11677207 0.068617597 0.21273819
0.11677966 0.068590321 0.2127474
0.11678735 0.068577051 0.21274978
0.11678974 0.06856253 0.21275102
0.11679789 0.068535745 0.21275729
0.11680343 0.068508558 0.21276368
0.11680871 0.068480104 0.21276943
0.14022082 0.074699767 0.23107556
0.14023463 0.074670084 0.23108773
0.14023465 0.074670084 0.23108774
0.14024168 0.07464166 0.23109892
0.14024547 0.074613325 0.2311032
0.14024822 0.07458505 0.23110816
0.14025274 0.074526563 0.23112267
0.14025171 0.074529283 0.23112175
0.14026053 0.074531026 0.23111781
-0.18132493 0.094823278 0.29435667
-0.18112317 0.094840266 0.29434845
-0.18092376 0.094879396 0.29433483
-0.1806608 0.094919562 0.29432636
-0.18037929 0.094955906 0.29431528
-0.18006977 0.094910078 0.29433656
-0.17978875 0.094965853 0.2943415
-0.17950054 0.094974026 0.29436699
-0.17915063 0.094980314 0.29440412
-0.17874517 0.095015965 0.29445085
-0.1782961 0.095025949 0.29453087
-0.17781171 0.095081076 0.29463828
-0.17753041 0.095151432 0.29468796
-0.17729825 0.095173329 0.29472983
-0.17708769 0.09519849 0.29476553
-0.17686453 0.09523908 0.29479605
-0.17658375 0.095273338 0.29483914
-0.17623669 0.095275953 0.29489088
-0.17590265 0.095304996 0.2949377
-0.17562602 0.095286116 0.29498065
-0.17539485 0.09529072 0.29501066
-0.17517799 0.095268026 0.29505289
-0.17490986 0.095268898 0.29508615
-0.17460927 0.095281616 0.29511902
-0.17435648 0.095298171 0.29514152
-0.17416982 0.095294073 0.29517305
-0.17400132 0.095339671 0.29518059
-0.17379418 0.095307775 0.29522219
-0.1736279 0.095353246 0.29523531
-0.17328529 0.095371015 0.29533568
-0.17285198 0.095445916 0.29544133
-0.11070088 0.064658411 0.1998271
-0.110699 0.064624548 0.19983758
-0.11069798 0.064625777 0.19984084
-0.11067742 0.064607292 0.19983809
-0.11066711 0.064586908 0.19984201
-0.11065304 0.064550571 0.19984919
-0.11064932 0.064550295 0.19984905
-0.1106272 0.064532422 0.1998459
-0.11061057 0.064511925 0.19984427
-0.11057794 0.064427316 0.1998557
-0.11055253 0.064361773 0.19987006
-0.15680751 0.097041853 0.29950014
-0.15620117 0.097081952 0.299539
-0.1558858 0.097044758 0.2995719
-0.1556123 0.097011186 0.29958877
-0.15536666 0.096906029 0.29961464
-0.15509462 0.096763708 0.29963431
-0.1548463 0.096656077 0.29964
-0.15458632 0.096599884 0.29963264
-0.15433553 0.096542053 0.29962295
-0.15404566 0.096500263 0.2996057
-0.15378623 0.096437462 0.29959965
-0.15358412 0.096389435 0.29960474
-0.15334128 0.096401758 0.29958349
-0.15301639 0.096370168 0.29956791
-0.15259214 0.096342944 0.29953849
-0.15196098 0.096250229 0.29950446
-0.1513107 0.096241705 0.29946664
-0.15057416 0.096200779 0.29942301
-0.14991522 0.096174479 0.29940242
-0.14915848 0.09611357 0.29938218
-0.14840794 0.096060179 0.29936498
-0.14768483 0.096010059 0.29933852
-0.14697219 0.095976911 0.29930106
-0.14633106 0.095914394 0.2992776
-0.14556719 0.09591563 0.29922763
-0.14474043 0.095936127 0.2991657
-0.14403817 0.095939249 0.29911742
-0.14339459 0.09596616 0.29907784
-0.14263828 0.095924951 0.29903117
-0.14198837 0.095925003 0.29902181
-0.14129092 0.095911399 0.29900604
-0.1406122 0.095897071 0.29900396
-0.13997507 0.0958919 0.29901496
-0.13945378 0.095901705 0.29903656
-0.13897367 0.095909819 0.29904476
-0.13842605 0.095933266 0.2990512
-0.13780183 0.095937327 0.29906735
-0.13717823 0.095962189 0.29908189
-0.13649742 0.095984846 0.29909685
-0.13594416 0.0960005 0.29911727
-0.13534926 0.096006826 0.29913664
-0.13478884 0.096011378 0.29915437
-0.13417503 0.095994107 0.29917884
-0.13368466 0.095974937 0.29921728
-0.13320743 0.095983133 0.29925039
-0.13275129 0.095983453 0.29928729
-0.13221437 0.095993958 0.29933566
-0.13169165 0.096016988 0.29936069
-0.13110295 0.096045271 0.29939312
-0.13052566 0.096067488 0.29941759
-0.1298857 0.096111774 0.29944354
-0.12923878 0.096120477 0.29948804
-0.12861596 0.096152551 0.29953578
-0.12805678 0.096174531 0.29958826
-0.12750386 0.096212722 0.29964581
-0.12699577 0.096222356 0.2996935
-0.12632971 0.0961954 0.29974392
-0.1257779 0.096212536 0.29979324
-0.12521799 0.096246079 0.29984549
-0.1246573 0.096292183 0.2998811
-0.12409732 0.09636499 0.29992309
-0.12354809 0.096382506 0.299943
-0.1230033 0.096417561 0.29996508
-0.12242886 0.096454702 0.29998574
-0.12175599 0.096502483 0.30002224
-0.12107448 0.09653116 0.30005479
-0.12052479 0.096552737 0.30009225
-0.11990514 0.096597195 0.30013588
-0.11930274 0.096639581 0.3001835
-0.11876851 0.096674345 0.3002134
-0.11818058 0.096729271 0.30025616
-0.11747327 0.096768007 0.30032811
-0.11668876 0.096829757 0.30038184
-0.11600284 0.096871078 0.30044773
-0.11531226 0.096938916 0.30051878
-0.11469855 0.096988022 0.30058277
-0.11406924 0.097050212 0.30062449
-0.11353637 0.097091295 0.30067262
-0.11295724 0.097147971 0.30071133
-0.1123307 0.09719193 0.30074695
-0.11173394 0.097253837 0.30077043
-0.11092615 0.097296655 0.30082494
-0.11017154 0.09731403 0.30087867
-0.10951052 0.097357556 0.30091274
-0.10872218 0.097441614 0.30093378
-0.10797666 0.097484164 0.30095014
-0.10736251 0.097523123 0.30096525
-0.10685491 0.097553089 0.30101493
-0.1062576 0.097580396 0.30107141
-0.10567467 0.09759827 0.30113715
-0.10512735 0.097624704 0.30118069
-0.10461834 0.097639993 0.30121726
-0.1040701 0.097656853 0.30125031
-0.10356487 0.097685903 0.3012881
-0.10299718 0.097733639 0.30132511
-0.10241522 0.097792223 0.30135202
-0.10183464 0.097835243 0.30137843
-0.10125571 0.097874008 0.30140558
-0.1007273 0.097912908 0.30142018
-0.10006768 0.097947285 0.30143881
-0.099498764 0.097971596 0.30145311
-0.098919943 0.097998515 0.30145767
-0.098345958 0.098014079 0.30145261
-0.097806245 0.098037377 0.30147591
-0.097248815 0.098064438 0.30150288
-0.096717261 0.098102652 0.3015323
-0.096136227 0.098130882 0.3015537
-0.095498197 0.098188005 0.30153793
-0.094801195 0.098248132 0.30153963
-0.094248615 0.098263837 0.3015618
-0.093720354 0.098294877 0.30156517
-0.093143322 0.098326698 0.30158004
-0.09252736 0.098348975 0.30161127
-0.091834657 0.098398022 0.3016364
-0.091177255 0.098417506 0.30167606
-0.090584815 0.098450422 0.30171338
-0.089991167 0.098483808 0.3017565
-0.089358613 0.098514542 0.30181503
-0.088790685 0.098554738 0.30186853
-0.088202111 0.098590195 0.30191836
-0.087632507 0.098629542 0.3019675
-0.087086543 0.098665915 0.30201128
-0.086483546 0.098740809 0.30204031
-0.085940816 0.098803341 0.30207276
-0.085378923 0.098872215 0.30211625
-0.084986046 0.098914243 0.302149
-0.084654205 0.098933339 0.30217931
-0.084329732 0.098980248 0.30221209
-0.084064886 0.099000096 0.30225211
-0.083818756 0.09901239 0.30227631
-0.083551474 0.099028476 0.30229989
-0.083287165 0.099025398 0.3023254
-0.082923591 0.099038452 0.30235112
-0.082618378 0.099056125 0.30237803
-0.082291752 0.099101119 0.30238703
-0.081981741 0.099144801 0.30240002
-0.08169505 0.099157698 0.30243576
-0.081407085 0.09916833 0.30247137
-0.08106488 0.099157587 0.30249098
-0.080543637 0.099184208 0.30252278
-0.079824671 0.099188492 0.30256584
-0.048109807 0.066254266 0.20484406
-0.048097398 0.066257969 0.20485461
-0.048090093 0.066311412 0.2048469
-0.048079275 0.066318862 0.20486403
-0.048069343 0.066321783 0.20487367
-0.048063248 0.066322766 0.20487821
-0.048053607 0.066307053 0.20488814
-0.048044581 0.066290885 0.20489325
-0.048034202 0.066291705 0.20489489
-0.048029434 0.066274963 0.20489927
-0.061864574 0.10025856 0.30301866
-0.061239969 0.10032719 0.30300415
-0.060954008 0.10035416 0.30299646
-0.060640402 0.10038538 0.3029789
-0.060321655 0.10040747 0.30295998
-0.060027584 0.10042331 0.30294311
-0.059732873 0.1004389 0.30293071
-0.059438448 0.10045596 0.30292767
-0.059171442 0.10047168 0.30293584
-0.058903199 0.10048535 0.30295318
-0.05863905 0.1005117 0.30297363
-0.058345649 0.10053392 0.30299941
-0.058079731 0.10056137 0.30301827
-0.057811119 0.10058697 0.30303547
-0.057381205 0.10059314 0.30304685
-0.056977 0.1005864 0.30305547
-0.056502707 0.10058758 0.30305961
-0.055857249 0.10058431 0.30305073
-0.0551483 0.10057496 0.30303949
-0.05442461 0.10058364 0.30304897
-0.05366775 0.10061534 0.30306861
-0.053074148 0.10065042 0.30309919
-0.052436922 0.10068491 0.30313867
-0.051844299 0.10073968 0.30318624
-0.051171504 0.10082484 0.30323523
-0.05052356 0.1008764 0.30326754
-0.049881324 0.10091964 0.30329058
-0.049215391 0.10094073 0.30332121
-0.045989037 0.10112186 0.30352443
-0.045303963 0.1011541 0.3035714
-0.0447894 0.1011591 0.30362055
-0.04418999 0.10117676 0.303675
-0.043645464 0.10120472 0.30372351
-0.043049239 0.1012339 0.30378038
-0.042454623 0.10126321 0.30383784
-0.041838124 0.10128207 0.30388978
-0.041217595 0.10131043 0.30393898
-0.040674586 0.10134917 0.30397257
-0.04008304 0.10138145 0.30399767
-0.039515782 0.10140785 0.30401957
-0.038931988 0.10141891 0.30404085
-0.038330585 0.10140512 0.30406487
-0.037795432 0.10142065 0.30408901
-0.037277322 0.10143406 0.30411336
-0.036740493 0.10144044 0.30413154
-0.036121245 0.10146017 0.30415159
-0.035503034 0.10146835 0.30416897
-0.03487315 0.10150158 0.30418965
-0.034241345 0.10151811 0.30421346
-0.033637393 0.10153466 0.30423492
-0.033061616 0.10155831 0.30425385
-0.032429416 0.10157463 0.30428249
-0.031820074 0.10159225 0.30430609
-0.014360829 0.10283418 0.30637279
-0.011465714 0.1026006 0.30838946
-0.010898987 0.10255683 0.3086327
-0.010295532 0.10245485 0.30887684
-0.0096743098 0.102469 0.30906874
-0.0091618225 0.1025532 0.30915859
-0.0086601609 0.10252715 0.30920023
-0.0081097092 0.10248551 0.3092615
-0.0084002903 0.10076884 0.31284359
-0.0019785578 0.10224059 0.30806261
-0.0012006406 0.10205136 0.30804169
-0.00042166677 0.10192109 0.30796546
0.00037559227 0.10169901 0.30792466
0.00109942 0.10149546 0.3078866
0.0017859291 0.10135906 0.30783388
0.0024281426 0.10115912 0.30782741
0.0030929423 0.10098884 0.30778947
0.0037106164 0.1008565 0.30777878
0.0042769192 0.10073769 0.30775952
0.0048780926 0.10057947 0.30774429
0.0054319925 0.10043279 0.30774105
0.005950937 0.10030044 0.30774298
0.0064604469 0.10017958 0.30774882
0.0069727334 0.10006256 0.30775592
0.0074765892 0.099949829 0.30776262
0.0080125285 0.099871576 0.30775711
0.0085136425 0.099781767 0.30777404
0.0089969253 0.099703535 0.30779067
0.0094242729 0.099613287 0.30780807
0.0097866347 0.099578626 0.30778876
0.010110043 0.099511318 0.30777827
0.010423684 0.099449195 0.30776954
0.01070295 0.099394284 0.3077592
0.011021298 0.099359363 0.30774036
0.011360249 0.099325441 0.30772212
0.011668569 0.099307276 0.30771655
0.011980915 0.099318981 0.30771944
0.012293568 0.099309593 0.30774239
0.012624177 0.099306457 0.30777335
0.01294356 0.099308863 0.30780426
0.013265392 0.099330038 0.30782869
0.013594094 0.099354513 0.30785325
0.01390782 0.099363051 0.30788112
0.01512708 0.067193627 0.20783943
0.015134437 0.06718909 0.20782971
0.015141302 0.067121208 0.20785491
0.015144638 0.067056715 0.2078837
0.01514804 0.067104012 0.20787331
0.015152642 0.067081258 0.20788054
0.015159463 0.067074679 0.20786634
0.015167688 0.067094579 0.20785187
0.015161708 0.067087926 0.20789249
0.13640016 0.095036477 0.29233792
0.13640796 0.094956517 0.29235652
0.13641526 0.094950743 0.29235408
0.13641895 0.094913051 0.29236233
0.1364326 0.094907537 0.29235941
0.13644081 0.094870538 0.29236802
0.13644499 0.094835937 0.29237163
0.13646078 0.094840452 0.29235443
0.13646761 0.094848059 0.29234606
0.11666596 0.069059454 0.21259309
0.11668821 0.069026865 0.21260226
0.11670742 0.069012076 0.21260893
0.11671869 0.069010824 0.21260972
0.11672765 0.068995684 0.2126143
0.11673516 0.068995513 0.21261445
0.11674165 0.068994537 0.2126141
0.11674533 0.068980731 0.21261898
0.11675793 0.068939105 0.21263398
0.11676434 0.068911619 0.21264321
0.11676751 0.068911627 0.21264128
0.11677806 0.068885259 0.21264893
0.11678561 0.068858281 0.21265607
0.11679723 0.06883198 0.2126614
0.14021757 0.075022623 0.23098521
0.14021428 0.075072713 0.2309787
0.14021935 0.075044245 0.23098923
0.14023262 0.0750774 0.23098516
0.14023678 0.075018167 0.23099677
0.14024194 0.074990183 0.23100302
0.14024194 0.074990183 0.23100302
0.14024146 0.074992374 0.23100005
0.14024639 0.074936509 0.23101079
-0.18129313 0.095384754 0.29421976
-0.18104218 0.095375516 0.29421267
-0.18087171 0.09543816 0.29420385
-0.18062943 0.095434211 0.29419312
-0.18033542 0.095456585 0.29419279
-0.17997512 0.095421806 0.2942059
-0.17969196 0.095443621 0.29422098
-0.17939301 0.09544535 0.29424816
-0.17899778 0.095510967 0.29426983
-0.17859004 0.095509246 0.29433125
-0.17819066 0.09554673 0.29439422
-0.17773417 0.095618725 0.29449195
-0.1774748 0.095660865 0.29454634
-0.17728209 0.095663786 0.29458502
-0.17710125 0.095724821 0.2946015
-0.17689653 0.095771603 0.29463074
-0.17665884 0.095828958 0.29465505
-0.17639726 0.095845819 0.29469666
-0.17603791 0.095835358 0.29475427
-0.17569491 0.095821761 0.29480758
-0.17541276 0.095834829 0.294842
-0.17515944 0.09582492 0.2948761
-0.17489167 0.095825218 0.29491353
-0.17457932 0.095814936 0.29495576
-0.17434923 0.095819458 0.29497936
-0.17413962 0.095845312 0.29500574
-0.17396913 0.095890582 0.29501384
-0.17376438 0.095843256 0.29506296
-0.1735817 0.095840402 0.29510552
-0.17318687 0.095901601 0.29521108
-0.11070412 0.065002225 0.19971101
-0.11070137 0.064986296 0.19971542
-0.11069632 0.064971276 0.19972375
-0.11069448 0.064972416 0.19972679
-0.11068395 0.064986497 0.19972052
-0.11067742 0.064987302 0.1997232
-0.11065887 0.064932629 0.1997305
-0.1106429 0.064896733 0.19973351
-0.11062413 0.064863183 0.19973862
-0.11059579 0.064778961 0.19975181
-0.11056875 0.064712331 0.19976339
-0.15670219 0.097630642 0.29933819
-0.15618181 0.097631529 0.29938373
-0.1559345 0.097584203 0.29941863
-0.15568087 0.097481988 0.299447
-0.15547669 0.097419806 0.29946983
-0.15520471 0.097304903 0.2994827
-0.15490147 0.097141393 0.29950014
-0.15464135 0.097002119 0.2995106
-0.1543428 0.096941851 0.29949954
-0.15410759 0.096884437 0.29949155
-0.15377052 0.096792154 0.29948974
-0.15345307 0.09675809 0.29947615
-0.15321136 0.096736826 0.29946303
-0.15289229 0.096683785 0.29945382
-0.15244509 0.096608043 0.29943836
-0.15190537 0.096543893 0.299413
-0.15133886 0.096471079 0.29939231
-0.15064192 0.09642116 0.29936382
-0.14975612 0.096373826 0.29933462
-0.14904864 0.096319683 0.29932448
-0.14834407 0.096234217 0.29931304
-0.14765199 0.096189149 0.29928607
-0.14694186 0.09610565 0.29926085
-0.14627472 0.096067443 0.29922834
-0.14560662 0.096032389 0.29919836
-0.14486477 0.09602914 0.29915631
-0.14399338 0.09604416 0.29909357
-0.14325273 0.096045472 0.29905325
-0.14261827 0.096014164 0.29902834
-0.14193651 0.095986702 0.29901159
-0.14138743 0.096006989 0.29900873
-0.14060658 0.095975593 0.29899955
-0.13995093 0.095967717 0.29900739
-0.13935781 0.095951945 0.29902166
-0.13887805 0.095965311 0.29903272
-0.13834746 0.095967188 0.29904699
-0.13778301 0.095974766 0.29906332
-0.13710923 0.096022442 0.29906008
-0.13648126 0.096041992 0.29907998
-0.13590553 0.096042134 0.29910859
-0.13529027 0.0960517 0.29912952
-0.13476859 0.096045129 0.2991429
-0.13424733 0.096022569 0.29916802
-0.13363998 0.095996633 0.29921371
-0.13314863 0.095994025 0.2992532
-0.13267314 0.096000902 0.29929075
-0.13217735 0.096022919 0.29933515
-0.13163379 0.096050382 0.29936051
-0.13110122 0.096069619 0.29937956
-0.13042706 0.096103854 0.29941088
-0.12982492 0.096129939 0.29944628
-0.12926467 0.096149281 0.29948118
-0.12855408 0.096175499 0.29953721
-0.1280165 0.096210137 0.29958525
-0.12750271 0.096234582 0.29963645
-0.12695187 0.09624017 0.29969546
-0.12634337 0.096241407 0.29974073
-0.12575763 0.096248604 0.29979336
-0.12519257 0.096292846 0.29984477
-0.12459585 0.096361406 0.2998904
-0.12406699 0.096408129 0.29991093
-0.12357903 0.096453339 0.29992729
-0.12301132 0.096469484 0.2999503
-0.12239433 0.096510544 0.29997993
-0.12169508 0.096538104 0.30001494
-0.12108218 0.096568517 0.3000485
-0.12050629 0.096582048 0.30008605
-0.11988585 0.096629791 0.30012858
-0.11930496 0.096670851 0.30017337
-0.11870209 0.09672039 0.30020577
-0.11808779 0.09676078 0.3002643
-0.11740701 0.096825056 0.30032104
-0.11659191 0.096872412 0.30038729
-0.11593018 0.096916065 0.30044797
-0.11524043 0.096980438 0.30052558
-0.11470422 0.097038709 0.30057883
-0.11412202 0.097078338 0.30061081
-0.11353823 0.097126901 0.30065742
-0.11290762 0.097186163 0.30069947
-0.11225794 0.09723831 0.30073017
-0.11163453 0.09729442 0.30075979
-0.1109017 0.097318076 0.30081463
-0.11018867 0.097364478 0.30085471
-0.10943156 0.097422563 0.30089143
-0.10872278 0.097480103 0.30090401
-0.10797342 0.097529896 0.30092245
-0.1073658 0.097567201 0.30095106
-0.10679338 0.09758734 0.30098873
-0.10618728 0.097598471 0.30106899
-0.10563835 0.097616576 0.30111194
-0.10508396 0.097637989 0.30117702
-0.10452656 0.097666949 0.30120906
-0.1040205 0.097677179 0.30124334
-0.10340435 0.097722262 0.30128005
-0.1028587 0.097769082 0.30130455
-0.10232164 0.097819142 0.30133736
-0.10178977 0.097854398 0.30137148
-0.10121343 0.097895846 0.30139378
-0.10066219 0.097938947 0.30141333
-0.1000477 0.097975098 0.3014338
-0.099425361 0.097995892 0.30143583
-0.098848283 0.098024577 0.30143285
-0.098282434 0.098050721 0.30145201
-0.097692251 0.098077305 0.30145186
-0.097134732 0.098105624 0.30147973
-0.096609309 0.098140217 0.30149922
-0.096026935 0.098191381 0.30150789
-0.095378332 0.098241791 0.30151388
-0.094742522 0.098279305 0.30152774
-0.094151169 0.098305084 0.30153462
-0.093595199 0.098334372 0.30154824
-0.093019873 0.098360449 0.30157042
-0.092411749 0.098402508 0.30158752
-0.091754414 0.098429248 0.30162567
-0.091119155 0.098453082 0.30166706
-0.090524733 0.098485343 0.30170715
-0.089909956 0.098521978 0.30175129
-0.089359298 0.098552883 0.30180281
-0.088750117 0.098581687 0.30186144
-0.08814127 0.098619945 0.30191597
-0.087592855 0.098653145 0.30196303
-0.087008342 0.098719619 0.30200109
-0.086386941 0.098800816 0.30202529
-0.085844755 0.098852538 0.30207503
-0.085341714 0.098898411 0.30211374
-0.084905773 0.098950982 0.30213785
-0.084595464 0.098981775 0.3021653
-0.084307425 0.098993666 0.30220601
-0.084003404 0.09902247 0.30224478
-0.083796941 0.099029817 0.30226985
-0.08353097 0.099037953 0.302297
-0.083225474 0.099054463 0.30232036
-0.082958542 0.099070318 0.30234349
-0.082594581 0.09910281 0.30236402
-0.082248703 0.099144191 0.30236837
