# .PCD v0.7 - Point Cloud Data file format
VERSION 0.7
FIELDS x y z
SIZE 4 4 4
TYPE F F F
COUNT 1 1 1
WIDTH 1349
HEIGHT 1
VIEWPOINT 0 0 0 1 0 0 0
POINTS 1349
DATA ascii
-0.10543758 -0.11080319 0.25404257
-0.10469953 -0.11057118 0.25351062
-0.10405111 -0.11043198 0.2531915
-0.10357797 -0.11047838 0.25329787
-0.10327755 -0.11071038 0.25382978
-0.10297495 -0.11094237 0.25436169
-0.10262734 -0.11112798 0.25478724
-0.10232063 -0.11135998 0.25531915
-0.10192691 -0.11149918 0.2556383
-0.10132089 -0.11140639 0.25542554
-0.10050582 -0.11108158 0.25468084
-0.099526733 -0.11057118 0.25351062
-0.098635525 -0.11015359 0.25255319
-0.097996205 -0.11001438 0.25223404
-0.097563751 -0.11010718 0.2524468
-0.09721224 -0.11029278 0.25287235
-0.096614905 -0.11019999 0.25265959
-0.041418824 -0.11149918 0.2556383
-0.040880185 -0.11145278 0.25553191
-0.040341981 -0.11140639 0.25542554
-0.03978762 -0.11131357 0.25521275
-0.039234132 -0.11122078 0.255
-0.038681511 -0.11112798 0.25478724
-0.038193494 -0.11122078 0.255
-0.037673175 -0.11122078 0.255
-0.037121855 -0.11112798 0.25478724
-0.03654084 -0.11094237 0.25436169
0.021694133 -0.11711358 0.26851064
0.022242019 -0.11711358 0.26851064
0.022789907 -0.11711358 0.26851064
0.023310054 -0.11697438 0.26819149
0.023838364 -0.11688158 0.26797873
-0.10443592 -0.10977681 0.25287235
-0.10387622 -0.10973062 0.25276595
-0.10353447 -0.10991535 0.2531915
-0.10323427 -0.11014627 0.25372341
-0.10297495 -0.11042336 0.25436169
-0.10262734 -0.11060809 0.25478724
-0.10227799 -0.11079282 0.25521275
-0.10192691 -0.11097756 0.2556383
-0.10144749 -0.11102375 0.2557447
-0.10067376 -0.11074664 0.25510639
-0.099777326 -0.110331 0.25414893
-0.098843262 -0.10986917 0.25308511
-0.098120198 -0.10963826 0.25255319
-0.097563751 -0.10959207 0.2524468
-0.042010259 -0.11116228 0.25606382
-0.041470535 -0.11111611 0.25595745
-0.040948264 -0.11111611 0.25595745
-0.04042599 -0.11111611 0.25595745
-0.039903719 -0.11111611 0.25595745
-0.039381444 -0.11111611 0.25595745
-0.038859174 -0.11111611 0.25595745
-0.038352832 -0.11116228 0.25606382
-0.037814628 -0.11111611 0.25595745
-0.037199356 -0.11083901 0.25531915
-0.036556125 -0.11046955 0.25446808
-0.035961561 -0.11023863 0.25393617
0.021616776 -0.11615004 0.26755318
0.022171522 -0.11619623 0.26765957
0.022708641 -0.11615004 0.26755318
0.023208344 -0.11591913 0.26702127
0.023686949 -0.11559585 0.2662766
-0.10412836 -0.10893906 0.25212765
-0.10374507 -0.10907696 0.2524468
-0.10344746 -0.10930679 0.25297871
-0.10319098 -0.10958259 0.25361702
-0.10280269 -0.10972048 0.25393617
-0.10237024 -0.10981242 0.25414893
-0.10197956 -0.10995031 0.25446808
-0.10162999 -0.11013418 0.25489363
-0.10123648 -0.11027207 0.25521275
-0.10067376 -0.11022611 0.25510639
-0.099986151 -0.11004224 0.25468084
-0.099217199 -0.10976645 0.25404257
-0.09857484 -0.10962856 0.25372341
-0.04258576 -0.1107777 0.25638297
-0.042045169 -0.11073174 0.25627661
-0.041505005 -0.11068577 0.25617021
-0.040965278 -0.1106398 0.25606382
-0.040476397 -0.11073174 0.25627661
-0.040003225 -0.11086962 0.25659573
-0.039528754 -0.11100753 0.25691488
-0.039052982 -0.11114542 0.25723404
-0.03854404 -0.11119139 0.25734043
-0.037956074 -0.11100753 0.25691488
-0.037307851 -0.1106398 0.25606382
-0.036617257 -0.11013418 0.25489363
-0.03600676 -0.10985839 0.25425532
0.021565206 -0.11532832 0.2669149
0.022109836 -0.11532832 0.2669149
0.022645438 -0.11528235 0.26680851
0.023134373 -0.11500655 0.2661702
0.023601776 -0.11463883 0.26531914
-0.10399657 -0.10828736 0.25180852
-0.10361391 -0.1084246 0.25212765
-0.10331697 -0.10865336 0.25265959
-0.10301784 -0.1088821 0.2531915
-0.10250121 -0.1088821 0.2531915
-0.10194173 -0.10883635 0.25308511
-0.10134006 -0.10874485 0.25287235
-0.10090891 -0.10883635 0.25308511
-0.1005191 -0.10897359 0.25340426
-0.10021195 -0.10920233 0.25393617
-0.099819094 -0.10933959 0.25425532
-0.09934184 -0.10938533 0.25436169
-0.044437319 -0.10965982 0.255
-0.043935325 -0.10970557 0.25510639
-0.043523416 -0.10998007 0.2557447
-0.043126792 -0.11030031 0.25648937
-0.042656444 -0.11043756 0.25680852
-0.042097524 -0.11034605 0.25659573
-0.041522246 -0.11020882 0.25627661
-0.040999319 -0.11020882 0.25627661
-0.040509999 -0.11030031 0.25648937
-0.040086154 -0.1105748 0.25712767
-0.039643332 -0.11080354 0.25765958
-0.03918219 -0.11098654 0.2580851
-0.038671512 -0.11103229 0.2581915
-0.038097527 -0.11089505 0.25787234
-0.037431847 -0.1104833 0.25691488
-0.036754798 -0.11002582 0.25585106
-0.036127284 -0.10970557 0.25510639
0.021513635 -0.1145092 0.2662766
0.022065775 -0.11455495 0.26638299
0.022609321 -0.11455495 0.26638299
0.023106633 -0.11432619 0.26585105
0.02358285 -0.11400595 0.26510638
0.024075389 -0.11377721 0.26457447
-0.10368901 -0.10745483 0.25106382
-0.10343903 -0.10772802 0.25170213
-0.10309944 -0.10791014 0.25212765
-0.10271484 -0.10804674 0.2524468
-0.1021136 -0.10795568 0.25223404
-0.10138468 -0.10772802 0.25170213
-0.10053001 -0.10736377 0.25085106
-0.099848494 -0.10718164 0.25042552
-0.099379711 -0.10722717 0.25053191
-0.099246353 -0.10763697 0.25148937
-0.09923438 -0.10818334 0.25276595
-0.099134095 -0.10863865 0.25382978
-0.044511478 -0.10932164 0.25542554
-0.044045255 -0.10945823 0.2557447
-0.04361394 -0.10968589 0.25627661
-0.043198336 -0.10995907 0.25691488
-0.042709455 -0.11005014 0.25712767
-0.042167339 -0.11000461 0.25702128
-0.041573949 -0.10982247 0.25659573
-0.041016337 -0.10973141 0.25638297
-0.040543605 -0.10986801 0.25670213
-0.040119324 -0.1101412 0.25734043
-0.039692439 -0.1104144 0.25797874
-0.039262943 -0.11068758 0.25861701
-0.038767111 -0.11077864 0.25882977
-0.038223263 -0.11073311 0.25872341
-0.037586849 -0.1104144 0.25797874
-0.03693819 -0.11005014 0.25712767
-0.036277939 -0.10964035 0.25617021
-0.035710685 -0.10950375 0.25585106
0.021487849 -0.11382927 0.26595744
0.022039339 -0.11387481 0.26606384
0.022582233 -0.11387481 0.26606384
0.023097388 -0.11373821 0.26574469
0.02358285 -0.11346502 0.26510638
0.024085071 -0.1132829 0.26468086
-0.10342538 -0.10667065 0.25042552
-0.10313301 -0.10689723 0.25095746
-0.10275143 -0.10703317 0.25127658
-0.10232529 -0.10712381 0.25148937
-0.10168293 -0.10698786 0.25117022
-0.10087046 -0.10667065 0.25042552
-0.099847876 -0.10612688 0.24914894
-0.098915339 -0.10567374 0.24808511
-0.098366924 -0.10562842 0.24797872
-0.098364718 -0.1061722 0.24925531
-0.04458563 -0.1089817 0.25585106
-0.044136863 -0.10916296 0.25627661
-0.043704461 -0.10938954 0.25680852
-0.043287776 -0.10966142 0.2574468
-0.042797808 -0.10975206 0.25765958
-0.042237151 -0.10966142 0.2574468
-0.041642897 -0.10948016 0.25702128
-0.041067395 -0.10934422 0.25670213
-0.040577207 -0.10943484 0.25691488
-0.040119324 -0.10961611 0.25734043
-0.039692439 -0.109888 0.25797874
-0.039262943 -0.11015988 0.25861701
-0.038814913 -0.11038645 0.25914893
-0.038301848 -0.11043177 0.25925532
-0.037710842 -0.1102505 0.25882977
-0.037106298 -0.11002394 0.25829786
-0.036473792 -0.10970674 0.25755319
-0.035888869 -0.10952549 0.25712767
-0.035320316 -0.10938954 0.25680852
0.021479253 -0.11324127 0.26585105
0.022021713 -0.11324127 0.26585105
0.022564173 -0.11324127 0.26585105
0.023078896 -0.11310534 0.26553193
0.023573386 -0.11287875 0.26499999
0.024075389 -0.1126975 0.26457447
-0.10367146 -0.10588909 0.24978724
-0.10316177 -0.10588909 0.24978724
-0.10273953 -0.10597928 0.25
-0.10231642 -0.10606948 0.25021276
-0.10189243 -0.10615966 0.25042552
-0.10129531 -0.10606948 0.25021276
-0.10048481 -0.10575379 0.24946809
-0.099421546 -0.10516753 0.24808511
-0.098406337 -0.10462636 0.24680851
-0.097691737 -0.10440087 0.2462766
-0.044173505 -0.10873023 0.25648937
-0.043722562 -0.10891062 0.25691488
-0.043287776 -0.1091361 0.2574468
-0.042815477 -0.1092714 0.25776595
-0.042272061 -0.10922631 0.25765958
-0.041694608 -0.10909101 0.25734043
-0.041135475 -0.10900082 0.25712767
-0.040594012 -0.10895572 0.25702128
-0.040119324 -0.10909101 0.25734043
-0.039676066 -0.10931651 0.25787234
-0.039246794 -0.10958709 0.25851065
-0.03879898 -0.10981258 0.25904256
-0.038317565 -0.10994788 0.25936171
-0.037788346 -0.10994788 0.25936171
-0.037213277 -0.10981258 0.25904256
-0.036624447 -0.10963218 0.25861701
-0.036007658 -0.1093616 0.25797874
-0.035422735 -0.10918121 0.25755319
0.021487849 -0.11274391 0.26595744
0.022030527 -0.11274391 0.26595744
0.022555146 -0.11265372 0.26574469
0.023060402 -0.11247332 0.26531914
0.023554459 -0.11224784 0.26478723
0.024056029 -0.11206745 0.26436171
-0.10358315 -0.10528965 0.24957447
-0.10302997 -0.10524476 0.24946809
-0.10252094 -0.10524476 0.24946809
-0.10205541 -0.10528965 0.24957447
-0.10158944 -0.10533452 0.24968085
-0.10103691 -0.10528965 0.24957447
-0.10031341 -0.10506524 0.24904256
-0.099378906 -0.10461643 0.24797872
-0.098406337 -0.10412275 0.24680851
-0.044081897 -0.10798248 0.25595745
-0.04361394 -0.10811712 0.25627661
-0.043180455 -0.10834152 0.25680852
-0.042744797 -0.10856592 0.25734043
-0.042272061 -0.10870057 0.25765958
-0.041746315 -0.10870057 0.25765958
-0.041203551 -0.10865568 0.25755319
-0.040644418 -0.10856592 0.25734043
-0.040135905 -0.10861079 0.2574468
-0.039659698 -0.10874543 0.25776595
-0.039214488 -0.10896984 0.25829786
-0.038767111 -0.10919424 0.25882977
-0.038301848 -0.10937377 0.25925532
-0.037788346 -0.10941865 0.25936171
-0.037274409 -0.10946353 0.25946808
-0.036729909 -0.10941865 0.25936171
-0.036141295 -0.10923912 0.25893617
-0.035525154 -0.10896984 0.25829786
-0.034940448 -0.10879032 0.25787234
0.021496445 -0.11224613 0.26606384
0.022039339 -0.11224613 0.26606384
0.022564173 -0.11215635 0.26585105
0.02306965 -0.11197684 0.26542553
0.023554459 -0.11170755 0.26478723
0.024056029 -0.11152803 0.26436171
-0.1036273 -0.10482506 0.24968085
-0.1030739 -0.10478039 0.24957447
-0.10252094 -0.10473573 0.24946809
-0.10205541 -0.10478039 0.24957447
-0.10158944 -0.10482506 0.24968085
-0.10099384 -0.10473573 0.24946809
-0.10031341 -0.10455707 0.24904256
-0.09950681 -0.10424443 0.24829787
-0.043450996 -0.10719222 0.25531915
-0.043001577 -0.10737088 0.2557447
-0.042603433 -0.10768352 0.25648937
-0.042202245 -0.10799616 0.25723404
-0.041763548 -0.10821947 0.25776595
-0.041254606 -0.10826414 0.25787234
-0.040711623 -0.10821947 0.25776595
-0.040152494 -0.10813015 0.25755319
-0.039643332 -0.10817482 0.25765958
-0.03918219 -0.10835347 0.2580851
-0.038719311 -0.10853212 0.25851065
-0.038254697 -0.10871077 0.25893617
-0.037757345 -0.1088001 0.25914893
-0.037274409 -0.10893409 0.25946808
-0.03676004 -0.10897876 0.25957447
-0.036170989 -0.1088001 0.25914893
-0.035569049 -0.10857678 0.25861701
-0.034983695 -0.10839813 0.2581915
0.021513635 -0.11179255 0.2662766
0.022065775 -0.11183722 0.26638299
0.022600291 -0.11179255 0.2662766
0.023106633 -0.11161389 0.26585105
0.023592316 -0.11134592 0.26521277
0.024094749 -0.11116726 0.26478723
-0.10422551 -0.10440449 0.24989362
-0.10371561 -0.10440449 0.24989362
-0.10324965 -0.10444893 0.25
-0.10282697 -0.10453782 0.25021276
-0.10240342 -0.10462671 0.25042552
-0.10184915 -0.10458227 0.25031915
-0.10120918 -0.10444893 0.25
-0.10052766 -0.10427114 0.24957447
-0.043306161 -0.10631568 0.25446808
-0.042840589 -0.10644902 0.25478724
-0.04246207 -0.10680459 0.2556383
-0.042132434 -0.1072935 0.25680852
-0.041763548 -0.10769351 0.25776595
-0.041305665 -0.1078713 0.2581915
-0.04076203 -0.10782685 0.2580851
-0.04018566 -0.10769351 0.25776595
-0.039643332 -0.10764907 0.25765958
-0.039149888 -0.10773797 0.25787234
-0.038671512 -0.1078713 0.2581915
-0.038191829 -0.10800464 0.25851065
-0.037710842 -0.10813797 0.25882977
-0.035569049 -0.10804908 0.25861701
0.021522231 -0.11129367 0.26638299
0.022074588 -0.11133812 0.26648936
0.02262738 -0.11138257 0.26659575
0.023143619 -0.11124922 0.2662766
0.023630168 -0.11098254 0.26563829
-0.10426988 -0.10393882 0.25
-0.10384807 -0.10402727 0.25021276
-0.10351326 -0.10420419 0.25063831
-0.10322044 -0.10442534 0.25117022
-0.10279494 -0.10451379 0.25138298
-0.10219543 -0.10442534 0.25117022
-0.10151065 -0.10424841 0.25074467
-0.10078476 -0.10402727 0.25021276
-0.042426728 -0.10619451 0.25542554
-0.042097524 -0.10668103 0.25659573
-0.041729078 -0.1070791 0.25755319
-0.041288644 -0.10730024 0.2580851
-0.040778834 -0.10734447 0.2581915
-0.040218834 -0.10725602 0.25797874
-0.039643332 -0.10712333 0.25765958
-0.039117586 -0.10712333 0.25765958
-0.038623709 -0.10721178 0.25787234
-0.038144678 -0.10734447 0.2581915
0.021522231 -0.11075013 0.26638299
0.022074588 -0.11079435 0.26648936
0.022636408 -0.1108828 0.26670212
0.023162112 -0.11079435 0.26648936
0.023677485 -0.11066166 0.2661702
-0.10431425 -0.10347272 0.25010639
-0.10393637 -0.10360474 0.25042552
-0.10368901 -0.10386882 0.25106382
-0.10343903 -0.10413289 0.25170213
-0.10305595 -0.10426493 0.25202128
-0.10236856 -0.10408888 0.25159574
-0.10163985 -0.10386882 0.25106382
-0.10095617 -0.10369278 0.25063831
-0.042080075 -0.10611344 0.25648937
-0.041677367 -0.10642152 0.25723404
-0.041254606 -0.1066856 0.25787234
-0.040778834 -0.10681764 0.2581915
-0.040235419 -0.10677362 0.2580851
-0.039676066 -0.1066856 0.25787234
-0.039133735 -0.10664158 0.25776595
-0.038623709 -0.1066856 0.25787234
-0.038113248 -0.10672962 0.25797874
0.021479253 -0.10998651 0.26585105
0.022039339 -0.11007454 0.26606384
0.022591261 -0.11011855 0.2661702
0.023134373 -0.11011855 0.2661702
0.023668023 -0.11007454 0.26606384
-0.10431425 -0.10296238 0.25010639
-0.10393637 -0.10309376 0.25042552
-0.10368901 -0.10335653 0.25106382
-0.10339531 -0.10357551 0.25159574
-0.10296895 -0.1036631 0.25180852
-0.102282 -0.10348792 0.25138298
-0.10146759 -0.10318135 0.25063831
-0.10074192 -0.10296238 0.25010639
-0.04162566 -0.10576526 0.25691488
-0.04118653 -0.10598423 0.2574468
-0.04076203 -0.10624701 0.2580851
-0.040285174 -0.1063784 0.25840425
-0.039741538 -0.1063346 0.25829786
-0.039198343 -0.10629081 0.2581915
-0.038655575 -0.10624701 0.2580851
-0.038128961 -0.10624701 0.2580851
0.021410491 -0.10909369 0.26499999
0.021960029 -0.10913749 0.26510638
0.022500969 -0.10913749 0.26510638
0.023032663 -0.10909369 0.26499999
0.023563925 -0.1090499 0.26489362
-0.10431425 -0.10245205 0.25010639
-0.10384807 -0.10249562 0.25021276
-0.10351326 -0.10266994 0.25063831
-0.10317672 -0.10284425 0.25106382
-0.10270794 -0.10288782 0.25117022
-0.10197901 -0.10266994 0.25063831
-0.10116611 -0.10236489 0.24989362
-0.10048481 -0.10219058 0.24946809
-0.041573949 -0.1051103 0.25659573
-0.041135475 -0.1053282 0.25712767
-0.040745232 -0.10567682 0.25797874
-0.040301759 -0.10589471 0.25851065
-0.039807014 -0.10598187 0.25872341
-0.039246794 -0.10589471 0.25851065
-0.038703378 -0.10585113 0.25840425
0.021324541 -0.10811719 0.26393616
0.021863094 -0.10811719 0.26393616
0.022401646 -0.10811719 0.26393616
0.022921707 -0.10803004 0.2637234
0.023421973 -0.10785573 0.26329789
-0.10413677 -0.10176826 0.24968085
-0.10371561 -0.10185499 0.24989362
-0.10329359 -0.10194171 0.25010639
-0.10287069 -0.10202843 0.25031915
-0.10235992 -0.10202843 0.25031915
-0.1017193 -0.10189835 0.25
-0.10099384 -0.10168155 0.24946809
-0.041522246 -0.10445665 0.25627661
-0.041084416 -0.10467345 0.25680852
-0.040694825 -0.10502034 0.25765958
-0.040285174 -0.10532387 0.25840425
-0.039807014 -0.10545395 0.25872341
-0.039279096 -0.10545395 0.25872341
-0.038719311 -0.10536724 0.25851065
0.021247186 -0.1071884 0.26297873
0.021801408 -0.10727511 0.26319149
0.022329412 -0.10723174 0.2630851
0.022847736 -0.10714503 0.26287234
0.023346266 -0.10697159 0.26244682
-0.10391492 -0.10104308 0.24914894
-0.103539 -0.10117251 0.24946809
-0.10316177 -0.10130195 0.24978724
-0.1026521 -0.10130195 0.24978724
-0.10214242 -0.10130195 0.24978724
-0.10154616 -0.10121565 0.24957447
-0.10090771 -0.10108622 0.24925531
-0.041487768 -0.10384743 0.25606382
-0.041033357 -0.10402001 0.25648937
-0.040627614 -0.10432202 0.25723404
-0.04018566 -0.10453773 0.25776595
-0.039708804 -0.10466717 0.2580851
-0.039214488 -0.10475345 0.25829786
0.020635184 -0.1062635 0.26202127
0.021204211 -0.10643607 0.26244682
0.021774972 -0.10660864 0.26287234
0.022329412 -0.10669493 0.2630851
0.022856984 -0.1066518 0.26297873
0.023355728 -0.10647921 0.26255319
0.023852738 -0.10630664 0.26212767
-0.10388825 -0.10001957 0.24787234
-0.10360432 -0.10023421 0.24840425
-0.10331824 -0.10044885 0.24893618
-0.10298603 -0.10062055 0.24936171
-0.10252094 -0.10066348 0.24946809
-0.1020119 -0.10066348 0.24946809
-0.10137302 -0.1005347 0.24914894
-0.10082157 -0.10049178 0.24904256
-0.041470535 -0.10328202 0.25595745
-0.040999319 -0.1034108 0.25627661
-0.040543605 -0.10358251 0.25670213
-0.04005298 -0.10366835 0.25691488
-0.039528754 -0.10366835 0.25691488
-0.03902068 -0.10371128 0.25702128
0.02002709 -0.10534251 0.26106384
0.020601671 -0.10555714 0.26159576
0.021187019 -0.1058147 0.26223403
0.021774972 -0.10607226 0.26287234
0.022356501 -0.1062869 0.26340425
0.022893969 -0.1062869 0.26340425
0.023393583 -0.10611519 0.26297873
0.02388178 -0.10590056 0.26244682
-0.10362073 -0.099257544 0.24723405
-0.10333811 -0.099471092 0.24776596
-0.10309746 -0.099727347 0.24840425
-0.10281029 -0.099940903 0.24893618
-0.10238978 -0.10002632 0.24914894
-0.1018814 -0.10002632 0.24914894
-0.10119988 -0.099855483 0.2487234
-0.10060623 -0.099770062 0.24851064
-0.041487768 -0.10280245 0.25606382
-0.040982299 -0.10284517 0.25617021
-0.040459592 -0.10284517 0.25617021
-0.03988713 -0.10271703 0.25585106
-0.039266866 -0.10246077 0.25521275
-0.038697664 -0.10233265 0.25489363
0.019462621 -0.10463898 0.2606383
0.020010766 -0.10472439 0.26085106
0.020576537 -0.10489524 0.2612766
0.021169828 -0.1051942 0.26202127
0.021774972 -0.10553588 0.26287234
0.022374559 -0.10583485 0.26361701
0.022930956 -0.10592028 0.2638298
0.023431435 -0.10574943 0.26340425
0.023910819 -0.10549317 0.26276594
0.024407396 -0.10532233 0.26234043
-0.10385638 -0.098498113 0.24659574
-0.10344238 -0.098583102 0.24680851
-0.10311626 -0.098753072 0.24723405
-0.1028767 -0.099008024 0.24787234
-0.10263454 -0.099262983 0.24851064
-0.10225862 -0.099390462 0.24882978
-0.10170739 -0.099347971 0.2487234
-0.10098346 -0.099135503 0.24819149
-0.10034782 -0.099008024 0.24787234
-0.041556716 -0.10244994 0.25648937
-0.041016337 -0.10240744 0.25638297
-0.04042599 -0.10223748 0.25595745
-0.03975445 -0.10185504 0.255
-0.039054081 -0.10138761 0.25382978
0.018992612 -0.1044471 0.26148936
0.01950234 -0.10431962 0.26117021
0.02002709 -0.10427713 0.26106384
0.020593293 -0.1044471 0.26148936
0.021169828 -0.10465956 0.26202127
0.021774972 -0.1049995 0.26287234
0.022365531 -0.10525446 0.26351064
0.022930956 -0.10538194 0.2638298
0.023440899 -0.10525446 0.26351064
0.023939861 -0.10508448 0.2630851
0.024446985 -0.104957 0.26276594
-0.10372197 -0.097868122 0.2462766
-0.10326403 -0.097910397 0.24638298
-0.10289441 -0.098037221 0.24670213
-0.10261179 -0.098248601 0.24723405
-0.10237093 -0.098502249 0.24787234
-0.10204002 -0.098671354 0.24829787
-0.10153338 -0.098671354 0.24829787
-0.10089688 -0.098544523 0.24797872
-0.1002617 -0.098417699 0.24765958
-0.041608427 -0.10205341 0.25680852
-0.041067395 -0.10201113 0.25670213
-0.04042599 -0.10171521 0.25595745
-0.03968811 -0.10116562 0.25457448
-0.039037716 -0.10082742 0.25372341
0.0190467 -0.10420946 0.26223403
0.019565891 -0.10412491 0.26202127
0.020092376 -0.10408263 0.26191488
0.020643562 -0.10416719 0.26212767
0.021204211 -0.10429402 0.26244682
0.021783786 -0.1045054 0.26297873
0.022356501 -0.1046745 0.26340425
0.022912459 -0.10475904 0.26361701
0.023440899 -0.10471678 0.26351064
0.023959225 -0.10463223 0.26329789
0.024496475 -0.10463223 0.26329789
-0.10354275 -0.097197369 0.24585107
-0.10308568 -0.09723942 0.24595745
-0.10267255 -0.097323537 0.24617021
-0.10239102 -0.097533837 0.24670213
-0.10215124 -0.097786181 0.24734043
-0.10182143 -0.097954422 0.24776596
-0.10140288 -0.098038532 0.24797872
-0.10081032 -0.097954422 0.24776596
-0.1002617 -0.097912364 0.24765958
-0.04162566 -0.10157145 0.25691488
-0.041101433 -0.10157145 0.25691488
-0.040459592 -0.10127705 0.25617021
-0.039704695 -0.10068822 0.25468084
-0.039315969 -0.10102469 0.25553191
0.018564189 -0.1039688 0.26297873
0.019100789 -0.1039688 0.26297873
0.019637387 -0.1039688 0.26297873
0.020173987 -0.1039688 0.26297873
0.020718964 -0.10401085 0.2630851
0.021264376 -0.10405291 0.26319149
0.021801408 -0.10405291 0.26319149
0.022356501 -0.10413703 0.26340425
0.022903215 -0.10417909 0.26351064
0.023440899 -0.10417909 0.26351064
0.023978585 -0.10417909 0.26351064
0.024526166 -0.10422114 0.26361701
0.02509441 -0.10434732 0.26393616
-0.10295192 -0.096612029 0.2456383
-0.10249507 -0.096653871 0.24574468
-0.10217025 -0.096821234 0.24617021
-0.10188764 -0.097030446 0.24670213
-0.10160284 -0.097239651 0.24723405
-0.10122887 -0.097365171 0.24755318
-0.10072374 -0.097365171 0.24755318
-0.041556716 -0.10087986 0.25648937
-0.041067395 -0.10096355 0.25670213
-0.040459592 -0.10075434 0.25617021
-0.03972128 -0.1002104 0.25478724
-0.039692439 -0.10146565 0.25797874
0.018571697 -0.10347404 0.2630851
0.01912397 -0.10355773 0.26329789
0.019677108 -0.10364141 0.26351064
0.020231113 -0.10372508 0.2637234
0.020777611 -0.10376693 0.2638298
0.021307351 -0.10372508 0.2637234
0.021827847 -0.10364141 0.26351064
0.022365531 -0.10364141 0.26351064
0.022903215 -0.10364141 0.26351064
0.023450362 -0.10368324 0.26361701
0.024007626 -0.10376693 0.2638298
0.024555858 -0.10380877 0.26393616
0.025134871 -0.10397614 0.26436171
0.025725951 -0.10418534 0.26489362
0.0263192 -0.10439455 0.26542553
-0.10281815 -0.095985934 0.24531914
-0.10231759 -0.095985934 0.24531914
-0.10194948 -0.096110813 0.2456383
-0.10166795 -0.09631893 0.24617021
-0.10138424 -0.096527062 0.24670213
-0.10096786 -0.096610308 0.24691489
-0.10050732 -0.096651927 0.24702127
-0.041853182 -0.099815391 0.25510639
-0.041436065 -0.10006514 0.2557447
-0.040965278 -0.10019001 0.25606382
-0.040375583 -0.10002351 0.2556383
-0.039704695 -0.099648885 0.25468084
-0.039708804 -0.10098087 0.2580851
0.018556679 -0.10285397 0.26287234
0.019116241 -0.10297885 0.26319149
0.019692995 -0.10318696 0.2637234
0.020263759 -0.10335347 0.26414895
0.020811122 -0.10339509 0.26425532
0.021333138 -0.10331184 0.26404256
0.021845469 -0.10318696 0.2637234
0.022374559 -0.10314534 0.26361701
0.022921707 -0.10318696 0.2637234
0.02346929 -0.1032286 0.2638298
0.024026986 -0.10331184 0.26404256
0.024575656 -0.10335347 0.26414895
0.025155099 -0.10351996 0.26457447
0.02573628 -0.10368645 0.26499999
0.0263192 -0.10385296 0.26542553
0.02689309 -0.10397784 0.26574469
-0.1026844 -0.095361151 0.245
-0.10222885 -0.095402561 0.24510638
-0.10186119 -0.095526785 0.24542554
-0.10158008 -0.095733821 0.24595745
-0.10120937 -0.095858045 0.2462766
-0.10075035 -0.095899448 0.24638298
-0.10020433 -0.095858045 0.2462766
-0.041643739 -0.098797962 0.25382978
-0.041211989 -0.099004991 0.25436169
-0.04076105 -0.099170633 0.25478724
-0.040224362 -0.099129222 0.25468084
-0.039638355 -0.098963596 0.25425532
-0.039463285 -0.099833146 0.25648937
0.019100789 -0.102359 0.26297873
0.01968505 -0.10260744 0.26361701
0.020263759 -0.10281448 0.26414895
0.020811122 -0.10285588 0.26425532
0.021324541 -0.10273166 0.26393616
0.021845469 -0.10264885 0.2637234
0.022374559 -0.10260744 0.26361701
0.022921707 -0.10264885 0.2637234
0.02346929 -0.10269026 0.2638298
0.024017306 -0.10273166 0.26393616
0.024565756 -0.10277307 0.26404256
0.025144985 -0.1029387 0.26446807
0.02573628 -0.10314573 0.26499999
0.02632975 -0.10335278 0.26553193
0.026914621 -0.1035184 0.26595744
0.027468283 -0.10355981 0.26606384
-0.10246146 -0.094655283 0.24446808
-0.10209574 -0.094778858 0.24478723
-0.10177287 -0.09494362 0.24521276
-0.10153615 -0.095190763 0.24585107
-0.10120937 -0.095355526 0.2462766
-0.10070685 -0.095355526 0.2462766
-0.041504111 -0.097950503 0.25297871
-0.041005153 -0.097991697 0.25308511
-0.040539801 -0.098115273 0.25340426
-0.040039536 -0.098156452 0.25351062
-0.039505675 -0.098115273 0.25340426
-0.038988613 -0.098115273 0.25340426
0.019100789 -0.1018224 0.26297873
0.019677108 -0.10202835 0.26351064
0.020247435 -0.10219311 0.26393616
0.020785987 -0.10219311 0.26393616
0.021307351 -0.10211073 0.2637234
0.021819033 -0.10198715 0.26340425
0.022356501 -0.10198715 0.26340425
0.022903215 -0.10202835 0.26351064
0.023440899 -0.10202835 0.26351064
0.023988264 -0.10206953 0.26361701
0.024536064 -0.10211073 0.2637234
0.025104526 -0.1022343 0.26404256
0.025694955 -0.10244025 0.26457447
0.02630865 -0.10272858 0.26531914
0.026914621 -0.10297573 0.26595744
0.027490249 -0.10309929 0.2662766
-0.10228311 -0.093992569 0.24404256
-0.10191826 -0.094115481 0.2443617
-0.10164041 -0.094320349 0.24489361
-0.10153615 -0.094689108 0.24585107
-0.10125308 -0.094893977 0.24638298
-0.10079385 -0.094934948 0.24648936
-0.041381937 -0.097147502 0.25223404
-0.040850025 -0.097106524 0.25212765
-0.040352587 -0.097147502 0.25223404
-0.039854717 -0.09718848 0.25234044
-0.039372995 -0.097270422 0.25255319
0.019677108 -0.10149067 0.26351064
0.020222953 -0.10153163 0.26361701
0.020752477 -0.10149067 0.26351064
0.021272972 -0.10140872 0.26329789
0.021792596 -0.10132677 0.2630851
0.022320384 -0.1012858 0.26297873
0.022866229 -0.10132677 0.2630851
0.023403045 -0.10132677 0.2630851
0.023939861 -0.10132677 0.2630851
0.024486577 -0.10136774 0.26319149
0.025053954 -0.10149067 0.26351064
0.025643297 -0.10169553 0.26404256
0.026266458 -0.10202332 0.26489362
0.026882324 -0.10231013 0.26563829
-0.10282588 -0.093535364 0.24414894
-0.10223852 -0.093453847 0.24393617
-0.10178515 -0.093494609 0.24404256
-0.10155211 -0.093739145 0.24468085
-0.10144827 -0.094105944 0.2456383
-0.10120937 -0.094350487 0.2462766
-0.10083735 -0.094472751 0.24659574
-0.041277219 -0.096388288 0.25159574
-0.040746611 -0.096347541 0.25148937
-0.040216435 -0.096306778 0.25138298
-0.039703496 -0.096306778 0.25138298
-0.039223727 -0.096388288 0.25159574
0.019677108 -0.10095298 0.26351064
0.02020663 -0.10091222 0.26340425
0.020727342 -0.10083071 0.26319149
0.02123859 -0.10070844 0.26287234
0.02176616 -0.10066768 0.26276594
0.022302324 -0.10066768 0.26276594
0.02283849 -0.10066768 0.26276594
0.023374654 -0.10066768 0.26276594
0.023910819 -0.10066768 0.26276594
0.024456883 -0.10070844 0.26287234
0.025023609 -0.10083071 0.26319149
0.025612302 -0.10103449 0.2637234
0.026213713 -0.10127903 0.26436171
0.026828494 -0.10156432 0.26510638
-0.1030947 -0.093280412 0.24478723
-0.10246146 -0.093158796 0.24446808
-0.10196263 -0.093158796 0.24446808
-0.10159626 -0.093280412 0.24478723
-0.10131646 -0.093483113 0.24531914
-0.10099077 -0.093645267 0.24574468
-0.10057634 -0.093726344 0.24595745
-0.041207407 -0.095712766 0.25117022
-0.0406949 -0.095712766 0.25117022
-0.040148359 -0.095631689 0.25095746
-0.039602682 -0.095550604 0.25074467
-0.039091047 -0.095550604 0.25074467
0.019669162 -0.10037475 0.26340425
0.02019031 -0.10029368 0.26319149
0.020702207 -0.10017206 0.26287234
0.021221399 -0.10009098 0.26265958
0.021748535 -0.10005044 0.26255319
0.022284266 -0.10005044 0.26255319
0.022819998 -0.10005044 0.26255319
0.023355728 -0.10005044 0.26255319
0.023891458 -0.10005044 0.26255319
0.024456883 -0.10017206 0.26287234
0.025023609 -0.10029368 0.26319149
0.025601968 -0.10045583 0.26361701
0.026192617 -0.10065854 0.26414895
-0.1040444 -0.093184158 0.24585107
-0.10349794 -0.093143836 0.24574468
-0.10286275 -0.093022868 0.24542554
-0.10227322 -0.092942223 0.24521276
-0.10172872 -0.0929019 0.24510638
-0.10122859 -0.0929019 0.24510638
-0.10068474 -0.092861585 0.245
-0.10018483 -0.092861585 0.245
-0.04118995 -0.095159933 0.25106382
-0.04066043 -0.095119618 0.25095746
-0.040114317 -0.095038965 0.25074467
-0.03956908 -0.094958328 0.25053191
-0.039041288 -0.094917998 0.25042552
0.020182148 -0.099716321 0.2630851
0.020693829 -0.099595353 0.26276594
0.021212805 -0.099514708 0.26255319
0.021757348 -0.099555038 0.26265958
0.022293296 -0.099555038 0.26265958
0.022819998 -0.099514708 0.26255319
0.023346266 -0.099474393 0.26244682
0.02388178 -0.099474393 0.26244682
0.024446985 -0.099595353 0.26276594
0.025023609 -0.099756643 0.26319149
-0.10440457 -0.093003348 0.24670213
-0.10390119 -0.093003348 0.24670213
-0.10326403 -0.092883028 0.24638298
-0.10262819 -0.092762716 0.24606383
-0.10190533 -0.092562191 0.24553192
-0.10118466 -0.092361666 0.245
-0.10050987 -0.092201248 0.24457447
-0.041207407 -0.094687752 0.25117022
-0.0406949 -0.094687752 0.25117022
-0.040148359 -0.094607547 0.25095746
-0.039619487 -0.09456744 0.25085106
-0.039091047 -0.094527327 0.25074467
0.020165825 -0.099099293 0.26287234
0.020693829 -0.099059187 0.26276594
0.021221399 -0.099019088 0.26265958
0.021757348 -0.099019088 0.26265958
0.022293296 -0.099019088 0.26265958
0.022801505 -0.098898768 0.26234043
0.023317875 -0.098818563 0.26212767
0.023852738 -0.098818563 0.26212767
0.024417294 -0.098938882 0.26244682
-0.10444959 -0.092539847 0.24680851
-0.10394599 -0.092539847 0.24680851
-0.1033532 -0.092460066 0.24659574
-0.10267255 -0.092300519 0.24617021
-0.10194948 -0.092101082 0.2456383
-0.10122859 -0.091901638 0.24510638
-0.10050987 -0.0917022 0.24457447
-0.041277219 -0.094334796 0.25159574
-0.040763844 -0.094334796 0.25159574
-0.040250473 -0.094334796 0.25159574
-0.039720301 -0.094294913 0.25148937
-0.039190557 -0.094255023 0.25138298
0.020685453 -0.098483138 0.26265958
0.021212805 -0.098443247 0.26255319
0.021739725 -0.098403364 0.26244682
0.022266209 -0.098363474 0.26234043
0.022773765 -0.09824381 0.26202127
0.023280021 -0.098124146 0.26170212
0.023814015 -0.098124146 0.26170212
-0.10413444 -0.091758542 0.24606383
-0.10363235 -0.091758542 0.24606383
-0.1030411 -0.091679208 0.24585107
-0.10236196 -0.091520526 0.24542554
-0.10168457 -0.091361843 0.245
-0.10109678 -0.091282494 0.24478723
-0.041364484 -0.094019778 0.25212765
-0.040850025 -0.094019778 0.25212765
-0.040335566 -0.094019778 0.25212765
-0.03980431 -0.093980111 0.25202128
-0.039273482 -0.093940437 0.25191489
0.020635184 -0.097709164 0.26202127
0.021161232 -0.09766949 0.26191488
0.02168685 -0.097629823 0.26180851
0.022203004 -0.097550489 0.26159576
0.022709042 -0.097431473 0.2612766
0.023223242 -0.097352132 0.26106384
0.023746252 -0.097312458 0.26095745
-0.1043651 -0.091019742 0.24542554
-0.10377426 -0.090940833 0.24521276
-0.10318431 -0.090861924 0.245
-0.10250605 -0.090704113 0.24457447
-0.10187389 -0.090585746 0.24425532
-0.10124303 -0.090467386 0.24393617
-0.10070135 -0.090427935 0.24382979
-0.041416842 -0.093623683 0.2524468
-0.040901735 -0.093623683 0.2524468
-0.040386625 -0.093623683 0.2524468
-0.039837912 -0.093544774 0.25223404
-0.039290071 -0.093465872 0.25202128
0.021083878 -0.09677998 0.26095745
0.021598728 -0.096701078 0.26074469
0.022112709 -0.096622162 0.2605319
0.022625824 -0.09654326 0.26031914
0.02313807 -0.096464351 0.26010638
0.023659127 -0.096424893 0.25999999
-0.10409366 -0.090283535 0.24478723
-0.10350414 -0.090205066 0.24457447
-0.10278107 -0.090008885 0.24404256
-0.10201558 -0.089773461 0.24340425
-0.10138582 -0.089655749 0.2430851
-0.10088981 -0.089655749 0.2430851
-0.1003938 -0.089655749 0.2430851
-0.041434299 -0.093147814 0.25255319
-0.040936209 -0.093187056 0.25265959
-0.040386625 -0.093108572 0.2524468
-0.03980431 -0.092951633 0.25202128
-0.039256901 -0.092873164 0.25180852
0.021083878 -0.096247509 0.26095745
0.021528231 -0.095855147 0.25989363
0.022031447 -0.095737435 0.25957447
0.022542609 -0.095658965 0.25936171
0.023043437 -0.095541254 0.25904256
0.023552641 -0.095462769 0.25882977
-0.10391271 -0.089627974 0.2443617
-0.10327904 -0.089510925 0.24404256
-0.10255705 -0.089315817 0.24351063
-0.10183724 -0.089120723 0.24297872
-0.10125271 -0.089042686 0.24276596
-0.10080151 -0.089081705 0.24287234
-0.1003938 -0.089159742 0.2430851
-0.041451756 -0.092671514 0.25265959
-0.040936209 -0.092671514 0.25265959
-0.040386625 -0.092593461 0.2524468
-0.039787505 -0.092398368 0.25191489
-0.039207146 -0.092242293 0.25148937
0.021169828 -0.096105225 0.26202127
0.02149298 -0.095168754 0.25946808
0.021995328 -0.095051698 0.25914893
0.02248713 -0.094895624 0.25872341
0.02296773 -0.094700523 0.2581915
0.023465518 -0.094583467 0.25787234
-0.10373175 -0.088974155 0.24393617
-0.10309895 -0.088857748 0.24361703
-0.10242264 -0.088702537 0.2431915
-0.10179266 -0.088586129 0.24287234
-0.10138582 -0.088663734 0.2430851
-0.10106643 -0.088818945 0.24351063
-0.10070135 -0.088935353 0.24382979
-0.041931953 -0.09207835 0.2524468
-0.041451756 -0.092155963 0.25265959
-0.040953442 -0.092194766 0.25276595
-0.040403645 -0.092117161 0.25255319
-0.03980431 -0.091923147 0.25202128
0.021290161 -0.096113823 0.26351064
0.021501794 -0.094678126 0.25957447
0.021995328 -0.094522908 0.25914893
0.02248713 -0.094367705 0.25872341
0.022958264 -0.09413489 0.2580851
0.023455836 -0.094018482 0.25776595
-0.10346033 -0.0882449 0.24329787
-0.10291886 -0.088206314 0.2431915
-0.10233303 -0.08812914 0.24297872
-0.10183724 -0.08812914 0.24297872
-0.1015633 -0.088322066 0.24351063
-0.10133135 -0.088553585 0.24414894
-0.10100891 -0.088707924 0.24457447
-0.042267691 -0.092296369 0.25446808
-0.041434299 -0.091601834 0.25255319
-0.040936209 -0.09164042 0.25265959
-0.040403645 -0.091601834 0.25255319
-0.039837912 -0.091486074 0.25223404
0.021324541 -0.095730469 0.26393616
0.021519419 -0.094225645 0.25978723
0.022031447 -0.094148472 0.25957447
0.022524113 -0.093994126 0.25914893
0.023005581 -0.0938012 0.25861701
0.023504239 -0.093685441 0.25829786
-0.10368403 -0.087518245 0.24265957
-0.10323413 -0.087556615 0.24276596
-0.10269375 -0.087518245 0.24265957
-0.10224342 -0.087556615 0.24276596
-0.10188182 -0.087671719 0.2430851
-0.10165204 -0.087901935 0.24372341
-0.10141965 -0.088132143 0.2443617
-0.10105284 -0.088247247 0.24468085
-0.041347034 -0.090894669 0.25202128
-0.040867262 -0.090971403 0.25223404
-0.040352587 -0.090971403 0.25223404
-0.039821111 -0.090933025 0.25212765
0.021229994 -0.094769865 0.26276594
0.021537041 -0.093772292 0.25999999
0.022058535 -0.093733929 0.25989363
0.022579592 -0.093695551 0.25978723
0.02308129 -0.093580447 0.25946808
0.023591364 -0.093503714 0.25925532
-0.10350221 -0.086870499 0.24223404
-0.10305318 -0.086908661 0.24234043
-0.10260371 -0.086946808 0.24244681
-0.10224342 -0.087061264 0.24276596
-0.10192642 -0.087213866 0.2431915
-0.10160767 -0.087366477 0.24361703
-0.10119888 -0.087442771 0.24382979
-0.10074529 -0.087480925 0.24393617
-0.041242313 -0.090151519 0.25138298
-0.040746611 -0.090189673 0.25148937
-0.040233456 -0.090189673 0.25148937
-0.039703496 -0.090151519 0.25138298
0.021092474 -0.093623288 0.26106384
0.021528231 -0.093203619 0.25989363
0.022076594 -0.093279921 0.26010638
0.022616578 -0.093318075 0.26021278
0.023128606 -0.093241766 0.25999999
0.023649449 -0.093203619 0.25989363
-0.10399648 -0.086376235 0.24223404
-0.10350221 -0.086376235 0.24223404
-0.10305318 -0.086414173 0.24234043
-0.10269375 -0.086527966 0.24265957
-0.10237783 -0.086679704 0.2430851
-0.101971 -0.086755574 0.24329787
-0.10143019 -0.086717643 0.2431915
-0.10080151 -0.086603843 0.24287234
-0.10017412 -0.086490035 0.24255319
-0.041102685 -0.089335099 0.25053191
-0.040608719 -0.089373037 0.25063831
-0.040080279 -0.089335099 0.25053191
-0.03956908 -0.089335099 0.25053191
0.020954952 -0.092483647 0.25936171
0.021510605 -0.09259744 0.25968084
0.022076594 -0.092749186 0.26010638
0.022625824 -0.092825048 0.26031914
0.023147535 -0.092787124 0.26021278
0.023668809 -0.092749186 0.26010638
-0.10404216 -0.085919686 0.24234043
-0.10354767 -0.085919686 0.24234043
-0.10318889 -0.08603283 0.24265957
-0.10287384 -0.086183697 0.2430851
-0.10255705 -0.086334564 0.24351063
-0.10201558 -0.086296849 0.24340425
-0.10125271 -0.086070552 0.24276596
-0.10035998 -0.085731089 0.2418085
-0.099646889 -0.085542507 0.24127659
-0.041015416 -0.088635318 0.25
-0.040505301 -0.088635318 0.25
-0.039995186 -0.088635318 0.25
-0.039468266 -0.088597603 0.24989362
0.020920569 -0.091803558 0.25893617
0.02148417 -0.091954432 0.25936171
0.022058535 -0.092143014 0.25989363
0.022607332 -0.092218444 0.26010638
0.02313807 -0.092218444 0.26010638
0.023659127 -0.092180721 0.25999999
-0.1041335 -0.085500196 0.24255319
-0.10372949 -0.085575193 0.24276596
-0.10336985 -0.085687689 0.2430851
-0.10305393 -0.085837692 0.24351063
-0.10264666 -0.085912697 0.24372341
-0.101971 -0.085762694 0.24329787
-0.10103086 -0.085387692 0.24223404
-0.10009506 -0.085012689 0.24117021
-0.041967299 -0.089062706 0.25265959
-0.040997963 -0.0880877 0.24989362
-0.040505301 -0.088125199 0.25
-0.039995186 -0.088125199 0.25
-0.039468266 -0.0880877 0.24989362
0.020903381 -0.09120021 0.25872341
0.021457734 -0.091312706 0.25904256
0.022031447 -0.091500208 0.25957447
0.022579592 -0.091575205 0.25978723
0.023100216 -0.091537699 0.25968084
0.023620406 -0.091500208 0.25957447
-0.10436186 -0.085191682 0.2430851
-0.10395677 -0.085266255 0.24329787
-0.1035508 -0.08534082 0.24351063
-0.10318899 -0.085452668 0.24382979
-0.10269146 -0.085452668 0.24382979
-0.10192642 -0.085228972 0.2431915
-0.10089775 -0.084781572 0.2419149
-0.10000675 -0.084446028 0.24095745
-0.041737579 -0.088062473 0.25127658
-0.041067779 -0.087726936 0.25031915
-0.040591482 -0.087801494 0.25053191
-0.040063258 -0.087764211 0.25042552
-0.039535474 -0.087726936 0.25031915
0.020903381 -0.090672292 0.25872341
0.02144892 -0.090746857 0.25893617
0.021995328 -0.090821415 0.25914893
0.022533361 -0.090858705 0.25925532
0.023043437 -0.09078414 0.25904256
0.023562323 -0.090746857 0.25893617
-0.10459023 -0.084881015 0.24361703
-0.10413859 -0.084918074 0.24372341
-0.10373175 -0.084992208 0.24393617
-0.10332406 -0.085066341 0.24414894
-0.10273626 -0.084992208 0.24393617
-0.10183724 -0.084658615 0.24297872
-0.10076464 -0.084176756 0.24159575
-0.099918447 -0.083880231 0.24074468
-0.0426796 -0.088439338 0.25382978
-0.041702237 -0.08747562 0.25106382
-0.041172501 -0.087438561 0.25095746
-0.04066043 -0.087438561 0.25095746
-0.040114317 -0.08736442 0.25074467
-0.039585881 -0.087327361 0.25063831
0.020903381 -0.090144373 0.25872341
0.021440107 -0.090181433 0.25882977
0.02196824 -0.090181433 0.25882977
0.02248713 -0.090144373 0.25872341
0.02297719 -0.089996107 0.25829786
0.023484878 -0.089921974 0.2580851
-0.10472724 -0.084494464 0.24393617
-0.10427496 -0.084531315 0.24404256
-0.10386747 -0.084605008 0.24425532
-0.1034141 -0.084641859 0.2443617
-0.10269146 -0.084457614 0.24382979
-0.10165889 -0.084015429 0.24255319
-0.10045405 -0.083425842 0.24085106
-0.099565223 -0.083094202 0.23989362
-0.042572279 -0.087700322 0.2531915
-0.041737579 -0.087037034 0.25127658
-0.041259766 -0.087110735 0.25148937
-0.040712133 -0.087037034 0.25127658
-0.040114317 -0.086852789 0.25074467
-0.039552275 -0.086742237 0.25042552
0.020903381 -0.089616455 0.25872341
0.021440107 -0.089653298 0.25882977
0.021950183 -0.089579605 0.25861701
0.022450143 -0.08946906 0.25829786
0.022929873 -0.089284815 0.25776595
0.023426795 -0.089174263 0.2574468
-0.10468157 -0.083960086 0.24382979
-0.10427496 -0.084033355 0.24404256
-0.10386747 -0.084106617 0.24425532
-0.10336908 -0.084106617 0.24425532
-0.10260186 -0.083886825 0.24361703
-0.10139137 -0.083300717 0.2419149
-0.10009908 -0.082641341 0.23999999
-0.099167846 -0.082275026 0.23893617
-0.042447064 -0.086927257 0.2524468
-0.041737579 -0.086524308 0.25127658
-0.041242313 -0.086560942 0.25138298
-0.04066043 -0.086414427 0.25095746
-0.04002922 -0.086157992 0.25021276
-0.039451465 -0.086011469 0.24978724
0.020911973 -0.089125164 0.25882977
0.021440107 -0.089125164 0.25882977
0.021941155 -0.089015283 0.25851065
0.022431651 -0.088868745 0.2580851
0.022892021 -0.088612325 0.25734043
0.023388075 -0.088502429 0.25702128
-0.10459023 -0.083389737 0.24361703
-0.10413859 -0.083426148 0.24372341
-0.103777 -0.083535396 0.24404256
-0.10323401 -0.083498977 0.24393617
-0.10237783 -0.083207659 0.2430851
-0.10116843 -0.082625017 0.24138297
-0.099921599 -0.08200597 0.23957446
-0.042107198 -0.085720271 0.25042552
-0.041649226 -0.085829519 0.25074467
-0.041137591 -0.085829519 0.25074467
-0.040557012 -0.08568386 0.25031915
-0.039927106 -0.085428953 0.24957447
-0.03933385 -0.085246883 0.24904256
0.020920569 -0.088633455 0.25893617
0.02144892 -0.088633455 0.25893617
0.021932125 -0.088451378 0.25840425
0.022413159 -0.088269308 0.25787234
0.022882557 -0.088050812 0.25723404
-0.10499553 -0.082820244 0.24340425
-0.10449888 -0.082820244 0.24340425
-0.10404768 -0.082856439 0.24351063
-0.10364128 -0.082928836 0.24372341
-0.10305393 -0.082856439 0.24351063
-0.10219862 -0.082566857 0.24265957
-0.10107926 -0.082060091 0.24117021
-0.10001034 -0.081589527 0.23978724
-0.041946214 -0.084883511 0.24946809
-0.041472521 -0.084955908 0.24968085
-0.040997963 -0.085028306 0.24989362
-0.04045359 -0.084955908 0.24968085
-0.039876048 -0.084811114 0.24925531
0.020937759 -0.088177495 0.25914893
0.021440107 -0.088068902 0.25882977
0.021923095 -0.087887913 0.25829786
0.022394666 -0.087670736 0.25765958
0.022882557 -0.087525941 0.25723404
-0.10499553 -0.082323588 0.24340425
-0.10449888 -0.082323588 0.24340425
-0.10400222 -0.082323588 0.24340425
-0.1035508 -0.082359567 0.24351063
-0.10296389 -0.08228761 0.24329787
-0.10215381 -0.082035743 0.24255319
-0.10116843 -0.081639953 0.24138297
-0.10040968 -0.081424072 0.24074468
-0.042310409 -0.084086634 0.24861702
-0.041820999 -0.084122613 0.2487234
-0.041331157 -0.084158592 0.24882978
-0.04085834 -0.084230557 0.24904256
-0.04036741 -0.084266536 0.24914894
-0.039842013 -0.084230557 0.24904256
0.020929165 -0.087612733 0.25904256
0.021422483 -0.08746881 0.25861701
0.021886978 -0.087216944 0.25787234
0.022366926 -0.087037042 0.25734043
-0.10490376 -0.0817554 0.2431915
-0.10445321 -0.081791162 0.24329787
-0.10395677 -0.081791162 0.24329787
-0.10350556 -0.081826925 0.24340425
-0.10291886 -0.0817554 0.2431915
-0.10219862 -0.081576578 0.24265957
-0.10134678 -0.081290476 0.2418085
-0.1006759 -0.081147417 0.24138297
-0.04220178 -0.083364755 0.24797872
-0.041695789 -0.083364755 0.24797872
-0.041225135 -0.083436288 0.24819149
-0.040771071 -0.083543576 0.24851064
-0.040315703 -0.083650865 0.24882978
-0.039842013 -0.083722398 0.24904256
0.020894784 -0.086941108 0.25861701
0.021387236 -0.086798057 0.2581915
0.02185086 -0.08654771 0.2574468
0.022339188 -0.086404659 0.25702128
-0.10481198 -0.081188083 0.24297872
-0.10431619 -0.081188083 0.24297872
-0.10386585 -0.081223629 0.2430851
-0.10346033 -0.081294723 0.24329787
-0.10291886 -0.081259176 0.2431915
-0.10224342 -0.081116989 0.24276596
-0.10148054 -0.080903709 0.24212766
-0.10080901 -0.080761522 0.24170212
-0.042111259 -0.08268103 0.24744681
-0.041624237 -0.082716577 0.24755318
-0.041172124 -0.082823217 0.24787234
-0.040718712 -0.082929857 0.24819149
-0.040246755 -0.083000951 0.24840425
-0.039773934 -0.083072044 0.24861702
0.020843215 -0.08620014 0.25797874
0.021343175 -0.0860935 0.25765958
0.021823775 -0.085915767 0.25712767
0.022320695 -0.085809126 0.25680852
-0.10472021 -0.080621637 0.24276596
-0.10422485 -0.080621637 0.24276596
-0.10377494 -0.080656968 0.24287234
-0.10336985 -0.080727622 0.2430851
-0.10282882 -0.080692291 0.24297872
-0.10215381 -0.080550976 0.24255319
-0.10134678 -0.080303669 0.2418085
-0.1006759 -0.080162354 0.24138297
-0.042056944 -0.082070135 0.24712765
-0.041588463 -0.082140796 0.24734043
-0.041136786 -0.082246788 0.24765958
-0.040683802 -0.082352772 0.24797872
-0.040212285 -0.082423434 0.24819149
0.020783048 -0.085426427 0.25723404
0.021299114 -0.085391104 0.25712767
0.021805715 -0.085320435 0.25691488
0.022320695 -0.085285112 0.25680852
0.02283524 -0.085249782 0.25670213
-0.10516945 -0.080091164 0.24265957
-0.10467431 -0.080091164 0.24265957
-0.1041335 -0.080056056 0.24255319
-0.10368403 -0.080091164 0.24265957
-0.10323413 -0.080126278 0.24276596
-0.10264874 -0.080056056 0.24255319
-0.10188499 -0.079845384 0.2419149
-0.10103467 -0.079564482 0.24106383
-0.10036531 -0.079424031 0.2406383
-0.042111259 -0.081671223 0.24744681
-0.041624237 -0.08170633 0.24755318
-0.041172124 -0.081811666 0.24787234
-0.040701259 -0.081881896 0.24808511
-0.040195048 -0.081881896 0.24808511
0.020740071 -0.084725991 0.25670213
0.021263864 -0.084725991 0.25670213
0.021787656 -0.084725991 0.25670213
0.022320695 -0.084761105 0.25680852
0.022844704 -0.084761105 0.25680852
-0.10498502 -0.079456449 0.24223404
-0.10453665 -0.079491347 0.24234043
-0.1041335 -0.079561129 0.24255319
-0.10368403 -0.079596028 0.24265957
-0.10318889 -0.079596028 0.24265957
-0.10246865 -0.07942155 0.24212766
-0.10161616 -0.079142392 0.24127659
-0.10076714 -0.078863226 0.24042553
-0.04268945 -0.081305891 0.24787234
-0.04220178 -0.08134079 0.24797872
-0.041731562 -0.081410579 0.24819149
-0.041260477 -0.081480369 0.24840425
-0.040788524 -0.081550159 0.24861702
-0.040281229 -0.081550159 0.24861702
0.0206885 -0.083992824 0.25606382
0.021219803 -0.084027722 0.25617021
0.021760568 -0.084097512 0.25638297
0.022302201 -0.084167302 0.25659573
0.022825776 -0.084167302 0.25659573
-0.10470838 -0.078754105 0.24159575
-0.10444486 -0.078927495 0.24212766
-0.10417917 -0.079100884 0.24265957
-0.1038204 -0.079204924 0.24297872
-0.10323413 -0.079135567 0.24276596
-0.10237861 -0.078858145 0.2419149
-0.10139214 -0.078476682 0.24074468
-0.10058879 -0.078233935 0.23999999
-0.042836025 -0.081077546 0.2487234
-0.042346615 -0.081112221 0.24882978
-0.041874662 -0.081181578 0.24904256
-0.041401841 -0.081250936 0.24925531
-0.040893242 -0.081250936 0.24925531
-0.04036741 -0.081216253 0.24914894
0.020662718 -0.083366305 0.2557447
0.021184556 -0.083366305 0.2557447
0.021724451 -0.083435662 0.25595745
0.02225597 -0.083470337 0.25606382
0.022787923 -0.08350502 0.25617021
-0.10457006 -0.078157753 0.24127659
-0.10444486 -0.078433447 0.24212766
-0.10436186 -0.078743592 0.2430851
-0.10400222 -0.078846976 0.24340425
-0.10336985 -0.078743592 0.2430851
-0.10237861 -0.078364521 0.2419149
-0.10130253 -0.077916533 0.24053192
-0.10045504 -0.077640839 0.23968086
-0.042872667 -0.08063896 0.24893618
-0.04240093 -0.080707878 0.24914894
-0.041946214 -0.080811262 0.24946809
-0.041454852 -0.080845721 0.24957447
-0.040928151 -0.080811262 0.24946809
-0.040384647 -0.080742337 0.24925531
0.020124121 -0.082775541 0.25553191
0.020645525 -0.082775541 0.25553191
0.02116693 -0.082775541 0.25553191
0.021688333 -0.082775541 0.25553191
0.022218985 -0.082810007 0.2556383
0.02275007 -0.082844473 0.2557447
0.023262227 -0.082810007 0.2556383
-0.10473812 -0.077425733 0.24053192
-0.10452396 -0.077631198 0.24117021
-0.10453665 -0.078007884 0.24234043
-0.10449888 -0.07835032 0.24340425
-0.10413859 -0.078453057 0.24372341
-0.10341509 -0.078281835 0.2431915
-0.10233358 -0.077836655 0.2418085
-0.10116812 -0.077322997 0.24021277
-0.10032127 -0.077049047 0.2393617
-0.042781059 -0.079959787 0.24840425
-0.042328514 -0.080062523 0.2487234
-0.041892551 -0.080199495 0.24914894
-0.041401841 -0.080233738 0.24925531
-0.04085834 -0.080165252 0.24904256
-0.040315703 -0.080096766 0.24882978
0.020115744 -0.082219899 0.25542554
0.020645525 -0.082254134 0.25553191
0.02116693 -0.082254134 0.25553191
0.021688333 -0.082254134 0.25553191
0.022200493 -0.082219899 0.25542554
0.022712216 -0.082185648 0.25531915
0.023223504 -0.082151406 0.25521275
-0.10469179 -0.076900907 0.24042553
-0.10457006 -0.077173121 0.24127659
-0.10458253 -0.077547424 0.24244681
-0.10449888 -0.077853665 0.24340425
-0.10409313 -0.077921718 0.24361703
-0.10327937 -0.077683531 0.24287234
-0.10215349 -0.077207148 0.24138297
-0.1009889 -0.076696746 0.23978724
-0.10009834 -0.076390505 0.23882979
-0.042634483 -0.07918071 0.24755318
-0.04220178 -0.079316817 0.24797872
-0.041767336 -0.079452924 0.24840425
-0.04127815 -0.079486959 0.24851064
-0.040753618 -0.079452924 0.24840425
0.020098986 -0.081630647 0.25521275
0.020645525 -0.081732735 0.25553191
0.021175742 -0.081766762 0.2556383
0.021688333 -0.081732735 0.25553191
0.022181999 -0.081630647 0.25521275
0.022683825 -0.081562601 0.255
0.023184784 -0.081494547 0.25478724
-0.10469179 -0.076410323 0.24042553
-0.10447785 -0.076613188 0.24106383
-0.10435309 -0.076883666 0.2419149
-0.1041335 -0.077086523 0.24255319
-0.10368403 -0.077120334 0.24265957
-0.10287223 -0.076883666 0.2419149
-0.10179333 -0.076444142 0.24053192
-0.10058566 -0.075903177 0.23882979
-0.099697053 -0.075598896 0.23787235
-0.042524558 -0.078472726 0.24691489
-0.042093154 -0.078607969 0.24734043
-0.041660015 -0.078743212 0.24776596
-0.041189793 -0.078810826 0.24797872
