# .PCD v0.7 - Point Cloud Data file format
VERSION 0.7
FIELDS x y z
SIZE 4 4 4
TYPE F F F
COUNT 1 1 1
WIDTH 1311
HEIGHT 1
VIEWPOINT 0 0 0 1 0 0 0
POINTS 1311
DATA ascii
0.18918453 -0.015228744 0.30637991
0.18921077 -0.015070068 0.3059949
0.18923552 -0.014942785 0.30563593
0.18928476 -0.014787256 0.30529973
0.18934406 -0.014443652 0.30462143
0.18951109 -0.014363377 0.30388418
0.18964247 -0.01417991 0.30316025
0.18962589 -0.013832979 0.30280945
0.18965423 -0.013633533 0.30248618
0.18975562 -0.013730266 0.30208725
0.18982969 -0.013865325 0.30169395
0.18986642 -0.013974512 0.30164519
0.18988566 -0.014000718 0.30159986
-0.074029855 -0.011102776 0.22402759
-0.073973566 -0.011928321 0.22432819
-0.073738448 -0.012649275 0.22472887
-0.073451385 -0.013089022 0.22510219
-0.073169246 -0.013388134 0.22541474
-0.073037267 -0.013381437 0.22547199
-0.072881348 -0.013434643 0.2255677
-0.072758608 -0.013376038 0.22560672
-0.072599031 -0.01333794 0.22569168
-0.07242313 -0.013297091 0.22576477
-0.057636775 -0.013427604 0.23697801
-0.057225458 -0.013296834 0.23720597
-0.056849435 -0.013170941 0.23741545
-0.056533534 -0.013068781 0.23758796
-0.05612893 -0.012955802 0.23780762
-0.055749897 -0.012836112 0.23802455
-0.055391643 -0.012723064 0.23823525
-0.055017851 -0.012586286 0.23846419
-0.054561835 -0.012433539 0.23874009
-0.05416213 -0.012302848 0.23898028
-0.053778093 -0.012185531 0.23921128
-0.053470824 -0.012096341 0.23939487
-0.053120296 -0.011989662 0.23959894
-0.05271782 -0.011879141 0.23981351
-0.052364301 -0.011767178 0.24001051
-0.051988158 -0.011643442 0.24021579
-0.051652029 -0.011526855 0.24039511
-0.051315196 -0.011413983 0.24057472
-0.051039916 -0.01131662 0.24071902
-0.05074133 -0.011218446 0.24087892
-0.050395735 -0.01110356 0.24106129
-0.049932435 -0.010956292 0.24129793
-0.049456272 -0.010796506 0.24154608
-0.049125537 -0.010694481 0.24171238
-0.048818879 -0.010586328 0.2418694
-0.048549756 -0.010498938 0.24200481
-0.048093084 -0.01034057 0.24226055
-0.047724072 -0.010217713 0.24248339
-0.047246579 -0.010040265 0.24279681
0.03531792 -0.016321279 0.30638465
0.035342492 -0.016481552 0.30646577
0.035375431 -0.016718611 0.30659136
0.035429496 -0.016959831 0.30671653
0.035429489 -0.016959831 0.3067165
0.035429489 -0.016959826 0.30671647
0.18737023 -0.015592576 0.31318182
0.18744195 -0.014726067 0.31150365
0.18746628 -0.014224978 0.3108421
0.18759798 -0.014100312 0.31034362
0.18776523 -0.014329087 0.3101429
0.18789606 -0.014675306 0.31027016
0.18814875 -0.015234062 0.31037143
0.18836251 -0.015471033 0.31015757
0.188485 -0.015230118 0.30940592
0.1887399 -0.014972772 0.30805367
0.18895665 -0.014760696 0.30680016
0.18902045 -0.014608507 0.30622959
0.18906797 -0.014520016 0.30581889
0.18910854 -0.014443201 0.30550012
0.18914558 -0.014157008 0.3050732
0.18920703 -0.013780722 0.30434757
0.18938956 -0.013609294 0.30347359
0.18950132 -0.013414019 0.30277649
0.1894789 -0.013099059 0.30247504
0.18956883 -0.012952507 0.30190745
0.18967117 -0.013009937 0.30116525
0.1896946 -0.012850814 0.30070645
0.18970306 -0.012852926 0.30066779
0.18975672 -0.013044285 0.30069479
-0.073978946 -0.010885514 0.22405198
-0.073878661 -0.01153475 0.22434576
-0.073668972 -0.012167959 0.2246975
-0.073429331 -0.01258919 0.22502044
-0.073196277 -0.012876638 0.22527196
-0.073047318 -0.012847706 0.22535385
-0.072960109 -0.012797855 0.22538313
-0.07286077 -0.012523001 0.22534944
-0.072682261 -0.012385961 0.22538708
-0.056273274 -0.012988377 0.23773462
-0.055836711 -0.012846422 0.23798202
-0.055515919 -0.012750625 0.23816937
-0.055143077 -0.012620502 0.23839605
-0.054766376 -0.012494463 0.23862356
-0.05434785 -0.012354259 0.23887573
-0.053985987 -0.012234704 0.2390912
-0.053639289 -0.012128565 0.23929539
-0.053330865 -0.012041134 0.23947933
-0.052995805 -0.011949478 0.23966871
-0.052639831 -0.011843952 0.23986231
-0.052284312 -0.011728847 0.24005531
-0.051862039 -0.011593491 0.24027847
-0.051529106 -0.011474594 0.24045996
-0.051169273 -0.011351515 0.24065037
-0.050887801 -0.011264333 0.24080002
-0.050587635 -0.011163185 0.24096309
-0.050215553 -0.011043333 0.24115776
-0.049824655 -0.010916655 0.24135335
-0.049409419 -0.010778842 0.2415631
-0.049010806 -0.010647852 0.24177471
-0.04868637 -0.01053475 0.24194692
-0.048306495 -0.010410486 0.24215035
-0.047870245 -0.010261105 0.24240759
-0.0473793 -0.010070395 0.24272281
-0.046987884 -0.0099313194 0.24297951
-0.046522893 -0.0097884974 0.24327986
0.03528022 -0.015163792 0.30596519
0.035293043 -0.015266029 0.30597562
0.035324194 -0.015494587 0.3060993
0.035350867 -0.016036313 0.30641466
0.035421398 -0.016586974 0.30668297
0.03546853 -0.016842283 0.30686322
0.18703784 -0.015097012 0.3138077
0.18715926 -0.015221619 0.31370074
0.18697047 -0.014490757 0.31270894
0.18707597 -0.013626071 0.31129467
0.18720914 -0.01345796 0.31078342
0.1873527 -0.013422982 0.31031772
0.18747392 -0.013540015 0.31013668
0.18765461 -0.013926534 0.3101427
0.18782644 -0.014255835 0.31019095
0.1880423 -0.014464783 0.30991083
0.18825579 -0.014354932 0.30904549
0.18858753 -0.014177298 0.30766103
0.18879145 -0.014101529 0.30661529
0.18889105 -0.014071605 0.30611819
0.18893813 -0.014032056 0.30574244
0.18898119 -0.013993859 0.30547175
0.18903232 -0.013739437 0.30502659
0.18908931 -0.013250261 0.30422837
0.18919039 -0.012918204 0.30346468
0.18935691 -0.012764594 0.30261046
0.18937796 -0.012543043 0.30225119
0.18940073 -0.01225341 0.30180064
0.18950096 -0.012200865 0.30084154
0.18952212 -0.012082958 0.30041489
0.18954542 -0.012114109 0.30034584
0.18957882 -0.012211924 0.30031076
-0.073937193 -0.010612392 0.22404233
-0.073805295 -0.011055033 0.22428924
-0.073640637 -0.011694511 0.22462462
-0.073440254 -0.012061781 0.22490296
-0.073229954 -0.012259064 0.22511436
-0.073084719 -0.012294095 0.22522487
-0.072993979 -0.012111365 0.22521637
-0.072945222 -0.011705718 0.22504695
-0.07290934 -0.011362807 0.22494449
-0.055228822 -0.012640511 0.2383564
-0.054834295 -0.012503868 0.23859155
-0.054432403 -0.012371247 0.23882873
-0.054151233 -0.01228103 0.23899837
-0.053868558 -0.012190651 0.23916768
-0.05353928 -0.01209879 0.23936017
-0.053212084 -0.011992189 0.23955403
-0.052893464 -0.011915547 0.2397283
-0.052495394 -0.011794686 0.23994386
-0.052097652 -0.011664015 0.24016015
-0.051738694 -0.011548318 0.24034823
-0.051380686 -0.011425384 0.24053872
-0.051042736 -0.011310221 0.24072039
-0.050742272 -0.011209129 0.24088016
-0.050458483 -0.011117733 0.24102673
-0.050109439 -0.011002253 0.24120568
-0.049735721 -0.010876722 0.24139062
-0.049297377 -0.010730999 0.24162863
-0.048968393 -0.010624766 0.24179614
-0.048569925 -0.010490675 0.24201234
-0.048072129 -0.010313795 0.24228865
-0.047618974 -0.010146662 0.24257635
-0.047225434 -0.010007987 0.24283433
-0.046856925 -0.0098903198 0.24306732
-0.046345398 -0.0097147916 0.2434105
-0.046015438 -0.009600345 0.24362825
-0.045657247 -0.0094826557 0.24386773
-0.045544077 -0.0094435513 0.24393781
-0.045403313 -0.0094152652 0.24400423
0.035262395 -0.014625931 0.3058494
0.035282012 -0.014783276 0.30588835
0.035285853 -0.014834891 0.30588755
0.035283219 -0.014847226 0.30593839
0.035314761 -0.015178633 0.3060953
0.1863614 -0.013665173 0.31349197
0.18641566 -0.013610861 0.31326973
0.18656395 -0.013758074 0.31303546
0.1866229 -0.013263863 0.31223062
0.18684453 -0.012875752 0.31115425
0.1869975 -0.012840493 0.31072292
0.18711464 -0.012745641 0.31029388
0.18725137 -0.012843902 0.31001708
0.18738754 -0.013110339 0.30997911
0.18755549 -0.013447193 0.31001374
0.18777412 -0.013599694 0.30966628
0.18806167 -0.0135467 0.30872393
0.1884089 -0.013390622 0.30735859
0.18862706 -0.013459411 0.30647665
0.18874691 -0.013531241 0.30605724
0.18880282 -0.013565812 0.30581352
0.18883841 -0.013573197 0.30560341
0.18890479 -0.01346833 0.30520472
0.18893786 -0.012958045 0.3044844
0.18901372 -0.012576653 0.30379111
0.18921001 -0.012395181 0.30286071
0.18925992 -0.0121976 0.30235556
0.18926637 -0.011914792 0.30195883
0.18932593 -0.011738863 0.30146852
0.1894054 -0.011706182 0.30067149
0.18942627 -0.011660186 0.30034196
0.18946657 -0.011752144 0.3001897
-0.073845878 -0.010148998 0.22395827
-0.073727451 -0.010475664 0.22417819
-0.07361576 -0.011023947 0.22446167
-0.073416404 -0.011438508 0.22475839
-0.073254317 -0.011659252 0.22495165
-0.073111534 -0.011678114 0.22505417
-0.073012762 -0.011559225 0.22505958
-0.072942466 -0.011204464 0.22493693
-0.054276686 -0.012314531 0.23893
-0.053972792 -0.012213849 0.23910728
-0.053749137 -0.012147863 0.23924275
-0.053462107 -0.012063541 0.23940976
-0.053151026 -0.011975145 0.23959231
-0.052669652 -0.011839704 0.23986059
-0.052229311 -0.011701521 0.240097
-0.051892444 -0.011590503 0.24027142
-0.051490787 -0.011452303 0.24048102
-0.051152557 -0.011338486 0.24065898
-0.050875131 -0.011242792 0.24080986
-0.050616246 -0.011161388 0.24094932
-0.050354764 -0.011074088 0.2410865
-0.049984556 -0.010944399 0.24126473
-0.049589738 -0.010817343 0.2414677
-0.049234889 -0.010699356 0.24164876
-0.048842385 -0.010563 0.24185948
-0.048423674 -0.010421016 0.24209175
-0.047981761 -0.010277462 0.2423459
-0.047551017 -0.010116934 0.24261886
-0.047058165 -0.0099253217 0.24295624
-0.04665998 -0.0097978273 0.24320406
-0.046192288 -0.0096416315 0.24351929
-0.045844574 -0.0095159002 0.24375756
-0.045544077 -0.0094323223 0.2439433
-0.045419198 -0.0093790116 0.24403052
-0.045164898 -0.0093077645 0.24418315
-0.04479298 -0.0091645615 0.24442214
-0.044332672 -0.0090044867 0.24469779
0.035225458 -0.014035136 0.30569333
0.035225686 -0.014087917 0.30569109
0.035238191 -0.014137118 0.30569899
0.035256401 -0.014240963 0.30573043
0.035276208 -0.014478887 0.30588645
0.18494262 -0.011841711 0.31437036
0.18581682 -0.012317803 0.31313425
0.18596503 -0.01236208 0.31285819
0.18612555 -0.012492999 0.3126238
0.18633321 -0.012444051 0.31208348
0.18660975 -0.012341645 0.31127816
0.18676947 -0.012170883 0.31070986
0.18689834 -0.012079541 0.31023622
0.18703653 -0.012219237 0.30995348
0.18718556 -0.012455494 0.30985081
0.18732457 -0.01266907 0.30979538
0.18755072 -0.012791972 0.30943689
0.1878992 -0.012822983 0.30847526
0.18822408 -0.012753649 0.30732781
0.18843952 -0.0128615 0.30655238
0.18856739 -0.012952989 0.30616271
0.18863201 -0.01304964 0.30605975
0.18869166 -0.013172233 0.30591568
0.18875961 -0.01309961 0.3054195
0.18880972 -0.012829317 0.30492613
0.18885991 -0.01245979 0.30428833
0.18894131 -0.012092689 0.30353755
0.18914217 -0.012006326 0.30274716
0.18915989 -0.011690557 0.30218476
0.18918648 -0.011473622 0.30180687
0.18924005 -0.011222575 0.30113524
0.1893003 -0.011206922 0.30044967
0.18933819 -0.011159012 0.30013943
-0.073770896 -0.0094912527 0.2237777
-0.073669948 -0.0099395569 0.22405802
-0.073557943 -0.010448673 0.22434115
-0.073397137 -0.010809221 0.22458015
-0.07325197 -0.010961738 0.22474235
-0.073110379 -0.011040249 0.22485171
-0.072999872 -0.010986263 0.22489473
-0.072941951 -0.010817598 0.22485675
-0.053691979 -0.012124629 0.23928066
-0.053379167 -0.012043949 0.239462
-0.053050485 -0.011943514 0.23965435
-0.052547954 -0.011793364 0.23992945
-0.052005395 -0.011615725 0.2402218
-0.051583663 -0.01147859 0.24044318
-0.051180746 -0.011343272 0.24064894
-0.050901365 -0.011254001 0.24079622
-0.050620008 -0.011157476 0.2409445
-0.050494205 -0.011107535 0.24101391
-0.050228652 -0.011026768 0.24114662
-0.049877964 -0.010902924 0.24130994
-0.049481586 -0.010776702 0.24151069
-0.049130637 -0.010658556 0.24168999
-0.048735801 -0.010519721 0.24190785
-0.04833506 -0.010386749 0.24214147
-0.047943555 -0.010244527 0.24238016
-0.047453038 -0.010058754 0.2426919
-0.047033455 -0.0099170823 0.24297145
-0.046553452 -0.0097348364 0.24329112
-0.046088938 -0.0095852129 0.24360161
-0.045753349 -0.0094757602 0.24381666
-0.045443557 -0.0093770111 0.24402283
-0.045147922 -0.0092610968 0.24421029
-0.044857726 -0.0091710035 0.24439962
-0.044428524 -0.0090118479 0.24466018
-0.044028386 -0.0088832192 0.244885
-0.043533802 -0.0087229963 0.24516919
-0.043009985 -0.0085636573 0.24547125
-0.04236925 -0.0083571775 0.24585859
-0.041911174 -0.0082131717 0.24615203
0.035078522 -0.013213788 0.30536121
0.034979224 -0.012828814 0.30518162
0.034907848 -0.012425965 0.30491981
0.035063218 -0.013115765 0.30529723
0.18459642 -0.010816634 0.31390551
0.18484908 -0.011111648 0.3138293
0.18499763 -0.011297557 0.31377429
0.18519023 -0.01165306 0.31378934
0.18596244 -0.011833848 0.31242666
0.18612717 -0.011843187 0.31206945
0.18639578 -0.011786852 0.31132239
0.1865954 -0.011520702 0.31055251
0.18674421 -0.011484737 0.31008714
0.18687637 -0.011498916 0.3096934
0.18700047 -0.011754998 0.30960569
0.18712376 -0.011911806 0.30955055
0.18739247 -0.012037819 0.30914783
0.18774146 -0.01213747 0.30825529
0.18803926 -0.012146967 0.30734506
0.18821624 -0.012266345 0.30680996
0.18835048 -0.012407191 0.30645484
0.18845616 -0.012568721 0.30629084
0.18854338 -0.012715019 0.30609968
0.18861189 -0.012675433 0.30572277
0.18868385 -0.012558463 0.30513519
0.18873194 -0.012282758 0.30465007
0.1887891 -0.011938377 0.30398941
0.18886366 -0.011623578 0.30336055
0.18904491 -0.011533614 0.30260828
0.18908599 -0.011369818 0.30214775
0.18911767 -0.011015715 0.30154884
0.18917501 -0.010834783 0.30075666
0.18924256 -0.010854099 0.30020919
-0.12064061 -0.0073281163 0.31810302
-0.12031003 -0.007341323 0.31802183
-0.11985654 -0.0073814453 0.31794906
-0.11945053 -0.0073191701 0.31784973
-0.11903264 -0.0073602074 0.31777951
-0.073736697 -0.0088877641 0.22357391
-0.073599428 -0.0094594946 0.22392146
-0.073527187 -0.0099924402 0.22420971
-0.07337372 -0.010163729 0.22437766
-0.073291056 -0.010209709 0.224446
-0.073184125 -0.010184609 0.22449142
-0.073078617 -0.010258244 0.22458769
-0.073032938 -0.010189261 0.22459754
-0.052367549 -0.011721537 0.24003157
-0.051822696 -0.011546283 0.24031961
-0.051276457 -0.011365703 0.24061014
-0.050916363 -0.011243732 0.24079099
-0.050676096 -0.01116308 0.2409161
-0.05041327 -0.011073489 0.241051
-0.050296865 -0.011044302 0.24111176
-0.050085891 -0.010958171 0.24120925
-0.049730938 -0.01084468 0.24138615
-0.049334556 -0.01071413 0.24158825
-0.048918311 -0.010569259 0.24181186
-0.04850075 -0.010426127 0.24204388
-0.048147142 -0.01030905 0.24224947
-0.04779686 -0.010184263 0.24247107
-0.047414251 -0.010038144 0.24271712
-0.04701452 -0.0099042337 0.24298303
-0.046558131 -0.0097318413 0.24328902
-0.046044797 -0.0095625026 0.24362767
-0.045687482 -0.0094481809 0.24385904
-0.045282863 -0.0093105435 0.24412695
-0.044906568 -0.0091581829 0.24437633
-0.044565525 -0.009040283 0.24458435
-0.044165336 -0.0089215031 0.24481671
-0.043720115 -0.0087736761 0.2450704
-0.043294795 -0.0086380532 0.2453139
-0.042797487 -0.008478201 0.24560347
-0.04231783 -0.0083299894 0.24589814
-0.041885387 -0.008204869 0.24616851
-0.041471198 -0.008077506 0.24643591
-0.041059308 -0.0079299184 0.24669899
-0.040723085 -0.0077900295 0.24691807
-0.040251631 -0.0076311259 0.24722792
-0.039778527 -0.0074773626 0.24755819
0.034931514 -0.012433982 0.30510738
0.034787927 -0.010878121 0.3042407
0.034744486 -0.0097900201 0.30358353
0.034739196 -0.0095633175 0.30346489
0.18449399 -0.010260746 0.31366009
0.18476832 -0.010490539 0.31350377
0.18488295 -0.010636119 0.31347635
0.18509999 -0.011022364 0.31346875
0.18651061 -0.010867037 0.31012827
0.18664686 -0.010855849 0.30972722
0.18676467 -0.010978385 0.30950508
0.18686405 -0.011172818 0.30944917
0.1869954 -0.011311044 0.30932641
0.1872351 -0.011452291 0.30901247
0.18756278 -0.011519279 0.3081764
0.18786854 -0.011625594 0.30736801
0.1880268 -0.011659391 0.30689019
0.18815976 -0.011860194 0.3066639
0.18825363 -0.011943541 0.30644301
0.18838266 -0.012099709 0.30611637
0.18847129 -0.012073858 0.30563784
0.18854892 -0.01187825 0.30493593
0.18861687 -0.011685945 0.30444273
0.18867305 -0.011515805 0.30400497
0.18873274 -0.011286871 0.30348429
0.1888265 -0.011188794 0.30306843
0.18896115 -0.011018819 0.30230966
0.18900117 -0.010841893 0.30185112
0.18902773 -0.010452535 0.30116484
-0.12048434 -0.0068877833 0.31792283
-0.12021414 -0.0069770282 0.31789181
-0.11982796 -0.0069610528 0.31781325
-0.11940067 -0.0070024729 0.31773117
-0.11902937 -0.0069968803 0.31767282
-0.11662568 -0.006875813 0.31734377
-0.11630736 -0.006952072 0.31731039
-0.1160657 -0.0070209811 0.31728616
-0.11546052 -0.0069031697 0.31720498
-0.11510564 -0.0069242804 0.31717226
-0.073818348 -0.0075850817 0.22297211
-0.073740661 -0.0081121763 0.22324389
-0.073579468 -0.0089131081 0.22371031
-0.073499091 -0.0095366491 0.22405721
-0.073397502 -0.0095666684 0.2241208
-0.073317029 -0.00947149 0.22414789
-0.073284552 -0.0094026225 0.22412916
-0.073245369 -0.0093135796 0.22411662
-0.073204853 -0.0093028145 0.22413549
-0.050489258 -0.011096596 0.24101067
-0.050330814 -0.011043974 0.2410897
-0.050154675 -0.010979999 0.24116898
-0.049980097 -0.010916183 0.24125645
-0.049581673 -0.010791382 0.24145626
-0.04920749 -0.010664475 0.24164669
-0.048688494 -0.010467774 0.24193764
-0.048251364 -0.010318297 0.24220301
-0.047875647 -0.010188979 0.24242546
-0.047545705 -0.010079991 0.24263521
-0.04729097 -0.0099847429 0.24280709
-0.046890244 -0.0098424889 0.2430757
-0.046517562 -0.0097077657 0.24331999
-0.045979403 -0.0095368605 0.24367124
-0.045555249 -0.0093857218 0.24394956
-0.045129012 -0.009230963 0.24422958
-0.044678256 -0.0090740761 0.24451594
-0.044354878 -0.0089627719 0.24470802
-0.043983392 -0.0088481363 0.24492535
-0.043557368 -0.0087130321 0.24516797
-0.043155573 -0.0085837953 0.24540031
-0.042704832 -0.0084342137 0.24566333
-0.042250384 -0.0082951719 0.24594423
-0.041840937 -0.0081764525 0.24619934
-0.041381255 -0.0080230692 0.24649784
-0.040917266 -0.0078614978 0.24679974
-0.040551234 -0.0077258968 0.24704519
-0.040155564 -0.0075872513 0.24730039
-0.039606709 -0.0074048322 0.24768512
-0.038923752 -0.0072125723 0.24816665
-0.038061455 -0.0069482429 0.24879852
0.03490629 -0.012084658 0.30506217
0.034804352 -0.011495347 0.30473888
0.034705821 -0.0095950346 0.30361795
0.034642976 -0.0090847006 0.30328825
0.034644142 -0.0089015588 0.3031486
0.18438327 -0.0097640809 0.31344169
0.18467499 -0.010038691 0.3133212
0.18477109 -0.010171569 0.31331816
0.18496808 -0.010381637 0.31321031
0.18505478 -0.010557426 0.31320453
0.1864707 -0.010091662 0.30944297
0.18657042 -0.010255883 0.3093583
0.1866404 -0.01041015 0.30933595
0.18674643 -0.010617102 0.30929375
0.18685378 -0.010795578 0.30922121
0.18711966 -0.010892318 0.30883369
0.18743454 -0.010934269 0.30789939
0.18772107 -0.01104155 0.30717954
0.1878752 -0.01112487 0.30685356
0.18798497 -0.011299104 0.30664182
0.18809341 -0.011388971 0.3064023
0.18822028 -0.011374482 0.30592179
0.1883375 -0.011354092 0.30526298
0.18842383 -0.011104677 0.30455872
0.18848202 -0.010916522 0.30407202
0.18854894 -0.010862536 0.30371588
0.18860711 -0.010857807 0.30346087
0.18867014 -0.010849755 0.30322665
0.18880406 -0.010773149 0.30271679
0.18887578 -0.010639418 0.30221474
0.18891875 -0.010475379 0.30178273
-0.12027474 -0.0065486156 0.31775799
-0.12000641 -0.006604726 0.31771684
-0.11962287 -0.0066089625 0.31764007
-0.11932404 -0.006660657 0.31760907
-0.11895369 -0.0067041544 0.31756184
-0.11666967 -0.0065574264 0.3172929
-0.11634333 -0.0065999115 0.31726053
-0.11596509 -0.0065739658 0.31721079
-0.11546145 -0.0065659205 0.31715131
-0.11505233 -0.0065125935 0.31709293
-0.11472519 -0.006569454 0.31705201
-0.073874876 -0.0068783825 0.22265315
-0.073814318 -0.0073845345 0.22289926
-0.073661275 -0.0081766993 0.22335176
-0.073515192 -0.0087167211 0.22368711
-0.073434308 -0.0088964514 0.22383113
-0.073407009 -0.0088167042 0.22381666
-0.073418148 -0.0086485026 0.22373846
-0.073415235 -0.0084773265 0.22365914
-0.073395893 -0.0084450785 0.22365955
-0.049853772 -0.010873843 0.24130715
-0.04943594 -0.010737719 0.24151741
-0.04895683 -0.0105587 0.24178304
-0.048428249 -0.010386795 0.24207629
-0.048007209 -0.010214541 0.24234217
-0.047653027 -0.010091992 0.24257241
-0.047442891 -0.010037149 0.24270169
-0.047164511 -0.0099290321 0.24289016
-0.046771344 -0.0097877895 0.2431609
-0.04641562 -0.0096555492 0.24339448
-0.045901395 -0.0094926888 0.24373174
-0.04536406 -0.0092977444 0.24408382
-0.044867381 -0.0091225132 0.2444029
-0.044495407 -0.0090082008 0.24462411
-0.044193566 -0.0089035351 0.24480794
-0.043793652 -0.008783374 0.24503918
-0.04339226 -0.0086563956 0.24527051
-0.043021981 -0.0085175736 0.24548803
-0.042618111 -0.0083858883 0.24572363
-0.042177901 -0.0082652606 0.24599101
-0.041696038 -0.0081192171 0.24629639
-0.041236296 -0.0079630418 0.24659698
-0.040802263 -0.0077973879 0.24688204
-0.040307723 -0.0076310756 0.24721517
-0.039885662 -0.0074860505 0.24750593
-0.039434403 -0.0073371641 0.24781159
-0.038724571 -0.0071451343 0.24832669
-0.037944138 -0.0068859737 0.24889596
-0.037258487 -0.0066645788 0.24940088
-0.036684856 -0.006442457 0.24982625
0.034725826 -0.010547803 0.30433044
0.034662195 -0.0095409481 0.30370793
0.03461723 -0.0089965304 0.30337039
0.034578975 -0.0086503569 0.30314595
0.034595557 -0.008700056 0.30313715
0.18429288 -0.00934471 0.31331825
0.18452831 -0.0095164077 0.31315622
0.18473189 -0.0096974261 0.31304118
0.18487085 -0.0098591177 0.31298393
0.18496147 -0.010050921 0.31298748
0.18637547 -0.0096326182 0.30937013
0.1864641 -0.0097894827 0.3092598
0.18651651 -0.0099742794 0.30931863
0.18659253 -0.010149059 0.30929869
0.18668948 -0.010277383 0.30922386
0.18759325 -0.010327895 0.30678734
0.18770839 -0.010442772 0.30658546
0.18782248 -0.010625682 0.30642939
0.18794268 -0.010743561 0.30621889
0.18807709 -0.010760522 0.30574223
0.18820828 -0.010629774 0.30492753
0.18828396 -0.010293605 0.30415419
0.18835485 -0.01018436 0.30365261
0.18841031 -0.010117967 0.30333522
0.18847372 -0.01028667 0.30329302
0.18853804 -0.010332169 0.30313021
0.18863983 -0.010419595 0.30292204
0.18876238 -0.010499474 0.30257368
0.18884324 -0.010592183 0.30234605
-0.12022096 -0.0061170296 0.31759629
-0.11983284 -0.0062401015 0.3175562
-0.11957465 -0.0062617869 0.31751445
-0.11924805 -0.0063303458 0.3174814
-0.11692308 -0.0061841276 0.31725407
-0.1167023 -0.0062360358 0.31724057
-0.11635021 -0.0062189046 0.31720802
-0.1160456 -0.0062577655 0.31717741
-0.11552368 -0.0062337187 0.31711587
-0.11502541 -0.0061583021 0.31703848
-0.11475633 -0.0061855461 0.31700271
-0.11435197 -0.0062430557 0.31692639
-0.073927991 -0.0062895063 0.2224095
-0.073887631 -0.0065976279 0.22256283
-0.073773153 -0.0073323254 0.22294016
-0.073620543 -0.0079236338 0.22328603
-0.07354404 -0.0081090974 0.22343402
-0.073543601 -0.0080589252 0.2234138
-0.073569335 -0.0077184369 0.22324902
-0.073565014 -0.0076430347 0.2232157
-0.047555137 -0.010041334 0.2426407
-0.047330711 -0.0099777533 0.24278481
-0.047064211 -0.0098889591 0.2429571
-0.046643641 -0.009745826 0.24324591
-0.046195928 -0.0095724752 0.2435378
-0.045637969 -0.0093822852 0.243902
-0.04505102 -0.0091825584 0.24428526
-0.044637665 -0.0090397941 0.24454251
-0.044341963 -0.0089431666 0.24472144
-0.044037927 -0.0088430913 0.24489836
-0.043660518 -0.0087260203 0.24511638
-0.043191336 -0.008566888 0.24539149
-0.042740081 -0.0084145879 0.24566403
-0.042431433 -0.0083148405 0.24584393
-0.041916143 -0.0081752865 0.24615912
-0.041504402 -0.0080464752 0.24642429
-0.041068546 -0.0078935716 0.24670969
-0.040606234 -0.0077260481 0.24701636
-0.040160071 -0.0075730663 0.24732086
-0.039734531 -0.0074387291 0.24761268
-0.039180994 -0.0072728386 0.2480005
-0.038678866 -0.0071163638 0.24836327
-0.037997294 -0.0068972674 0.24886157
-0.037407171 -0.0067188363 0.24928962
-0.036858872 -0.0065045049 0.24968755
-0.036327563 -0.0063123512 0.25004753
-0.035866618 -0.0061633782 0.25035179
-0.03547645 -0.0060491003 0.25059822
-0.035170071 -0.0059492607 0.25080347
-0.034834661 -0.0058443667 0.25102174
-0.034337014 -0.0057124603 0.2513431
0.034549948 -0.008667306 0.30330998
0.034543514 -0.0086166998 0.30329412
0.034522515 -0.0082886443 0.3030954
0.034547102 -0.0083914772 0.30308944
0.034547102 -0.0083914772 0.30308941
0.18420717 -0.0088957259 0.31310961
0.18442139 -0.0090526445 0.31296012
0.18465941 -0.009240306 0.31280038
0.18479045 -0.0094194617 0.3127951
0.18488756 -0.0096027162 0.31279761
0.18496951 -0.0097950008 0.31279641
0.18626522 -0.0092209382 0.30933505
0.18635534 -0.0093300566 0.30920985
0.18642649 -0.0095096007 0.30917436
0.18650439 -0.0096292859 0.30911875
0.18661042 -0.0096835056 0.30886561
0.18719554 -0.0095105907 0.30710796
0.18741143 -0.0096592354 0.30665705
0.18754902 -0.0098076267 0.30641091
0.18766712 -0.0099417623 0.30618489
0.18778583 -0.010059851 0.30599838
0.18791629 -0.010123322 0.30564675
0.18805523 -0.009912692 0.30464351
0.18813999 -0.0096622575 0.30393457
0.18821928 -0.0094977841 0.30332425
0.18828818 -0.0094768023 0.30299789
0.18837327 -0.0096805217 0.30295286
0.18844445 -0.0098587619 0.30298054
0.18852137 -0.010081047 0.3030048
0.18862998 -0.010144403 0.30274072
0.18871656 -0.010171531 0.30245346
-0.1201931 -0.0057260385 0.31746316
-0.11976637 -0.0058479398 0.31741998
-0.11943974 -0.005897515 0.31737486
-0.11917567 -0.0059959651 0.31736481
-0.11721993 -0.005800263 0.3171922
-0.11705579 -0.005805267 0.3171953
-0.11691742 -0.0058470671 0.31719726
-0.11672024 -0.0058429302 0.31718355
-0.1164246 -0.0059052459 0.31716952
-0.11606655 -0.0059265704 0.31713727
-0.11559745 -0.0058896407 0.31708235
-0.11506902 -0.0058378503 0.31700096
-0.11468334 -0.0058029587 0.31693926
-0.11434354 -0.0058467686 0.3168723
-0.11422604 -0.0060185771 0.31688425
-0.073974632 -0.0058052819 0.22221555
-0.073940158 -0.0060098567 0.22232021
-0.073886909 -0.0065395287 0.22254343
-0.073786907 -0.0069593787 0.22279972
-0.073723167 -0.0070715006 0.22290206
-0.073694848 -0.0071023759 0.22293836
-0.073721066 -0.0069791847 0.22285694
-0.073701672 -0.0069170306 0.22284228
-0.047005408 -0.0098632183 0.24299791
-0.04654232 -0.0096944142 0.24332279
-0.045981709 -0.0094828214 0.24368207
-0.045399077 -0.009289952 0.24406175
-0.04487313 -0.0091086924 0.24439603
-0.044458762 -0.0089761913 0.24465068
-0.044181682 -0.0088761514 0.24481285
-0.043859527 -0.0087721534 0.24500044
-0.043486942 -0.0086376593 0.24522667
-0.042941082 -0.0084667113 0.24554498
-0.042510424 -0.0083228648 0.24580656
-0.042020511 -0.008182087 0.24610099
-0.041631799 -0.0080634607 0.24634479
-0.04126792 -0.007943741 0.24658121
-0.040830806 -0.0077901757 0.24687275
-0.040364925 -0.0076257335 0.24718887
-0.039992582 -0.0074948003 0.24744213
-0.039566003 -0.0073595955 0.24774124
-0.039033167 -0.0072127851 0.24810851
-0.038604133 -0.0070841881 0.24841785
-0.038173936 -0.0069558877 0.24873692
-0.03774425 -0.0068162582 0.2490533
-0.037000053 -0.0065712938 0.2495617
-0.036423724 -0.0063532777 0.24996509
-0.035871111 -0.0061473288 0.25033453
-0.035425387 -0.0060249544 0.25061649
-0.03521936 -0.0059582037 0.25075549
-0.034884233 -0.0058550038 0.25097832
-0.034259744 -0.0056760246 0.25137508
-0.033842549 -0.0055489573 0.25161591
-0.033480417 -0.0054332856 0.25182223
0.034423392 -0.0077467393 0.30294681
0.034423389 -0.0077467393 0.30294681
0.034424681 -0.0076860064 0.3028813
0.034448925 -0.00778969 0.30287939
0.034448922 -0.00778969 0.30287939
0.18405493 -0.0082105361 0.31279439
0.18428959 -0.0083810901 0.31267619
0.18446775 -0.008493918 0.31256169
0.18461904 -0.0086025111 0.31244081
0.18480855 -0.0088772289 0.31237713
0.18497095 -0.009065832 0.31226563
0.18611479 -0.0087607959 0.30936614
0.18623555 -0.0088224951 0.30910265
0.1863407 -0.0089829685 0.30903092
0.18643034 -0.0090660946 0.30885729
0.18654294 -0.0090712253 0.30853984
0.18668717 -0.0089692893 0.30806261
0.18698563 -0.0088538909 0.307098
0.18726149 -0.0089944936 0.30643368
0.18739282 -0.0091092093 0.30614907
0.18748933 -0.0092357369 0.30605236
0.18761374 -0.0094470279 0.30591875
0.18775001 -0.0094545512 0.30551299
0.18787614 -0.0093274219 0.30475318
0.18798159 -0.009154764 0.30394912
0.18810527 -0.0090523819 0.30325189
0.18818237 -0.008998787 0.302856
0.18828075 -0.0091054095 0.30267659
0.18832774 -0.0092281019 0.30268067
0.18844192 -0.0094294446 0.30257687
0.18851714 -0.0095221633 0.30240771
0.18858905 -0.0094942888 0.30203018
-0.12012909 -0.0053835092 0.31734079
-0.1197077 -0.0055081923 0.3172968
-0.11933412 -0.0055332519 0.31724596
-0.11906585 -0.0056801303 0.3172473
-0.11738308 -0.005423001 0.31711909
-0.11723365 -0.0054115457 0.31712291
-0.11703759 -0.0053869714 0.31711996
-0.11692427 -0.005420648 0.31712919
-0.11674584 -0.0054977871 0.3171353
-0.11639466 -0.0055491198 0.31710666
-0.11598857 -0.0055661243 0.31707132
-0.11554164 -0.0055146879 0.31702155
-0.11501992 -0.005446536 0.31693423
-0.11461765 -0.0054204436 0.31685933
-0.11438747 -0.0055366936 0.31682566
-0.11421383 -0.005706165 0.31681612
-0.073999494 -0.0054159076 0.22207798
-0.073982656 -0.0056317444 0.22217052
-0.073939718 -0.0059763631 0.22231384
-0.073914856 -0.006185608 0.22241494
-0.073875308 -0.0063320827 0.22249816
-0.073848583 -0.0063412311 0.22252642
-0.073873766 -0.0062233452 0.2224551
-0.073888272 -0.0060994355 0.22238936
-0.043731868 -0.0087060882 0.24508147
-0.043261643 -0.0085506393 0.24536189
-0.042661745 -0.0083623771 0.24572197
-0.042155795 -0.0081993677 0.24603049
-0.041642804 -0.0080350693 0.24634129
-0.041228849 -0.0079095401 0.24661089
-0.040835567 -0.0077809552 0.24687338
-0.040591504 -0.0076937615 0.24703887
-0.040146697 -0.0075422577 0.24734189
-0.039745156 -0.0074127861 0.24761973
-0.039396174 -0.0072841127 0.24785803
-0.038886867 -0.0071451943 0.24820828
-0.038554434 -0.0070596896 0.24844898
-0.038276993 -0.0069720768 0.24865262
-0.037946802 -0.0068680393 0.24889652
-0.037282262 -0.0066588572 0.249373
-0.036524177 -0.0063884156 0.24988677
-0.035994008 -0.0061937831 0.25023568
-0.035605196 -0.0060765999 0.25048897
-0.035348561 -0.0059925676 0.25066227
-0.034958668 -0.0058812303 0.25092044
-0.034465078 -0.0057319677 0.2512342
-0.033914462 -0.0055736504 0.25155193
-0.033453029 -0.0054115225 0.25181621
-0.033009805 -0.0052781417 0.252056
-0.03251848 -0.0051267096 0.25233555
-0.031970758 -0.0049613835 0.25264484
-0.031414524 -0.0047995783 0.2529594
0.034300119 -0.0070277997 0.30261448
0.03429243 -0.0069222045 0.30257687
0.034279782 -0.0067560053 0.30247164
0.034335487 -0.0069877743 0.30254257
0.034372184 -0.007196933 0.30265379
0.18391457 -0.0074765026 0.31251046
0.1841117 -0.0075994707 0.31239125
0.1843161 -0.0077916095 0.31231466
0.18444875 -0.0079181166 0.31220952
0.18464515 -0.0080572097 0.31203085
0.18488501 -0.0082262745 0.31177068
0.18506089 -0.0081653567 0.31143472
0.18589939 -0.0081189722 0.30949059
0.18598142 -0.0081897108 0.30932537
0.1861424 -0.0082479194 0.30892313
0.18624796 -0.0083320141 0.30873251
0.18634692 -0.008374854 0.30854157
0.1864866 -0.0082936455 0.30806267
0.18661509 -0.0082683358 0.3076379
0.18688641 -0.0082107186 0.30678335
0.18710721 -0.0082427748 0.30611131
0.18725368 -0.0083506582 0.30575475
0.18732947 -0.0085146353 0.3057709
0.18744025 -0.0086964266 0.30572924
0.18759009 -0.0088492446 0.30543274
0.18773834 -0.008855571 0.30478203
0.18787085 -0.008816692 0.30403236
0.18796457 -0.0086834077 0.30339327
0.18805264 -0.0085619362 0.30286029
0.18817829 -0.0085870251 0.30246398
0.18825865 -0.0086601181 0.30221501
0.18831289 -0.0086580683 0.30198738
0.18836981 -0.0086700432 0.30172127
0.18840048 -0.0085358191 0.30134112
0.18844306 -0.0085169189 0.30115792
-0.12000494 -0.0050721848 0.31721911
-0.11971809 -0.0051134978 0.31717721
-0.11936014 -0.0051425691 0.31712738
-0.11903666 -0.0052876063 0.31712845
-0.11882778 -0.005360777 0.31713128
-0.1175558 -0.0051465528 0.31705979
-0.11739749 -0.0050516077 0.31704623
-0.11726433 -0.0049964669 0.31704172
-0.117078 -0.0050123977 0.31704649
-0.11692829 -0.0050912122 0.31705669
-0.11672733 -0.0051519796 0.31706256
-0.11634625 -0.0051649981 0.31704226
-0.11588961 -0.0051311813 0.31699684
-0.11544617 -0.0050770096 0.31693897
-0.11494869 -0.0050000092 0.31684795
-0.11459634 -0.0050820722 0.31680125
-0.11442123 -0.005256006 0.31679285
-0.11423381 -0.0054190401 0.31677887
-0.074044712 -0.0050045033 0.22192664
-0.074011527 -0.0052748001 0.22203574
-0.073984317 -0.0055410797 0.22215112
-0.073957346 -0.0056996499 0.22222309
-0.073941782 -0.0057793129 0.22225812
-0.073941797 -0.0057793129 0.22225808
-0.073925249 -0.0057997978 0.22227585
-0.073930889 -0.0057238089 0.22223438
-0.041279405 -0.0079179201 0.24657574
-0.040895026 -0.0077777775 0.24683264
-0.040550392 -0.0076632979 0.24706498
-0.040199555 -0.0075526321 0.24730775
-0.039899472 -0.0074453233 0.24750896
-0.039495971 -0.0073231896 0.24778694
-0.039187647 -0.0072358106 0.24799876
-0.038759556 -0.0071041482 0.24830145
-0.038408484 -0.0069926525 0.24855985
-0.038227402 -0.0069463761 0.24868475
-0.037997514 -0.0068691 0.24884909
-0.037383109 -0.0066863974 0.24930027
-0.036578413 -0.0063925735 0.24984807
-0.036047284 -0.00620761 0.25019968
-0.035711639 -0.0060910438 0.25041783
-0.035322215 -0.0059811519 0.25067565
-0.034958124 -0.0058709811 0.25091529
-0.034544088 -0.0057380251 0.25118017
-0.033912323 -0.0055730897 0.25154755
-0.033375829 -0.0053791003 0.25185248
-0.032904878 -0.0052417959 0.25210914
-0.032415234 -0.0050873021 0.25239256
-0.03191556 -0.0049452283 0.25267428
-0.031362407 -0.0047789067 0.25299454
-0.030897465 -0.0046638381 0.25325146
-0.030336831 -0.0045141596 0.25359595
0.034187283 -0.0064210221 0.30225989
0.034169123 -0.0063044601 0.30221027
0.034102511 -0.0060060434 0.30205637
0.03409709 -0.0059450432 0.30201873
0.034159798 -0.0062465868 0.30217224
0.183755 -0.0066949963 0.31225455
0.1839328 -0.0068736281 0.31213927
0.18413876 -0.0071477764 0.31209734
0.18425034 -0.0072019333 0.31199116
0.18448806 -0.0073353648 0.31172392
0.18468286 -0.0073292633 0.3113842
0.18487343 -0.0073302905 0.31109521
0.18507205 -0.0073909974 0.31081411
0.18561304 -0.0074432977 0.30972487
0.18573694 -0.0074954373 0.30940649
0.18584438 -0.0074786469 0.30909401
0.18600567 -0.0075648972 0.30871388
0.1861392 -0.0076922071 0.30852127
0.18623839 -0.0076845516 0.30826542
0.18637718 -0.0077179032 0.30786809
0.1865311 -0.0075795674 0.30723479
0.18681259 -0.0075429147 0.30637935
0.18702625 -0.0075622899 0.30569392
0.1871396 -0.0076557058 0.30544382
0.18722588 -0.0078054983 0.30541018
0.18729271 -0.0079799267 0.30546701
0.18741708 -0.0081562232 0.30529255
0.18758664 -0.0082593895 0.30472666
0.18773054 -0.0083408821 0.30405653
0.18783867 -0.008326211 0.30353618
0.18793541 -0.00826756 0.30301788
0.18805578 -0.0081687653 0.30242488
0.18812327 -0.0080198301 0.30188078
0.18818165 -0.0079151094 0.30137306
0.18816677 -0.0075810659 0.3008219
0.18816513 -0.0073694643 0.30039784
0.18820888 -0.0073151398 0.30011392
-0.12082757 -0.0048233829 0.31732786
-0.120042 -0.0046659205 0.31710148
-0.11967465 -0.0047323778 0.31705555
-0.11934704 -0.0048166015 0.31703076
-0.11905963 -0.0049207392 0.3170284
-0.11877669 -0.0050392677 0.31703588
-0.11771098 -0.0048944266 0.31700289
-0.11756471 -0.0047549619 0.31698054
-0.11742678 -0.0047098729 0.31698087
-0.1172869 -0.0046256222 0.31696108
-0.11707804 -0.0046600937 0.31696498
-0.1169164 -0.0047338302 0.31698698
-0.11660619 -0.0047300542 0.31697658
-0.11627296 -0.0047405893 0.31696081
-0.11576851 -0.0047343508 0.3169179
-0.1153148 -0.0046585579 0.3168506
-0.11488042 -0.0046397457 0.31677595
-0.1146581 -0.0047593284 0.31676149
-0.11447036 -0.0049633733 0.31675869
-0.11427504 -0.0051313187 0.31674728
-0.074082322 -0.0045867031 0.22178395
-0.074052908 -0.0049173119 0.22190331
-0.07402423 -0.0051591862 0.2220064
-0.073990308 -0.0053739119 0.22209522
-0.073985629 -0.005428229 0.22211759
-0.073970862 -0.0054798909 0.22214215
-0.073964767 -0.0054241517 0.2221261
-0.073958345 -0.0054526143 0.2221328
-0.040529724 -0.0076468764 0.24707641
-0.040208634 -0.0075255618 0.2472949
-0.039804626 -0.0073999949 0.24757423
-0.039447911 -0.0073012505 0.24782366
-0.039196827 -0.0072085732 0.24798718
-0.038788032 -0.0071019591 0.24827558
-0.038433146 -0.0069938018 0.24853832
-0.038207468 -0.0069215591 0.24870797
-0.038026821 -0.0068708635 0.24883507
-0.037747916 -0.0067892028 0.2490439
-0.037132684 -0.0065844185 0.24947505
-0.036504399 -0.0063596945 0.24990112
-0.0360207 -0.0061973878 0.25021186
-0.035659198 -0.0060772263 0.25045231
-0.035322223 -0.0059811524 0.25067565
-0.034854382 -0.0058402563 0.25098079
-0.034360789 -0.0056794402 0.2512854
-0.033708423 -0.0054933191 0.25165921
-0.033242676 -0.005342572 0.25191987
-0.032833371 -0.0052096965 0.25215995
-0.032314867 -0.0050491234 0.25245908
-0.031791631 -0.0048881518 0.25275874
-0.031305566 -0.0047601867 0.2530292
-0.030843552 -0.004637822 0.25329015
-0.030277083 -0.0044987239 0.25363407
-0.029783994 -0.004359867 0.2539283
-0.029453354 -0.0042802682 0.25413406
0.034096498 -0.0060006082 0.30209163
0.034082863 -0.0059474604 0.30206844
0.034052312 -0.0057120412 0.30193397
0.03403201 -0.0055945544 0.30185559
0.034051105 -0.0056495606 0.30189791
0.034065403 -0.0057589323 0.30193728
0.18380028 -0.0063291062 0.31201315
0.18399468 -0.0066681542 0.31203818
0.1841376 -0.0067279367 0.31190002
0.18432812 -0.0067259474 0.31159437
0.18456712 -0.0067464756 0.31120771
0.18474296 -0.0067010424 0.31086996
0.18488485 -0.0067489604 0.31069037
0.18504876 -0.0068699159 0.31050792
0.18519284 -0.006991527 0.31035897
0.18529375 -0.0069400393 0.31009781
0.18542545 -0.0068728016 0.3096956
0.18555729 -0.00691255 0.30939233
0.18573402 -0.0069607841 0.30895808
0.18588398 -0.0069781588 0.30858564
0.18604019 -0.0069789453 0.30816925
0.18615977 -0.0070201848 0.30789378
0.1862749 -0.007043452 0.30753762
0.18643668 -0.0069618435 0.30693412
0.18675026 -0.0069289114 0.30602506
0.18689585 -0.0069580711 0.30557814
0.18706116 -0.0070806514 0.30515996
0.18714389 -0.0072217034 0.3050442
0.18724856 -0.0074320841 0.30504349
0.18737338 -0.0075892345 0.30483705
0.18748565 -0.0076818648 0.30441582
0.18762065 -0.007852776 0.30388805
0.1876996 -0.0078275958 0.30349731
0.18778335 -0.0077899005 0.30299568
0.1879054 -0.0076445038 0.30229983
0.18797994 -0.007433421 0.30166233
0.18802187 -0.0071333009 0.30082336
0.18794167 -0.0065900465 0.3000091
0.18793489 -0.0063606566 0.29954588
0.18801908 -0.0064972825 0.29940945
-0.1203929 -0.0042841407 0.31705207
-0.12005747 -0.0042678574 0.31698519
-0.11968862 -0.0043698447 0.31695688
-0.11939565 -0.0044582142 0.31694207
-0.11911315 -0.0045761378 0.31694493
-0.1177569 -0.0045235772 0.31692746
-0.11757893 -0.0043798811 0.31690264
-0.11746115 -0.0043512802 0.31690764
-0.1173111 -0.0042930832 0.31688333
-0.11706745 -0.0043426151 0.31690189
-0.11684471 -0.0043455926 0.31690392
-0.11656607 -0.0043471693 0.31690112
-0.11621526 -0.0043743653 0.31689075
-0.11564674 -0.0043062847 0.31683588
-0.11520617 -0.0042745424 0.31676757
-0.11491501 -0.0043472997 0.31673086
-0.11472686 -0.0044713602 0.31672204
-0.11453132 -0.0046562152 0.31672224
-0.074151307 -0.003923459 0.22154982
-0.074122369 -0.0041428632 0.22163129
-0.074087493 -0.0045262007 0.22177479
-0.074061222 -0.0047715278 0.2218724
-0.074033104 -0.0049622678 0.22194453
-0.074015722 -0.0050698011 0.22198965
-0.074003033 -0.0051229009 0.22201239
-0.073998079 -0.0051504271 0.22202154
-0.074002042 -0.005071471 0.22198725
-0.0397802 -0.0073953769 0.24758047
-0.039478444 -0.0072794957 0.24777204
-0.039067514 -0.0071717375 0.24805546
-0.038560763 -0.0070250267 0.24843083
-0.038356859 -0.0069605899 0.24858469
-0.038104311 -0.0068893735 0.24877639
-0.037878077 -0.0068164612 0.24894923
-0.037649654 -0.006746721 0.24912111
-0.03730027 -0.006615893 0.24938004
-0.036765527 -0.0064416216 0.24974546
-0.036311582 -0.0062784012 0.25004196
-0.035875134 -0.0061347992 0.25032443
-0.035480283 -0.0060165008 0.25057244
-0.035062421 -0.0058913119 0.25084177
-0.034598403 -0.0057434733 0.25114256
-0.034050606 -0.0055825156 0.25147057
-0.0335555 -0.0054377648 0.25174668
-0.033036813 -0.0052730455 0.25203517
-0.032550868 -0.0051144036 0.25232413
-0.032166705 -0.0049886601 0.25255665
-0.031711016 -0.0048641507 0.25280726
-0.031279523 -0.0047492883 0.25304732
-0.030840259 -0.004634392 0.25329727
-0.030274689 -0.0044776849 0.2536366
-0.02975806 -0.0043307231 0.25394803
-0.029395269 -0.0042554545 0.25416815
-0.029084008 -0.0041775145 0.25435284
-0.028780751 -0.0040834118 0.25454158
-0.028500207 -0.0040051118 0.2547166
-0.027960192 -0.0038297793 0.25508583
-0.02741592 -0.0036386058 0.25545222
-0.026920198 -0.0034722094 0.25577655
0.034067325 -0.0057749585 0.30199277
0.034057997 -0.0057199919 0.30196992
0.034040689 -0.0054807891 0.3018423
0.034040693 -0.0054807891 0.3018423
0.034046154 -0.0055939262 0.30187863
0.034079399 -0.0057603144 0.30196235
0.18371795 -0.0059580235 0.31197068
0.18388093 -0.0062437891 0.31198362
0.1840191 -0.0062547736 0.31181937
0.18419807 -0.0061857929 0.31147605
0.18441084 -0.0061797928 0.31108439
0.18459457 -0.006145874 0.31073484
0.18476324 -0.006239858 0.3105602
0.18491152 -0.0063544493 0.31041709
0.18504244 -0.006475369 0.31029642
0.18515725 -0.0064922669 0.31008136
0.1852541 -0.0064292606 0.30978233
0.18538319 -0.0063876086 0.30942228
0.18556279 -0.0063984273 0.30895898
0.18576483 -0.0064209937 0.30842078
0.18590513 -0.0064461627 0.30805996
0.18603973 -0.0064260564 0.30768198
0.18619137 -0.0064817956 0.30727521
0.18634622 -0.0065025087 0.30684575
0.18662737 -0.0064799683 0.30607286
0.18677136 -0.0064441641 0.30553988
0.18691736 -0.0065211756 0.30514109
0.18708901 -0.0066427151 0.30465692
0.18724942 -0.0068091769 0.3043057
0.18734328 -0.0069369934 0.30403313
0.18742186 -0.0070002493 0.30354172
0.1874972 -0.0070323413 0.30314139
0.18757917 -0.0070227697 0.30271086
0.18768047 -0.006986965 0.30231673
0.18775441 -0.0069462382 0.30194601
0.18782246 -0.006734462 0.30120879
0.18782347 -0.0063480381 0.30030319
0.18780856 -0.0060006375 0.29961243
0.18780883 -0.0058148475 0.29923019
0.1878655 -0.0058509847 0.29907051
-0.12050088 -0.0038886536 0.31695524
-0.12011156 -0.0039504771 0.31690663
-0.11976266 -0.0039778296 0.31686422
-0.11944083 -0.0041278517 0.31686407
-0.11918677 -0.004222441 0.31686667
-0.11794479 -0.0042802133 0.31687883
-0.11774302 -0.004124722 0.31684735
-0.11761375 -0.0040288945 0.31683299
-0.11745894 -0.003899764 0.31680164
-0.11732899 -0.0039165192 0.31681225
-0.1170712 -0.0039865589 0.31683347
-0.11685985 -0.0039986521 0.31683466
-0.11655544 -0.0040147537 0.31683904
-0.11612374 -0.0039505321 0.31681439
-0.1157243 -0.0039340612 0.31678316
-0.11530408 -0.003925032 0.31672966
-0.1149739 -0.0040201363 0.31668746
-0.11477586 -0.0041457573 0.31667739
-0.11461131 -0.0043281969 0.31669
-0.074176773 -0.0035878704 0.22144535
-0.074159287 -0.0037532055 0.22150467
-0.0741309 -0.0039979732 0.22159983
-0.074103639 -0.0043006754 0.22170778
-0.074086107 -0.0044385577 0.22175814
-0.074067764 -0.0045450837 0.22180785
-0.074050985 -0.0046264827 0.22183719
-0.074044622 -0.0046538743 0.22184518
-0.038615827 -0.0070181573 0.24837212
-0.038245227 -0.0068971897 0.24866094
-0.037969157 -0.0068183355 0.24888383
-0.037599243 -0.0066734683 0.24917679
-0.03731418 -0.0065987147 0.24938999
-0.03708585 -0.0065265531 0.24955389
-0.036822982 -0.0064375172 0.24971527
-0.036442377 -0.0063117472 0.24996205
-0.036181964 -0.0062344065 0.25013024
-0.035793688 -0.0061117522 0.25037247
-0.03540235 -0.0059897965 0.25062343
-0.034936398 -0.0058384081 0.25092709
-0.034415141 -0.0056797545 0.25125176
-0.033821452 -0.0055115577 0.25161251
-0.033354402 -0.0053622304 0.25186965
-0.032888837 -0.0052156434 0.25213358
-0.032430269 -0.0050648008 0.25240687
-0.032059338 -0.0049567134 0.25261736
-0.031611968 -0.0048184427 0.25287628
-0.031284735 -0.0047326325 0.25306162
-0.030814135 -0.0046222094 0.25331473
-0.030408652 -0.0045020934 0.25355268
-0.029839586 -0.0043422496 0.25389835
-0.02947465 -0.004260588 0.25411627
-0.029138369 -0.0041828654 0.25431702
-0.028802786 -0.0040891049 0.25451744
-0.028449396 -0.0039782724 0.25475517
-0.028012184 -0.003839623 0.25504738
-0.027411638 -0.003624348 0.25544938
-0.026998799 -0.0034817853 0.25573274
-0.0267471 -0.003411982 0.25590163
-0.026663065 -0.0033658643 0.25595289
0.033971976 -0.0050902776 0.30166155
0.033971976 -0.0050902776 0.30166155
0.033976369 -0.0049753883 0.3016367
0.033989172 -0.0050861598 0.30167267
0.034040269 -0.005423307 0.30182657
0.034096688 -0.0057020541 0.301972
0.18371686 -0.0057181222 0.31188065
0.18387879 -0.0057974453 0.31172711
0.1840238 -0.0056014485 0.31137994
0.18421474 -0.005594593 0.31104261
0.18443286 -0.0056366916 0.31071907
0.18460311 -0.005763039 0.31054106
0.18475649 -0.0058676749 0.31035182
0.18485917 -0.0059048906 0.31023622
0.18500504 -0.0060106581 0.31003213
0.18508215 -0.0060221497 0.30987287
0.18524288 -0.0060266796 0.30949667
0.18538162 -0.005906296 0.30899364
0.18558662 -0.0059142844 0.30844781
0.18578982 -0.0059150709 0.30788544
0.18594575 -0.0059081386 0.30748856
0.1860905 -0.005966221 0.30712286
0.18624255 -0.0060096355 0.30674955
0.18646446 -0.0060000508 0.30614337
0.18663891 -0.0060353894 0.3055999
0.18676062 -0.0060140407 0.30509993
0.18696664 -0.0060796142 0.30456859
0.18710841 -0.0060346052 0.30376372
0.18721856 -0.0060541104 0.30316082
0.18733507 -0.0060416027 0.30244359
0.18743612 -0.0060448027 0.30202183
0.1875032 -0.0060307877 0.30167067
0.18756378 -0.0060569779 0.30141649
0.18760777 -0.0059909588 0.30103686
0.18763724 -0.0058318432 0.30051419
0.18766867 -0.0056285919 0.29986095
0.18766826 -0.0054177018 0.29946613
0.18770793 -0.0054049096 0.29912519
0.18773535 -0.0054147919 0.29899696
-0.12061826 -0.0034996588 0.31687513
-0.1201968 -0.0035514934 0.31682181
-0.11987133 -0.0035550725 0.31677958
-0.11951898 -0.003703332 0.3167733
-0.11917187 -0.0038052571 0.31678045
-0.11826511 -0.0039715739 0.31681326
-0.11797184 -0.0039296001 0.31680939
-0.11777319 -0.0037743282 0.31677771
-0.11764356 -0.0036497193 0.31677157
-0.1175015 -0.0035673853 0.3167471
-0.11732969 -0.0035715525 0.31675878
-0.11712202 -0.0036439032 0.31676969
-0.11689782 -0.003623096 0.31676945
-0.11661708 -0.0036252236 0.31677291
-0.11622491 -0.0035815472 0.31676134
-0.11583916 -0.0035520191 0.31673199
-0.11544546 -0.0035930825 0.31670666
-0.11513782 -0.0036856763 0.31667218
-0.11490955 -0.0038459774 0.31667015
-0.1147355 -0.0040275268 0.31667346
-0.074198142 -0.003335092 0.22136806
-0.074183993 -0.0034130793 0.22140269
-0.074173719 -0.0035550019 0.22144407
-0.074149542 -0.003802567 0.22153313
-0.074141048 -0.0038848491 0.2215669
-0.074127778 -0.0039655343 0.22160262
-0.07411021 -0.0040466134 0.22163244
-0.074102446 -0.0041022217 0.22164917
-0.037093248 -0.0065121874 0.24956822
-0.036711648 -0.0063751489 0.24983025
-0.036526859 -0.0063277618 0.24993598
-0.036295973 -0.0062499153 0.2500746
-0.036009416 -0.0061609917 0.25025162
-0.035669278 -0.0060608191 0.25046444
-0.035252061 -0.0059395675 0.25073147
-0.034704365 -0.005763696 0.25108111
-0.034163579 -0.0055880798 0.25141889
-0.033593949 -0.0054293857 0.25174785
-0.033152688 -0.0052900393 0.25199342
-0.032741107 -0.0051547922 0.25222653
-0.032348908 -0.0050423387 0.25245017
-0.032035161 -0.0049470607 0.25263399
-0.031611964 -0.0048184427 0.25287628
-0.031231437 -0.0047165165 0.25309387
-0.030684855 -0.0045677703 0.25339583
-0.030194502 -0.0044386447 0.25368315
-0.029810905 -0.004332541 0.25391459
-0.029500673 -0.0042646136 0.25409782
-0.029282847 -0.0042032651 0.25422725
-0.028888434 -0.0040969099 0.25446409
-0.028419508 -0.0039695743 0.25477225
-0.027952794 -0.0038131578 0.25508472
-0.027492117 -0.0036498508 0.25539616
-0.027109662 -0.003511044 0.25565431
-0.026888106 -0.003438609 0.25580958
-0.026690222 -0.003373812 0.25593436
-0.026695535 -0.0033799128 0.25592485
-0.026474414 -0.0033066913 0.25606239
-0.026195597 -0.0032136491 0.25623438
0.033843644 -0.0040145121 0.30121496
0.03385713 -0.004071502 0.30124518
0.033866439 -0.0041860486 0.30129397
0.033931144 -0.0045758751 0.30146599
0.034016374 -0.0051379241 0.30172119
0.034063846 -0.0055351541 0.3018899
0.18360852 -0.0052466393 0.31177601
0.18372999 -0.005190142 0.31161511
0.18392757 -0.0051052915 0.31123263
0.18409728 -0.0050269407 0.31085229
0.18426539 -0.0050409902 0.31057811
0.18445998 -0.0051789582 0.31039771
0.18459162 -0.0053037591 0.31028
0.18472569 -0.0054178801 0.31013063
0.18482748 -0.005494372 0.30997497
0.18496192 -0.0055625117 0.30978841
0.18509789 -0.0055859582 0.30948484
0.18521948 -0.0054882797 0.30908418
0.18539242 -0.0053751259 0.3084684
