# .PCD v0.7 - Point Cloud Data file format
VERSION 0.7
FIELDS x y z
SIZE 4 4 4
TYPE F F F
COUNT 1 1 1
WIDTH 1387
HEIGHT 1
VIEWPOINT 0 0 0 1 0 0 0
POINTS 1387
DATA ascii
-0.083819024 0.076076612 0.1980851
-0.083504468 0.07615833 0.19829787
-0.083144456 0.076199189 0.19840425
-0.082739651 0.076199189 0.19840425
-0.082334846 0.076199189 0.19840425
-0.011873052 0.12151013 0.31638297
-0.011238857 0.1216327 0.31670213
-0.010603361 0.12175528 0.31702128
-0.0099699022 0.1219187 0.3174468
-0.0093284603 0.12200043 0.31765959
-0.0086658001 0.12179612 0.31712765
-0.0079891719 0.1213467 0.31595746
-0.0073272088 0.12106069 0.31521276
0.0051663551 0.09168417 0.2387234
0.0056609833 0.091806747 0.23904255
0.0061678598 0.092092752 0.23978724
0.0066689146 0.092256181 0.24021277
0.0071653645 0.092337891 0.24042553
0.0076525202 0.092297032 0.24031915
0.0081392424 0.092256181 0.24021277
0.0086331731 0.092297032 0.24031915
0.0091315769 0.09237875 0.24053192
0.0096308477 0.092460468 0.24074468
0.010122042 0.092460468 0.24074468
0.019391209 0.10251141 0.2669149
0.019919906 0.10242969 0.26670212
0.020447737 0.10234797 0.26648936
0.020974699 0.10226626 0.2662766
0.021526584 0.10230712 0.26638299
0.022087716 0.10238884 0.26659575
0.022631655 0.10238884 0.26659575
-0.1575658 0.10946362 0.28351063
-0.15692846 0.10942255 0.28340426
-0.15629153 0.10938147 0.28329787
-0.15565506 0.1093404 0.2831915
-0.15507725 0.1093404 0.2831915
-0.15461552 0.10942255 0.28340426
-0.15421076 0.10954577 0.28372341
-0.15380469 0.109669 0.28404257
-0.15333992 0.10975114 0.28425533
-0.15281712 0.10979221 0.28436169
-0.15235086 0.10987437 0.28457448
-0.13827157 0.10839568 0.28074467
-0.13764659 0.10835461 0.28063831
-0.13702203 0.10831353 0.28053191
-0.13644966 0.10831353 0.28053191
-0.13603187 0.10843676 0.28085107
-0.13561279 0.10855998 0.28117022
-0.13514128 0.10864213 0.28138298
-0.13456719 0.10864213 0.28138298
-0.13399307 0.10864213 0.28138298
-0.1334694 0.10868321 0.28148937
-0.13299553 0.10876536 0.28170213
-0.1326208 0.10892965 0.28212765
-0.13229412 0.10913502 0.28265956
-0.13196528 0.1093404 0.2831915
-0.13153554 0.10946362 0.28351063
-0.13105538 0.10954577 0.28372341
-0.1304765 0.10954577 0.28372341
-0.12989761 0.10954577 0.28372341
-0.12927024 0.10950469 0.28361702
-0.12873985 0.10954577 0.28372341
-0.12825707 0.10962792 0.28393617
-0.12782127 0.10975114 0.28425533
-0.12738416 0.10987437 0.28457448
-0.12699313 0.11003866 0.285
-0.12650602 0.11012081 0.28521276
-0.12601805 0.11020297 0.28542554
-0.084687278 0.075453907 0.19542553
-0.084563859 0.075700358 0.19606383
-0.084483497 0.075987883 0.19680852
-0.084309191 0.076193251 0.19734043
-0.084042251 0.076316476 0.19765958
-0.083774008 0.076439701 0.19797872
-0.083459668 0.076521851 0.19819149
-0.083144456 0.076603994 0.19840425
-0.082739651 0.076603994 0.19840425
-0.011857083 0.12199136 0.31595746
-0.011227531 0.12215565 0.31638297
-0.010596245 0.12231995 0.31680852
-0.00996322 0.12248424 0.31723404
-0.0093222121 0.12256639 0.3174468
-0.0086658001 0.12244317 0.31712765
-0.0079972418 0.12211458 0.31627661
0.0051801689 0.092417695 0.2393617
0.0056735803 0.092499837 0.23957446
0.0061733327 0.092664137 0.23999999
0.0066718683 0.092787363 0.24031915
0.0071621942 0.092787363 0.24031915
0.007649133 0.092746288 0.24021277
0.0081356373 0.092705213 0.24010639
0.0086293509 0.092746288 0.24021277
0.0091234986 0.092787363 0.24031915
0.0096223373 0.092869513 0.24053192
0.010113097 0.092869513 0.24053192
0.019375751 0.10297384 0.26670212
0.019904016 0.10289169 0.26648936
0.020439576 0.10285062 0.26638299
0.020991458 0.10289169 0.26648936
0.021569569 0.103056 0.2669149
0.02216704 0.10330243 0.26755318
0.022776151 0.10358997 0.26829788
-0.15692846 0.11000078 0.28340426
-0.15629153 0.10995948 0.28329787
-0.15565506 0.1099182 0.2831915
-0.15507725 0.1099182 0.2831915
-0.15461552 0.11000078 0.28340426
-0.15421076 0.11012466 0.28372341
-0.15374708 0.11020724 0.28393617
-0.15322515 0.11024854 0.28404257
-0.15264562 0.11024854 0.28404257
-0.15212303 0.11028982 0.28414893
-0.13816679 0.10888591 0.28053191
-0.1375944 0.10888591 0.28053191
-0.13702203 0.10888591 0.28053191
-0.13650142 0.10892721 0.28063831
-0.13603187 0.10900978 0.28085107
-0.13561279 0.10913366 0.28117022
-0.13509019 0.10917494 0.28127658
-0.13456719 0.10921624 0.28138298
-0.13394241 0.10917494 0.28127658
-0.13341896 0.10921624 0.28138298
-0.1329453 0.10929882 0.28159574
-0.13257079 0.10946399 0.28202128
-0.13224433 0.10967045 0.2825532
-0.1319157 0.10987691 0.28308511
-0.13148619 0.11000078 0.28340426
-0.13100624 0.11008336 0.28361702
-0.13037865 0.11004207 0.28351063
-0.12975149 0.11000078 0.28340426
-0.12917326 0.11000078 0.28340426
-0.12859502 0.11000078 0.28340426
-0.1281129 0.11008336 0.28361702
-0.12772559 0.11024854 0.28404257
-0.12733653 0.11041369 0.28446808
-0.12694573 0.11057886 0.2848936
-0.12650602 0.11070273 0.28521276
-0.12597106 0.11074403 0.28531915
-0.084502876 0.075687468 0.19499999
-0.084472083 0.076017804 0.19585106
-0.08439216 0.07630685 0.19659574
-0.084172837 0.076472014 0.19702128
-0.083906554 0.076595888 0.19734043
-0.083593942 0.07667847 0.19755319
-0.083325274 0.076802343 0.19787234
-0.083010711 0.076884925 0.1980851
-0.082650922 0.076926224 0.19819149
-0.01185309 0.12259471 0.31585106
-0.011223757 0.12275989 0.31627661
-0.010592686 0.12292504 0.31670213
-0.00996322 0.1231315 0.31723404
-0.0093284603 0.12329667 0.31765959
-0.0086803362 0.12329667 0.31765959
-0.0080214506 0.1231315 0.31723404
0.0052054944 0.093360275 0.24053192
0.005698774 0.093401566 0.2406383
0.0061924877 0.093442857 0.24074468
0.0066807284 0.093401566 0.2406383
0.0071685356 0.093360275 0.24053192
0.007649133 0.093236394 0.24021277
0.0081356373 0.093195111 0.24010639
0.0086255297 0.093195111 0.24010639
0.0091194604 0.093236394 0.24021277
0.009613825 0.093277685 0.24031915
0.010104151 0.093277685 0.24031915
0.019352566 0.10339413 0.26638299
0.019888123 0.10335284 0.2662766
0.020431412 0.10335284 0.2662766
0.020991458 0.10343541 0.26648936
0.021586763 0.10368317 0.26712766
0.022219924 0.10409608 0.26819149
0.022848399 0.10446771 0.26914895
-0.15692846 0.11057901 0.28340426
-0.15629153 0.1105375 0.28329787
-0.15565506 0.110496 0.2831915
-0.15507725 0.110496 0.2831915
-0.15455748 0.1105375 0.28329787
-0.1540951 0.11062051 0.28351063
-0.15357426 0.11066203 0.28361702
-0.15305299 0.11070354 0.28372341
-0.15247411 0.11070354 0.28372341
-0.15189523 0.11070354 0.28372341
-0.13816679 0.10945828 0.28053191
-0.1375944 0.10945828 0.28053191
-0.13702203 0.10945828 0.28053191
-0.13650142 0.10949979 0.28063831
-0.13598034 0.10954129 0.28074467
-0.13551016 0.10962432 0.28095746
-0.13498801 0.10966582 0.28106382
-0.13441455 0.10966582 0.28106382
-0.1338411 0.10966582 0.28106382
-0.13336851 0.10974883 0.28127658
-0.13289508 0.10983186 0.28148937
-0.13252078 0.10999789 0.28191489
-0.13219453 0.11020543 0.2824468
-0.13181657 0.11037147 0.28287235
-0.13138749 0.110496 0.2831915
-0.13085882 0.1105375 0.28329787
-0.13023189 0.110496 0.2831915
-0.12965408 0.110496 0.2831915
-0.1290278 0.11045448 0.28308511
-0.12849849 0.110496 0.2831915
-0.12806484 0.11062051 0.28351063
-0.12767775 0.11078656 0.28393617
-0.12733653 0.1109941 0.28446808
-0.12699313 0.11120164 0.285
-0.12655321 0.11132617 0.28531915
-0.12601805 0.11136768 0.28542554
-0.08466915 0.075877786 0.19446808
-0.084456779 0.076043822 0.19489361
-0.084380321 0.076334387 0.1956383
-0.084255151 0.076583438 0.19627659
-0.08408194 0.076790981 0.19680852
-0.083770856 0.076873995 0.19702128
-0.0834589 0.076957017 0.19723405
-0.08314608 0.077040032 0.19744681
-0.082832389 0.077123053 0.19765958
-0.082429104 0.077123053 0.19765958
-0.01185309 0.12323914 0.31585106
-0.011223757 0.12340519 0.31627661
-0.010596245 0.12361273 0.31680852
-0.0099665616 0.12382027 0.31734043
-0.0093347086 0.12402781 0.31787235
-0.0086948704 0.12415234 0.3181915
-0.0080510406 0.12423535 0.31840426
0.0052285171 0.094266117 0.24159575
0.005721448 0.094266117 0.24159575
0.006208906 0.094183095 0.24138297
0.0066925422 0.094058573 0.24106383
0.0071748765 0.093934052 0.24074468
0.0076525202 0.093768016 0.24031915
0.0081320321 0.093643486 0.23999999
0.0086217076 0.093643486 0.23999999
0.0091113821 0.093643486 0.23999999
0.0096053137 0.093685001 0.24010639
0.010095206 0.093685001 0.24010639
0.019344836 0.10389613 0.2662766
0.019880177 0.10385461 0.2661702
0.020415086 0.10381311 0.26606384
0.020974699 0.10389613 0.2662766
0.021569569 0.10414518 0.2669149
0.02221111 0.10460176 0.26808509
0.022857428 0.10505836 0.26925531
0.023453033 0.1052659 0.26978722
-0.15681064 0.1110738 0.2831915
-0.15623285 0.1110738 0.2831915
-0.1555381 0.11099034 0.28297871
-0.15496072 0.11099034 0.28297871
-0.1544414 0.11103207 0.28308511
-0.15392165 0.1110738 0.2831915
-0.15334386 0.1110738 0.2831915
-0.15270866 0.11103207 0.28308511
-0.15218826 0.1110738 0.2831915
-0.13873915 0.11003065 0.28053191
-0.13821918 0.11007238 0.28063831
-0.13764659 0.11007238 0.28063831
-0.13707399 0.11007238 0.28063831
-0.13644966 0.11003065 0.28053191
-0.13587728 0.11003065 0.28053191
-0.13535623 0.11007238 0.28063831
-0.13478364 0.11007238 0.28063831
-0.13426192 0.1101141 0.28074467
-0.13373977 0.11015583 0.28085107
-0.13326763 0.11023928 0.28106382
-0.13289508 0.11040619 0.28148937
-0.13252078 0.11057308 0.28191489
-0.13214475 0.11073999 0.28234044
-0.13176697 0.11090689 0.28276595
-0.13123941 0.11094862 0.28287235
-0.13071139 0.11099034 0.28297871
-0.13013403 0.11099034 0.28297871
-0.12950797 0.11094862 0.28287235
-0.12893082 0.11094862 0.28287235
-0.12840194 0.11099034 0.28297871
-0.1280168 0.11115725 0.28340426
-0.12772559 0.11140761 0.28404257
-0.12743177 0.11165795 0.28468084
-0.12708794 0.11186658 0.28521276
-0.12669477 0.11203349 0.2856383
-0.12615894 0.1120752 0.28574467
-0.084808104 0.076399744 0.19478723
-0.08454898 0.076524921 0.19510639
-0.084380321 0.076733552 0.1956383
-0.084255151 0.076983899 0.19627659
-0.083991043 0.077109084 0.19659574
-0.083725624 0.077234261 0.1969149
-0.083368868 0.077275984 0.19702128
-0.083056487 0.077359438 0.19723405
-0.082698643 0.077401161 0.19734043
-0.082296006 0.077401161 0.19734043
-0.011845106 0.12380014 0.3156383
-0.011219981 0.12400876 0.31617022
-0.010596245 0.12425911 0.31680852
-0.0099732438 0.12455119 0.31755319
-0.0093440805 0.12480155 0.3181915
-0.0087094055 0.12501018 0.31872341
0.0052377265 0.094925955 0.24202128
0.0057290061 0.094884224 0.2419149
0.0062171151 0.09480077 0.24170212
0.0066984491 0.09463387 0.24127659
0.0071748765 0.094425246 0.24074468
0.007649133 0.094216615 0.24021277
0.0081284279 0.094091438 0.23989362
0.0086140642 0.094049715 0.23978724
0.0091033056 0.094049715 0.23978724
0.0095968023 0.094091438 0.23989362
0.01008626 0.094091438 0.23989362
0.019344836 0.10443941 0.2662766
0.019864287 0.10431423 0.26595744
0.020390598 0.10423078 0.26574469
0.020932801 0.10423078 0.26574469
0.021517986 0.10443941 0.2662766
0.022149414 0.10485666 0.26734042
0.022794213 0.10531565 0.26851064
0.023388298 0.10552428 0.26904255
-0.15663393 0.11152577 0.28287235
-0.15599808 0.11148382 0.28276595
-0.15536267 0.11144187 0.28265956
-0.15484422 0.11148382 0.28276595
-0.15426728 0.11148382 0.28276595
-0.15374818 0.11152577 0.28287235
-0.15305582 0.11144187 0.28265956
-0.15236433 0.11135799 0.2824468
-0.15178806 0.11135799 0.2824468
-0.13873915 0.11060303 0.28053191
-0.13821918 0.11064497 0.28063831
-0.1375944 0.11060303 0.28053191
-0.13697007 0.11056108 0.28042552
-0.13634618 0.11051914 0.28031915
-0.13572271 0.11047719 0.28021276
-0.1352023 0.11051914 0.28031915
-0.13463037 0.11051914 0.28031915
-0.13416018 0.11060303 0.28053191
-0.13368911 0.11068691 0.28074467
-0.13326763 0.11081274 0.28106382
-0.13289508 0.11098051 0.28148937
-0.13252078 0.11114828 0.28191489
-0.13209496 0.11127411 0.28223404
-0.13161826 0.11135799 0.2824468
-0.13109134 0.11139994 0.2825532
-0.13056397 0.11144187 0.28265956
-0.12998725 0.11144187 0.28265956
-0.12941055 0.11144187 0.28265956
-0.12888233 0.11148382 0.28276595
-0.12840194 0.11156771 0.28297871
-0.12806484 0.11177742 0.28351063
-0.12777342 0.11202908 0.28414893
-0.127527 0.11232267 0.2848936
-0.12718275 0.11253239 0.28542554
-0.12678914 0.11270016 0.28585106
-0.12625289 0.11274211 0.28595746
-0.084947057 0.076922998 0.19510639
-0.084641181 0.077006884 0.19531915
-0.084472083 0.077216595 0.19585106
-0.084255151 0.077384368 0.19627659
-0.084036484 0.07755214 0.19670212
-0.083725624 0.077636026 0.1969149
-0.083368868 0.077677965 0.19702128
-0.083011679 0.077719912 0.19712766
-0.082609482 0.077719912 0.19712766
-0.011797198 0.12394081 0.31436169
-0.011197329 0.12440219 0.31553191
-0.010589127 0.12482161 0.31659573
-0.0099699022 0.12515715 0.3174468
-0.0093472041 0.12549269 0.31829786
-0.0087123122 0.12570241 0.31882977
0.0052354243 0.09537781 0.2419149
0.0057264864 0.095335864 0.2418085
0.0062143789 0.095251977 0.24159575
0.0066925422 0.095042266 0.24106383
0.0071685356 0.094832554 0.24053192
0.0076389699 0.094580896 0.23989362
0.0081176143 0.094455063 0.23957446
0.0086025996 0.094413124 0.23946808
0.0090952273 0.094455063 0.23957446
0.0095882909 0.09449701 0.23968086
0.010077314 0.09449701 0.23968086
0.018809061 0.10502464 0.26638299
0.019344836 0.1049827 0.2662766
0.019848395 0.10477298 0.26574469
0.020357946 0.10460521 0.26531914
0.020874141 0.10447938 0.26499999
0.021440614 0.10460521 0.26531914
0.022043647 0.10489882 0.26606384
0.022676811 0.10531824 0.26712766
0.023268074 0.10552795 0.26765957
-0.15697457 0.11193427 0.2824468
-0.1564572 0.11197644 0.2825532
-0.15582201 0.11193427 0.2824468
-0.15518726 0.11189212 0.28234044
-0.15466945 0.11193427 0.2824468
-0.15409316 0.11193427 0.2824468
-0.15351689 0.11193427 0.2824468
-0.15288301 0.11189212 0.28234044
-0.15219216 0.11180779 0.28212765
-0.15155937 0.11176564 0.28202128
-0.13863394 0.11109108 0.28031915
-0.13806199 0.11109108 0.28031915
-0.13749005 0.11109108 0.28031915
-0.13686615 0.11104891 0.28021276
-0.13624269 0.11100677 0.2801064
-0.13561966 0.1109646 0.28
-0.13509968 0.11100677 0.2801064
-0.13457926 0.11104891 0.28021276
-0.13410929 0.11113323 0.28042552
-0.13368911 0.11125971 0.28074467
-0.13326763 0.11138619 0.28106382
-0.13289508 0.11155484 0.28148937
-0.13247079 0.11168132 0.28180853
-0.13199538 0.11176564 0.28202128
-0.13146953 0.11180779 0.28212765
-0.13099264 0.11189212 0.28234044
-0.1304657 0.11193427 0.2824468
-0.12993835 0.11197644 0.2825532
-0.12941055 0.11201859 0.28265956
-0.12888233 0.11206076 0.28276595
-0.12845021 0.11218724 0.28308511
-0.1281129 0.11239803 0.28361702
-0.12782127 0.11265099 0.28425533
-0.12757462 0.11294611 0.285
-0.12723015 0.11315691 0.28553191
-0.12678914 0.11328339 0.28585106
-0.12629984 0.11336771 0.28606382
-0.084993377 0.077363238 0.19521277
-0.084733382 0.077489719 0.19553192
-0.084517971 0.077658355 0.19595745
-0.084346488 0.077869155 0.19648936
-0.08408194 0.077995636 0.19680852
-0.083770856 0.078079954 0.19702128
-0.083413884 0.078122109 0.19712766
-0.083056487 0.078164272 0.19723405
-0.082609482 0.078122109 0.19712766
-0.011745298 0.12403414 0.31297871
-0.011174678 0.12479301 0.3148936
-0.010578454 0.1253411 0.31627661
-0.00996322 0.12572053 0.31723404
-0.0093409568 0.1260578 0.3180851
-0.008706498 0.12626861 0.31861702
0.0052262149 0.095702752 0.24148937
0.0057164091 0.09566059 0.24138297
0.0062006968 0.095534116 0.24106383
0.0066807284 0.095365472 0.2406383
0.0071558533 0.095154673 0.24010639
0.0076288073 0.094943874 0.23957446
0.0081068007 0.0948174 0.23925532
0.0085949562 0.0948174 0.23925532
0.0090831118 0.0948174 0.23925532
0.0095712673 0.0948174 0.23925532
0.010068368 0.094901711 0.23946808
0.018816572 0.1056103 0.26648936
0.019337108 0.10548382 0.2661702
0.019832505 0.10523087 0.26553193
0.020317132 0.10493574 0.26478723
0.020823862 0.10476711 0.26436171
0.021363243 0.10476711 0.26436171
0.021946693 0.10497791 0.26489362
0.022559406 0.10531519 0.26574469
-0.15661983 0.1122563 0.28180853
-0.15616266 0.11234105 0.28202128
-0.15564594 0.11238342 0.28212765
-0.1550703 0.11238342 0.28212765
-0.15455294 0.1124258 0.28223404
-0.15403514 0.11246818 0.28234044
-0.15345907 0.11246818 0.28234044
-0.1528254 0.1124258 0.28223404
-0.15224956 0.1124258 0.28223404
-0.1516737 0.1124258 0.28223404
-0.13904738 0.11153588 0.28
-0.13847609 0.11153588 0.28
-0.1378524 0.11149351 0.27989361
-0.13728133 0.11149351 0.27989361
-0.13665831 0.11145113 0.27978724
-0.13608746 0.11145113 0.27978724
-0.13556813 0.11149351 0.27989361
-0.13504836 0.11153588 0.28
-0.13457926 0.11162063 0.28021276
-0.13410929 0.11170539 0.28042552
-0.13368911 0.11183252 0.28074467
-0.13326763 0.11195965 0.28106382
-0.13284485 0.11208679 0.28138298
-0.13237076 0.11217154 0.28159574
-0.13184601 0.11221392 0.28170213
-0.13132082 0.1122563 0.28180853
-0.13084456 0.11234105 0.28202128
-0.13036743 0.1124258 0.28223404
-0.12988941 0.11251055 0.2824468
-0.12941055 0.1125953 0.28265956
-0.1289793 0.11272243 0.28297871
-0.12854674 0.11284956 0.28329787
-0.12816095 0.11301908 0.28372341
-0.12786908 0.11327333 0.28436169
-0.127527 0.11348522 0.2848936
-0.12723015 0.11373948 0.28553191
-0.12683633 0.11390899 0.28595746
-0.12629984 0.11395136 0.28606382
-0.084947057 0.077719159 0.19510639
-0.084733382 0.077888668 0.19553192
-0.084609739 0.078142926 0.19617021
-0.08439216 0.078312427 0.19659574
-0.084127389 0.078439564 0.1969149
-0.083816089 0.078524314 0.19712766
-0.0834589 0.078566693 0.19723405
-0.083056487 0.078566693 0.19723405
-0.082654066 0.078566693 0.19723405
-0.01227443 0.12357091 0.31021276
-0.011709369 0.12429132 0.31202129
-0.011152027 0.12518124 0.31425533
-0.010564221 0.12581688 0.31585106
-0.0099498564 0.12619828 0.31680852
-0.0093284603 0.12653729 0.31765959
-0.0086948704 0.12674919 0.3181915
0.005217006 0.096025959 0.24106383
0.0057063322 0.09598358 0.24095745
0.0061897514 0.09585645 0.2406383
0.0066689146 0.095686942 0.24021277
0.0071400004 0.095432676 0.23957446
0.0076186447 0.095305555 0.23925532
0.0080995914 0.095220797 0.23904255
0.0085834907 0.095178418 0.23893617
0.0090709953 0.095178418 0.23893617
0.0095542446 0.095136046 0.23882979
0.010046004 0.095178418 0.23893617
0.018824084 0.1061964 0.26659575
0.019337108 0.10602689 0.2661702
0.019816613 0.10568788 0.26531914
0.020292643 0.10534886 0.26446807
0.020798722 0.10517936 0.26404256
0.021328855 0.10513698 0.26393616
0.021893809 0.10526411 0.26425532
0.022478128 0.10547599 0.26478723
-0.15672009 0.11249053 0.28095746
-0.15632419 0.1126183 0.28127658
-0.15598594 0.11278868 0.28170213
-0.15558726 0.11291646 0.28202128
-0.1550703 0.11295905 0.28212765
-0.15455294 0.11300164 0.28223404
-0.1539771 0.11300164 0.28223404
-0.15340126 0.11300164 0.28223404
-0.1528254 0.11300164 0.28223404
-0.15230694 0.11304425 0.28234044
-0.15178806 0.11308683 0.2824468
-0.13883606 0.11193679 0.27957445
-0.13821302 0.11189421 0.27946809
-0.13764283 0.11189421 0.27946809
-0.13702044 0.11185161 0.2793617
-0.13650243 0.11189421 0.27946809
-0.13603571 0.11197939 0.27968085
-0.13556813 0.11206458 0.27989361
-0.13509968 0.11214978 0.2801064
-0.13463037 0.11223496 0.28031915
-0.13416018 0.11232014 0.28053191
-0.13373977 0.11244792 0.28085107
-0.1332172 0.11249053 0.28095746
-0.1327444 0.11257571 0.28117022
-0.13222073 0.1126183 0.28127658
-0.13174643 0.11270349 0.28148937
-0.13127124 0.11278868 0.28170213
-0.1307952 0.11287386 0.28191489
-0.13031828 0.11295905 0.28212765
-0.12993835 0.11312943 0.2825532
-0.12950797 0.11325721 0.28287235
-0.12907629 0.113385 0.2831915
-0.12864329 0.11351277 0.28351063
-0.12820901 0.11364055 0.28382978
-0.12782127 0.11381093 0.28425533
-0.127527 0.11406649 0.2848936
-0.12723015 0.11432205 0.28553191
-0.12678914 0.11444984 0.28585106
-0.084947057 0.078117236 0.19510639
-0.084779486 0.078330204 0.1956383
-0.084609739 0.078543171 0.19617021
-0.084437825 0.078756139 0.19670212
-0.084127389 0.078841329 0.1969149
-0.083816089 0.078926519 0.19712766
-0.0834589 0.078969114 0.19723405
-0.08310128 0.079011708 0.19734043
-0.082698643 0.079011708 0.19734043
-0.012840966 0.12356494 0.30861703
-0.012257594 0.12403347 0.30978724
-0.011693399 0.12475757 0.31159574
-0.011136926 0.12565203 0.31382978
-0.01054643 0.12624836 0.31531915
-0.009936491 0.12667429 0.31638297
-0.0093128392 0.12697244 0.31712765
0.0052100988 0.096390024 0.24074468
0.005698774 0.096347429 0.2406383
0.0061788056 0.096177049 0.24021277
0.0066571007 0.096006677 0.23978724
0.0071336594 0.095836297 0.2393617
0.0076118694 0.095708519 0.23904255
0.008092382 0.095623329 0.23882979
0.0085758474 0.095580734 0.2387234
0.0090588788 0.095538139 0.23861702
0.0095372209 0.095452957 0.23840426
0.010019167 0.095410362 0.23829788
0.019375751 0.10678293 0.26670212
0.019816613 0.10622921 0.26531914
0.020292643 0.10588846 0.26446807
0.020807104 0.10576069 0.26414895
0.021346049 0.10576069 0.26414895
0.021902625 0.10584587 0.26436171
-0.15648271 0.11289252 0.28053191
-0.15614684 0.11306377 0.28095746
-0.15586813 0.11327782 0.28148937
-0.15558726 0.11349187 0.28202128
-0.15512879 0.11357749 0.28223404
-0.1546112 0.1136203 0.28234044
-0.15403514 0.1136203 0.28234044
-0.15334342 0.11353467 0.28212765
-0.15276779 0.11353467 0.28212765
-0.15230694 0.1136203 0.28234044
-0.13862474 0.11233597 0.27914894
-0.13805519 0.11233597 0.27914894
-0.13743325 0.11229316 0.27904254
-0.13691609 0.11233597 0.27914894
-0.13639851 0.11237879 0.27925533
-0.13598396 0.11250721 0.27957445
-0.13556813 0.11263564 0.27989361
-0.13515098 0.11276408 0.28021276
-0.13468145 0.1128497 0.28042552
-0.13426192 0.11297813 0.28074467
-0.13373977 0.11302095 0.28085107
-0.13316675 0.11302095 0.28085107
-0.13264395 0.11306377 0.28095746
-0.13212071 0.11310657 0.28106382
-0.13169663 0.113235 0.28138298
-0.13122167 0.11332062 0.28159574
-0.1307952 0.11344906 0.28191489
-0.13036743 0.11357749 0.28223404
-0.12993835 0.11370593 0.2825532
-0.12955667 0.11387716 0.28297871
-0.12912476 0.1140056 0.28329787
-0.12869157 0.11413404 0.28361702
-0.12825707 0.11426247 0.28393617
-0.12782127 0.1143909 0.28425533
-0.127527 0.11464776 0.2848936
-0.12718275 0.11486182 0.28542554
-0.12678914 0.11503306 0.28585106
-0.085252061 0.078429684 0.19489361
-0.084993377 0.078558125 0.19521277
-0.084825583 0.078772172 0.19574468
-0.08465562 0.078986228 0.19627659
-0.084437825 0.079157472 0.19670212
-0.084172837 0.079285905 0.19702128
-0.083816089 0.079328716 0.19712766
-0.083503917 0.079414345 0.19734043
-0.08310128 0.079414345 0.19734043
-0.082698643 0.079414345 0.19734043
-0.013517075 0.12462272 0.30968085
-0.012880803 0.12457991 0.30957446
-0.01227864 0.12487959 0.31031916
-0.011701384 0.12547894 0.3118085
-0.011121825 0.1261211 0.31340426
-0.01052508 0.12663484 0.31468084
-0.0099131037 0.12702014 0.3156383
-0.0092878481 0.127277 0.31627661
0.0052054944 0.096795596 0.24053192
0.0056937351 0.096752778 0.24042553
0.0061760694 0.096624352 0.24010639
0.0066541475 0.096453108 0.23968086
0.0071273185 0.096239045 0.23914893
0.0076084821 0.096153431 0.23893617
0.0080887768 0.096067801 0.2387234
0.0085720262 0.096024998 0.23861702
0.0090508014 0.095939375 0.23840426
0.0095287096 0.095853753 0.23819149
0.010005749 0.095768131 0.23797873
0.019429853 0.10762677 0.26744682
0.019816613 0.10677055 0.26531914
0.020317132 0.10655649 0.26478723
0.020840622 0.10647087 0.26457447
0.02139763 0.10655649 0.26478723
0.021946693 0.10659931 0.26489362
-0.15636402 0.11337884 0.28031915
-0.15602858 0.11355094 0.28074467
-0.15580922 0.11380912 0.28138298
-0.15558726 0.11406729 0.28202128
-0.15518726 0.11419637 0.28234044
-0.1546112 0.11419637 0.28234044
-0.1539771 0.11415334 0.28223404
-0.15328561 0.11406729 0.28202128
-0.15265259 0.11402425 0.28191489
-0.15213479 0.11406729 0.28202128
-0.13851909 0.11281947 0.27893618
-0.13794997 0.11281947 0.27893618
-0.13732845 0.11277644 0.27882978
-0.13681173 0.11281947 0.27893618
-0.13634653 0.11290552 0.27914894
-0.13593222 0.11303461 0.27946809
-0.13556813 0.11320671 0.27989361
-0.13515098 0.1133358 0.28021276
-0.13478364 0.11350792 0.28063831
-0.13431279 0.11359397 0.28085107
-0.13373977 0.11359397 0.28085107
-0.1331163 0.11355094 0.28074467
-0.1325435 0.11355094 0.28074467
-0.1320207 0.11359397 0.28085107
-0.13159706 0.11372306 0.28117022
-0.13117211 0.11385214 0.28148937
-0.1307952 0.11402425 0.28191489
-0.13036743 0.11415334 0.28223404
-0.12998725 0.11432544 0.28265956
-0.12955667 0.11445453 0.28297871
-0.12912476 0.11458361 0.28329787
-0.12869157 0.1147127 0.28361702
-0.12825707 0.11484179 0.28393617
-0.12782127 0.11497087 0.28425533
-0.12747939 0.11518601 0.28478724
-0.085298598 0.078870356 0.19499999
-0.08503969 0.078999445 0.19531915
-0.084825583 0.079171553 0.19574468
-0.08465562 0.079386696 0.19627659
-0.08439216 0.079515778 0.19659574
-0.084127389 0.079644866 0.1969149
-0.083770856 0.079687893 0.19702128
-0.0834589 0.079773955 0.19723405
-0.083056487 0.079773955 0.19723405
-0.082698643 0.079816975 0.19734043
-0.014226689 0.12594302 0.31138298
-0.013582083 0.12585697 0.31117022
-0.012942772 0.12581393 0.31106383
-0.012329152 0.12602907 0.31159574
-0.011717353 0.12628724 0.31223404
-0.0111105 0.12663147 0.31308511
-0.010500174 0.12697569 0.31393617
-0.0098863747 0.12731992 0.31478724
-0.0092534833 0.12744901 0.31510639
0.0052008894 0.097200297 0.24031915
0.0056912159 0.097200297 0.24031915
0.0061733327 0.097071208 0.23999999
0.0066511938 0.0968991 0.23957446
0.0071273185 0.096726984 0.23914893
0.0076084821 0.09664093 0.23893617
0.0080887768 0.096554875 0.2387234
0.0085720262 0.096511848 0.23861702
0.0090467632 0.096382767 0.23829788
0.0095244534 0.096296705 0.23808511
0.010001276 0.096210659 0.23787235
0.019468496 0.10838758 0.26797873
0.019824559 0.10735491 0.26542553
0.020341622 0.10722583 0.26510638
0.020882521 0.10722583 0.26510638
0.021440614 0.10731187 0.26531914
0.021990763 0.10735491 0.26542553
-0.15636402 0.11395077 0.28031915
-0.15596947 0.11408051 0.28063831
-0.15580922 0.11438322 0.28138298
-0.15552856 0.11459944 0.28191489
-0.15512879 0.11472918 0.28223404
-0.15455294 0.11472918 0.28223404
-0.15391906 0.11468593 0.28212765
-0.15328561 0.11464269 0.28202128
-0.152595 0.11455621 0.28180853
-0.15202001 0.11455621 0.28180853
-0.1390882 0.11338859 0.27893618
-0.13851909 0.11338859 0.27893618
-0.13789736 0.11334534 0.27882978
-0.13732845 0.11334534 0.27882978
-0.13675955 0.11334534 0.27882978
-0.13629457 0.11343183 0.27904254
-0.13588047 0.11356156 0.2793617
-0.13546507 0.1136913 0.27968085
-0.13515098 0.11390752 0.28021276
-0.13478364 0.11408051 0.28063831
-0.13431279 0.114167 0.28085107
-0.13373977 0.114167 0.28085107
-0.13306586 0.11408051 0.28063831
-0.13244306 0.11403726 0.28053191
-0.1319207 0.11408051 0.28063831
-0.13144769 0.114167 0.28085107
-0.13107294 0.11433997 0.28127658
-0.13069649 0.11451296 0.28170213
-0.13031828 0.11468593 0.28212765
-0.12998725 0.11490215 0.28265956
-0.12955667 0.11503189 0.28297871
-0.085415952 0.079008751 0.1943617
-0.085252061 0.079224974 0.19489361
-0.08503969 0.079397954 0.19531915
-0.084825583 0.079570934 0.19574468
-0.084563859 0.079700671 0.19606383
-0.084300824 0.079830408 0.19638298
-0.083991043 0.079916894 0.19659574
-0.083635151 0.079960138 0.19670212
-0.083323851 0.080046631 0.1969149
-0.082922086 0.080046631 0.1969149
-0.082520321 0.080046631 0.1969149
-0.01487724 0.12670808 0.31170213
-0.014265573 0.12692429 0.31223404
-0.013642449 0.12705404 0.3125532
-0.013013595 0.12714052 0.31276596
-0.012379664 0.12718377 0.31287235
-0.011737314 0.12714052 0.31276596
-0.011102949 0.12718377 0.31287235
-0.010478824 0.12735674 0.31329787
-0.0098596457 0.12761621 0.31393617
-0.0092284903 0.12774596 0.31425533
-0.0085844044 0.1277027 0.31414893
0.0047001373 0.097474396 0.23978724
0.0051916805 0.097517639 0.23989362
0.0056836577 0.097560883 0.23999999
0.0061705965 0.097517639 0.23989362
0.0066511938 0.097387902 0.23957446
0.0071273185 0.097214922 0.23914893
0.0076084821 0.097128436 0.23893617
0.0080887768 0.097041942 0.2387234
0.008568204 0.096955456 0.23851064
0.0090467632 0.09686897 0.23829788
0.0095244534 0.096782476 0.23808511
0.010005749 0.096739233 0.23797873
0.019453039 0.10884786 0.26776597
0.019832505 0.10793971 0.26553193
0.020357946 0.10785321 0.26531914
0.020899279 0.10785321 0.26531914
0.021449212 0.10789646 0.26542553
0.021999577 0.10793971 0.26553193
-0.15630469 0.11447924 0.28021276
-0.15596947 0.1146531 0.28063831
-0.1557503 0.11491387 0.28127658
-0.15546988 0.11513118 0.28180853
-0.15501185 0.11521811 0.28202128
-0.15449467 0.11526156 0.28212765
-0.15386102 0.11521811 0.28202128
-0.15322778 0.11517464 0.28191489
-0.15265259 0.11517464 0.28191489
-0.15207739 0.11517464 0.28191489
-0.13903515 0.11391424 0.27882978
-0.13846625 0.11391424 0.27882978
-0.13784474 0.11387078 0.27872342
-0.13727607 0.11387078 0.27872342
-0.13670738 0.11387078 0.27872342
-0.13619065 0.11391424 0.27882978
-0.13577698 0.11404463 0.27914894
-0.13536201 0.11417501 0.27946809
-0.13504836 0.11439233 0.28
-0.13468145 0.11456617 0.28042552
-0.13426192 0.11469655 0.28074467
-0.13368911 0.11469655 0.28074467
-0.13306586 0.1146531 0.28063831
-0.13239282 0.11456617 0.28042552
-0.13182066 0.11456617 0.28042552
-0.1313481 0.1146531 0.28063831
-0.13087466 0.11474002 0.28085107
-0.13054842 0.11495733 0.28138298
-0.085342817 0.078970693 0.19329788
-0.085322447 0.079318389 0.19414894
-0.085205533 0.07957916 0.19478723
-0.084993377 0.079753004 0.19521277
-0.084733382 0.079883397 0.19553192
-0.084426202 0.079970315 0.19574468
-0.084163822 0.080100708 0.19606383
-0.083809242 0.080144167 0.19617021
-0.083408989 0.080144167 0.19617021
-0.08305376 0.080187626 0.19627659
-0.082742892 0.080274552 0.19648936
-0.082341991 0.080274552 0.19648936
-0.081852362 0.080187626 0.19627659
-0.014862007 0.12721366 0.31138298
-0.014275294 0.12764826 0.3124468
-0.013674952 0.12799597 0.31329787
-0.013049006 0.12812635 0.31361702
-0.01240492 0.12808289 0.31351063
-0.011749291 0.12790905 0.31308511
-0.011099174 0.12777866 0.31276596
-0.010464592 0.12782213 0.31287235
-0.0098362584 0.12795252 0.3131915
-0.009206621 0.12808289 0.31351063
-0.008564055 0.12803943 0.31340426
-0.0079192324 0.12795252 0.3131915
0.0046917964 0.097789794 0.2393617
0.0051824711 0.097833253 0.23946808
0.0056735803 0.097876713 0.23957446
0.0061623869 0.097876713 0.23957446
0.0066452869 0.097789794 0.2393617
0.0071273185 0.097702861 0.23914893
0.0076084821 0.097615942 0.23893617
0.0080887768 0.097529016 0.2387234
0.008568204 0.097442091 0.23851064
0.0090467632 0.097355172 0.23829788
0.0095287096 0.097311705 0.23819149
0.010014694 0.097311705 0.23819149
0.019391209 0.10904649 0.2669149
0.019840449 0.10852493 0.26563829
0.02036611 0.10843801 0.26542553
0.020890901 0.10835109 0.26521277
0.021432018 0.10835109 0.26521277
0.021973135 0.10835109 0.26521277
-0.15636402 0.11509465 0.28031915
-0.15602858 0.11526936 0.28074467
-0.15580922 0.11553144 0.28138298
-0.15541118 0.11566248 0.28170213
-0.15495336 0.11574984 0.28191489
-0.15437818 0.11574984 0.28191489
-0.15380298 0.11574984 0.28191489
-0.15322778 0.11574984 0.28191489
-0.1527102 0.11579352 0.28202128
-0.15213479 0.11579352 0.28202128
-0.13892905 0.11439578 0.27861702
-0.13836059 0.11439578 0.27861702
-0.13773951 0.1143521 0.27851063
-0.13717127 0.1143521 0.27851063
-0.1366552 0.11439578 0.27861702
-0.13608673 0.11439578 0.27861702
-0.13562176 0.11448314 0.27882978
-0.13525897 0.11465786 0.27925533
-0.13489443 0.11483257 0.27968085
-0.13452817 0.1150073 0.2801064
-0.13410929 0.11513832 0.28042552
-0.13363846 0.11522569 0.28063831
-0.13306586 0.11522569 0.28063831
-0.13244306 0.115182 0.28053191
-0.13182066 0.11513832 0.28042552
-0.1312485 0.11513832 0.28042552
-0.13077551 0.11522569 0.28063831
-0.085278332 0.078578852 0.19138297
-0.085218154 0.078884609 0.19212766
-0.08524888 0.079277717 0.1930851
-0.085228942 0.079627149 0.19393617
-0.085158996 0.079932906 0.19468085
-0.084900737 0.080063939 0.19499999
-0.08454898 0.080107622 0.19510639
-0.084242664 0.08019498 0.19531915
-0.083935492 0.080282338 0.19553192
-0.083581991 0.080326021 0.1956383
-0.083182834 0.080326021 0.1956383
-0.082828678 0.080369696 0.19574468
-0.082518898 0.080457062 0.19595745
-0.082163669 0.080500737 0.19606383
-0.081719272 0.080457062 0.19595745
-0.081187017 0.080326021 0.1956383
-0.079664886 0.080806494 0.19680852
-0.079391859 0.080937527 0.19712766
-0.079160176 0.081112243 0.19755319
-0.078799516 0.081155926 0.19765958
-0.015423201 0.12723745 0.30989361
-0.01483662 0.12763058 0.31085107
-0.014265573 0.1281984 0.31223404
-0.013674952 0.1286352 0.31329787
-0.013057859 0.12885359 0.31382978
-0.012417547 0.12885359 0.31382978
-0.011761269 0.12867887 0.31340426
-0.011102949 0.12846048 0.31287235
-0.010457475 0.12837312 0.31265956
-0.0098195523 0.12837312 0.31265956
-0.0091816289 0.12837312 0.31265956
-0.0085407989 0.12832944 0.3125532
-0.0079030925 0.12832944 0.3125532
-0.0072728056 0.12846048 0.31287235
-0.0066457274 0.12867887 0.31340426
0.0046855407 0.098147124 0.23904255
0.005175564 0.098190799 0.23914893
0.0056660222 0.098234482 0.23925532
0.0061569144 0.098278165 0.2393617
0.00663938 0.098190799 0.23914893
0.0071241478 0.098147124 0.23904255
0.0076050945 0.098059766 0.23882979
0.0080887768 0.098016083 0.2387234
0.008568204 0.097928733 0.23851064
0.0090548405 0.097928733 0.23851064
0.0095372209 0.09788505 0.23840426
0.010028113 0.097928733 0.23851064
0.01932938 0.10924164 0.26606384
0.019832505 0.10902325 0.26553193
0.020349784 0.10889221 0.26521277
0.020865763 0.10876117 0.26489362
0.021389034 0.10867381 0.26468086
0.021929067 0.10867381 0.26468086
-0.15681686 0.1155788 0.2801064
-0.15642336 0.11571047 0.28042552
-0.15614684 0.11592997 0.28095746
-0.15580922 0.11610555 0.28138298
-0.15535249 0.11619334 0.28159574
-0.15483642 0.11623724 0.28170213
-0.15426166 0.11623724 0.28170213
-0.15374495 0.11628114 0.28180853
-0.15322778 0.11632503 0.28191489
-0.15276779 0.11641282 0.28212765
-0.15224956 0.11645672 0.28223404
-0.13887601 0.11492035 0.27851063
-0.13825494 0.11487646 0.27840427
-0.13768691 0.11487646 0.27840427
-0.13711888 0.11487646 0.27840427
-0.13655084 0.11487646 0.27840427
-0.13603477 0.11492035 0.27851063
-0.13551827 0.11496425 0.27861702
-0.13510439 0.11509594 0.27893618
-0.13479182 0.11531542 0.27946809
-0.13442598 0.115491 0.27989361
-0.13400754 0.11562269 0.28021276
-0.13358779 0.11575438 0.28053191
-0.1331163 0.11584217 0.28074467
-0.13259372 0.11588607 0.28085107
-0.1320207 0.11588607 0.28085107
-0.13139789 0.11584217 0.28074467
-0.086209506 0.07874985 0.19085106
-0.085915789 0.078837648 0.19106384
-0.085621193 0.078925438 0.19127659
-0.085373141 0.079057127 0.19159575
-0.085265338 0.079320498 0.19223404
-0.08524888 0.079671673 0.1930851
-0.085228942 0.080022842 0.19393617
-0.085019387 0.08019843 0.1943617
-0.084715471 0.08028622 0.19457448
-0.084364578 0.080330119 0.19468085
-0.084013246 0.08037401 0.19478723
-0.083661489 0.080417909 0.19489361
-0.083309293 0.0804618 0.19499999
-0.082911432 0.0804618 0.19499999
-0.082513571 0.0804618 0.19499999
-0.082250103 0.080593489 0.19531915
-0.08198534 0.080725186 0.1956383
-0.081630543 0.080769077 0.19574468
-0.081142865 0.080681287 0.19553192
-0.080699988 0.080637388 0.19542553
-0.080344975 0.080681287 0.19553192
-0.080163509 0.080900766 0.19606383
-0.079979874 0.081120245 0.19659574
-0.079707943 0.081251934 0.1969149
-0.079434715 0.081383631 0.19723405
-0.079117544 0.081471421 0.19744681
-0.078714691 0.081471421 0.19744681
-0.07818526 0.081339724 0.19712766
-0.07748922 0.081032455 0.19638298
-0.014831542 0.1282209 0.31074467
-0.014250991 0.12870377 0.31191489
-0.013661021 0.12914273 0.31297871
-0.013044579 0.12936221 0.31351063
-0.012409129 0.12940611 0.31361702
-0.011761269 0.12931833 0.31340426
-0.011106724 0.12914273 0.31297871
-0.010457475 0.12901103 0.31265956
-0.0098095294 0.12887935 0.31234044
-0.0091597605 0.12870377 0.31191489
-0.0085175429 0.12861598 0.31170213
-0.0078815734 0.12861598 0.31170213
-0.0072579677 0.12883545 0.31223404
-0.0066344482 0.12909885 0.31287235
0.0046855407 0.098634847 0.23904255
0.005175564 0.098678738 0.23914893
0.0056609833 0.098634847 0.23904255
0.0061487048 0.098634847 0.23904255
0.0066334731 0.098590948 0.23893617
0.0071146362 0.098503157 0.2387234
0.0075983191 0.098459259 0.23861702
0.0080851726 0.098459259 0.23861702
0.0085720262 0.098459259 0.23861702
0.0090588788 0.098459259 0.23861702
0.0095499875 0.098503157 0.2387234
0.010041531 0.098547056 0.23882979
0.018989338 0.11096969 0.26893616
0.019298464 0.1096089 0.26563829
0.019816613 0.10947721 0.26531914
0.020317132 0.10925774 0.26478723
0.020823862 0.10908215 0.26436171
0.021354645 0.10903826 0.26425532
-0.15681686 0.1161503 0.2801064
-0.15648271 0.11632675 0.28053191
-0.15614684 0.11650321 0.28095746
-0.1557503 0.11663554 0.28127658
-0.15529381 0.11672378 0.28148937
-0.15477794 0.11676788 0.28159574
-0.1542034 0.11676788 0.28159574
-0.15374495 0.11685612 0.28180853
-0.15328561 0.11694434 0.28202128
-0.15288301 0.11707668 0.28234044
-0.15242173 0.11716491 0.2825532
-0.13949753 0.11553271 0.27861702
-0.13887601 0.1154886 0.27851063
-0.13825494 0.11544449 0.27840427
-0.13763429 0.11540037 0.27829787
-0.13706647 0.11540037 0.27829787
-0.13649866 0.11540037 0.27829787
-0.13593085 0.11540037 0.27829787
-0.13546652 0.1154886 0.27851063
-0.13505284 0.11562094 0.27882978
-0.1346892 0.1157974 0.27925533
-0.13432379 0.11597385 0.27968085
-0.1339058 0.11610619 0.28
-0.13353713 0.11628263 0.28042552
-0.13316675 0.11645909 0.28085107
-0.1327444 0.11659143 0.28117022
-0.13222073 0.11663554 0.28127658
-0.13174643 0.11672378 0.28148937
-0.086454086 0.079006903 0.19053191
-0.08616145 0.079095133 0.19074468
-0.085915789 0.079227477 0.19106384
-0.085716441 0.079403929 0.19148937
-0.08551535 0.079580374 0.19191489
-0.085406899 0.079845063 0.19255319
-0.085295841 0.080109738 0.19319148
-0.085135438 0.080330305 0.19372341
-0.084879786 0.080462642 0.19404255
-0.084483877 0.080462642 0.19404255
-0.084087968 0.080462642 0.19404255
-0.083737947 0.080506764 0.19414894
-0.083433159 0.080594987 0.1943617
-0.083036594 0.080594987 0.1943617
-0.082594804 0.080550872 0.19425532
-0.08224348 0.080594987 0.1943617
-0.081981316 0.080727324 0.19468085
-0.081762433 0.080903783 0.19510639
-0.081497446 0.081036113 0.19542553
-0.081098713 0.081036113 0.19542553
-0.080699988 0.081036113 0.19542553
-0.080344975 0.081080236 0.19553192
-0.080120012 0.081256688 0.19595745
-0.079936594 0.081477255 0.19648936
-0.079707943 0.081653707 0.1969149
-0.079434715 0.081786044 0.19723405
-0.079074919 0.081830159 0.19734043
-0.078545049 0.081697814 0.19702128
-0.077889904 0.08143314 0.19638298
-0.077111423 0.081036113 0.19542553
-0.014841698 0.12894316 0.31095746
-0.014250991 0.12934017 0.31191489
-0.013656379 0.1297372 0.31287235
-0.013040153 0.12995777 0.31340426
-0.012409129 0.13004598 0.31361702
-0.011769253 0.13004598 0.31361702
-0.011121825 0.12995777 0.31340426
-0.01046815 0.12978131 0.31297871
-0.0098095294 0.12951663 0.31234044
-0.0091535123 0.12925194 0.31170213
-0.008500101 0.12898727 0.31106383
-0.0078600533 0.12889904 0.31085107
-0.0072357114 0.12907548 0.31127658
-0.0066186567 0.1294284 0.31212765
0.0046897111 0.099210799 0.23925532
0.005175564 0.099166676 0.23914893
0.005658464 0.099078454 0.23893617
0.0061404957 0.098990224 0.2387234
0.0066216593 0.098902002 0.23851064
0.0071051251 0.098857887 0.23840426
0.0075915442 0.098857887 0.23840426
0.0080779633 0.098857887 0.23840426
0.008568204 0.098902002 0.23851064
0.0090588788 0.098946117 0.23861702
0.0095542446 0.099034347 0.23882979
0.010046004 0.099078454 0.23893617
0.018816572 0.11050379 0.26648936
0.019275278 0.11001854 0.26531914
0.019784831 0.1098421 0.26489362
0.020284483 0.10962153 0.26436171
0.020781964 0.10940097 0.2638298
0.021311661 0.10935685 0.2637234
-0.15720904 0.11658882 0.27978724
-0.1567573 0.11667747 0.28
-0.15642336 0.11685479 0.28042552
-0.15608771 0.11703212 0.28085107
-0.15569142 0.11716511 0.28117022
-0.15523511 0.11725377 0.28138298
-0.15471949 0.1172981 0.28148937
-0.1542034 0.11734243 0.28159574
-0.15374495 0.1174311 0.28180853
-0.15334342 0.11756407 0.28212765
-0.15299822 0.11774141 0.2825532
-0.1525365 0.11783006 0.28276595
-0.13955079 0.11614551 0.27872342
-0.13887601 0.11605684 0.27851063
-0.1382021 0.11596819 0.27829787
-0.13758168 0.11592385 0.27819148
-0.13696168 0.11587953 0.27808511
-0.13644648 0.11592385 0.27819148
-0.13593085 0.11596819 0.27829787
-0.13546652 0.11605684 0.27851063
-0.13505284 0.11618984 0.27882978
-0.13463788 0.11632283 0.27914894
-0.13422161 0.11645582 0.27946809
-0.13385491 0.11663314 0.27989361
-0.13348648 0.11681046 0.28031915
-0.13316675 0.11703212 0.28085107
-0.13279462 0.11720943 0.28127658
-0.13237076 0.11734243 0.28159574
-0.13194558 0.11747542 0.28191489
-0.13151911 0.11760841 0.28223404
-0.086113401 0.079439983 0.1906383
-0.085820109 0.079528645 0.19085106
-0.085573576 0.079661638 0.19117022
-0.08546795 0.079927616 0.19180851
-0.085359715 0.080193602 0.19244681
-0.085201912 0.080415249 0.19297872
-0.08499518 0.080592573 0.19340426
-0.08469364 0.080681227 0.19361702
-0.084298603 0.080681227 0.19361702
-0.083903566 0.080681227 0.19361702
-0.083554417 0.080725566 0.19372341
-0.083204821 0.080769897 0.19382979
-0.082809351 0.080769897 0.19382979
-0.082368642 0.080725566 0.19372341
-0.082018405 0.080769897 0.19382979
-0.081712522 0.080858551 0.19404255
-0.081539527 0.081080206 0.19457448
-0.081275627 0.081213191 0.19489361
-0.080966279 0.081301861 0.19510639
-0.080568202 0.081301861 0.19510639
-0.080213837 0.081346184 0.19521277
-0.079989523 0.081523508 0.1956383
-0.079806753 0.081745163 0.19617021
-0.079578757 0.081922479 0.19659574
-0.07926333 0.082011148 0.19680852
-0.078819148 0.08196681 0.19670212
-0.078205764 0.081745163 0.19617021
-0.077467963 0.081390515 0.19531915
-0.076691657 0.080991544 0.1943617
-0.076086305 0.080769897 0.19382979
-0.036009785 0.13276939 0.31861702
-0.035064552 0.13166113 0.31595746
-0.034315597 0.13126215 0.315
-0.03361604 0.13104051 0.31446809
-0.032907493 0.13077453 0.31382978
-0.014270434 0.13015391 0.31234044
-0.013665666 0.13046421 0.31308511
-0.013049006 0.13068587 0.31361702
-0.012421758 0.13081886 0.31393617
-0.011785221 0.13086317 0.31404254
-0.011140701 0.13081886 0.31393617
-0.010485941 0.13064153 0.31351063
-0.0098228939 0.13033122 0.31276596
-0.0091597605 0.12997657 0.31191489
-0.008500101 0.12962194 0.31106383
-0.0078492928 0.12935595 0.31042552
-0.0072208745 0.12944461 0.31063831
0.0046897111 0.099698953 0.23925532
0.0051732617 0.099610291 0.23904255
0.0056534251 0.099477299 0.2387234
0.0061322865 0.099344306 0.23840426
0.0066127987 0.099255644 0.23819149
0.0070956135 0.09921132 0.23808511
0.0075813816 0.09921132 0.23808511
0.0080707539 0.099255644 0.23819149
0.0085605606 0.099299982 0.23829788
0.0090508014 0.099344306 0.23840426
0.0095457323 0.099432968 0.23861702
0.010041531 0.09952163 0.23882979
0.018185318 0.11051556 0.26521277
0.018718921 0.11047123 0.26510638
0.019244365 0.11038256 0.26489362
0.019753046 0.11020524 0.26446807
0.020243669 0.10993926 0.2638298
0.020748444 0.10976194 0.26340425
0.021260079 0.10962895 0.2630851
-0.15708947 0.11707056 0.27957445
-0.15669772 0.11720421 0.27989361
-0.15636402 0.11738241 0.28031915
-0.15602858 0.11756059 0.28074467
-0.1556325 0.11769424 0.28106382
-0.15511774 0.11773878 0.28117022
-0.15460253 0.11778332 0.28127658
-0.15414515 0.11787243 0.28148937
-0.15374495 0.11800607 0.28180853
-0.15334342 0.11813971 0.28212765
-0.15299822 0.1183179 0.2825532
-0.13949753 0.11666965 0.27861702
-0.13887601 0.11662509 0.27851063
-0.13814928 0.11649145 0.27819148
-0.13747644 0.11640236 0.27797872
-0.13690929 0.11640236 0.27797872
-0.13639431 0.11644691 0.27808511
-0.13593085 0.116536 0.27829787
-0.13551827 0.11666965 0.27861702
-0.13505284 0.11675874 0.27882978
-0.13463788 0.11689238 0.27914894
-0.13417052 0.11698148 0.2793617
-0.13380404 0.11715967 0.27978724
-0.13343582 0.11733785 0.28021276
-0.1331163 0.11756059 0.28074467
-0.13279462 0.11778332 0.28127658
-0.13237076 0.11791697 0.28159574
-0.13194558 0.11805061 0.28191489
-0.1315687 0.11822881 0.28234044
-0.13119005 0.11840699 0.28276595
-0.085676596 0.079784393 0.19053191
-0.085383095 0.079873495 0.19074468
-0.085183531 0.080051683 0.19117022
-0.0850766 0.080318965 0.19180851
-0.084967069 0.080586255 0.19244681
-0.084808171 0.08080899 0.19297872
-0.084507503 0.080898076 0.19319148
-0.084159657 0.080942631 0.19329788
-0.083765268 0.080942631 0.19329788
-0.08341676 0.080987178 0.19340426
-0.083067819 0.081031725 0.19351064
-0.082718447 0.081076272 0.19361702
-0.08232341 0.081076272 0.19361702
-0.081928365 0.081076272 0.19361702
-0.081622928 0.081165366 0.19382979
-0.081361204 0.081299014 0.19414894
-0.081053801 0.081388101 0.1943617
-0.080701388 0.081432648 0.19446808
-0.080260687 0.081388101 0.1943617
-0.079864129 0.081388101 0.1943617
-0.079598062 0.081521749 0.19468085
-0.079460524 0.081789032 0.19531915
-0.079234257 0.08196722 0.19574468
-0.078920573 0.082056314 0.19595745
-0.078435495 0.08196722 0.19574468
-0.077866472 0.081789032 0.19531915
-0.077130407 0.081432648 0.19446808
-0.076439798 0.081120819 0.19372341
-0.036623143 0.13328582 0.31829786
-0.035793368 0.13261761 0.31670213
-0.034970105 0.13194941 0.31510639
-0.034234475 0.13159303 0.31425533
-0.033525061 0.13132574 0.31361702
-0.032807101 0.13101391 0.31287235
-0.032037485 0.13047934 0.31159574
-0.031240918 0.12981112 0.31
-0.030398345 0.12892018 0.30787235
-0.029626172 0.12829652 0.30638298
-0.013698169 0.13141483 0.31382978
-0.013071137 0.13154848 0.31414893
-0.012442804 0.13168211 0.31446809
-0.011809175 0.13177121 0.31468084
-0.011163353 0.13172667 0.31457448
-0.01050729 0.13154848 0.31414893
-0.0098429406 0.13123664 0.31340426
-0.0091785053 0.13088027 0.3125532
0.0046876254 0.10014255 0.23914893
0.00517096 0.10005347 0.23893617
0.0056483867 0.099875271 0.23851064
0.0061240774 0.099697083 0.23808511
0.0066039385 0.099607989 0.23787235
0.0070861019 0.099563442 0.23776595
0.0075712185 0.099563442 0.23776595
0.0080563352 0.099563442 0.23776595
0.0085452739 0.099607989 0.23787235
0.0090386858 0.099697083 0.23808511
0.0095287096 0.09974163 0.23819149
0.010019167 0.099786185 0.23829788
0.018170726 0.11096757 0.26499999
0.018703898 0.11092303 0.26489362
0.019221177 0.11078939 0.26457447
0.019721264 0.11056665 0.26404256
0.020211017 0.11029936 0.26340425
0.020714926 0.11012118 0.26297873
0.021234289 0.11003207 0.26276594
-0.15691015 0.11750671 0.27925533
-0.15663818 0.11773052 0.27978724
-0.15636402 0.11795434 0.28031915
-0.15602858 0.1181334 0.28074467
-0.15557361 0.11822294 0.28095746
-0.15500036 0.11822294 0.28095746
-0.15454406 0.11831246 0.28117022
-0.15402862 0.11835722 0.28127658
-0.15362886 0.11849152 0.28159574
-0.15322778 0.1186258 0.28191489
-0.15288301 0.11880487 0.28234044
-0.13939101 0.11714859 0.27840427
-0.13876992 0.11710382 0.27829787
-0.13804361 0.11696952 0.27797872
-0.13742384 0.11692476 0.27787235
-0.1368569 0.11692476 0.27787235
-0.13639431 0.11701429 0.27808511
-0.13598281 0.11714859 0.27840427
-0.13557002 0.11728288 0.27872342
-0.13510439 0.11737241 0.27893618
-0.13458657 0.11741716 0.27904254
-0.13417052 0.11755146 0.2793617
-0.13375317 0.11768576 0.27968085
-0.13338517 0.11786482 0.2801064
-0.13301542 0.11804387 0.28053191
-0.13264395 0.11822294 0.28095746
-0.13222073 0.11835722 0.28127658
-0.13179621 0.11849152 0.28159574
-0.13141997 0.11867058 0.28202128
-0.13104197 0.11884963 0.2824468
-0.1304657 0.11884963 0.2824468
-0.12988941 0.11884963 0.2824468
-0.085144997 0.080038853 0.19021277
-0.084851705 0.080128379 0.19042553
-0.084746301 0.080396965 0.19106384
-0.084732212 0.080755077 0.19191489
-0.084667914 0.081068426 0.19265957
-0.084460966 0.081247486 0.1930851
-0.084159657 0.08133702 0.19329788
-0.083811365 0.081381783 0.19340426
-0.083462641 0.081426546 0.19351064
-0.083159156 0.08151608 0.19372341
-0.082809351 0.081560843 0.19382979
-0.082459107 0.081605606 0.19393617
-0.082063414 0.081605606 0.19393617
-0.081667729 0.081605606 0.19393617
-0.081316613 0.081650369 0.19404255
-0.080920711 0.081650369 0.19404255
-0.080436513 0.081560843 0.19382979
-0.079909243 0.081426546 0.19351064
-0.079470709 0.081381783 0.19340426
-0.079163097 0.081471309 0.19361702
