# .PCD v0.7 - Point Cloud Data file format
VERSION 0.7
FIELDS x y z
SIZE 4 4 4
TYPE F F F
COUNT 1 1 1
WIDTH 1388
HEIGHT 1
VIEWPOINT 0 0 0 1 0 0 0
POINTS 1388
DATA ascii
-0.087663941 0.081193544 0.31123042
-0.087651499 0.081083387 0.31124175
-0.087653317 0.081084304 0.31125724
-0.024831245 0.080912612 0.30831915
-0.024817938 0.080911204 0.30832624
-0.024798481 0.081011847 0.30833131
-0.024778886 0.081167266 0.30833584
-0.02477234 0.081174426 0.30833915
0.038466044 0.080255911 0.30265042
0.038466044 0.080255918 0.30265042
0.038466044 0.080255911 0.30265039
0.14067544 0.076358885 0.29001927
0.14067522 0.076259159 0.28998712
0.14068362 0.076284699 0.28997403
0.14069071 0.076279223 0.28996608
0.14069505 0.076245867 0.28997186
0.14070724 0.076247625 0.28996673
0.14072099 0.076276958 0.28994563
0.14072892 0.076313853 0.28993788
0.14073913 0.07629241 0.28995213
-0.087652043 0.08179044 0.31119353
-0.087658376 0.081753246 0.31115434
-0.087658376 0.081753239 0.31115434
-0.087658376 0.081753246 0.3111544
-0.087645009 0.081588261 0.31117228
-0.087646328 0.081526831 0.31119022
-0.024803404 0.081532307 0.30822247
-0.02479035 0.081530921 0.30823001
-0.024767039 0.081685662 0.30822909
-0.024755217 0.081692718 0.30825007
-0.024747629 0.081798188 0.30824319
0.038490862 0.080688469 0.30256826
0.038490869 0.080688462 0.30256826
0.038490869 0.080688462 0.30256823
0.14068133 0.076849669 0.28985155
0.14068764 0.076818489 0.28982767
0.1406939 0.076813012 0.28981936
0.14069824 0.076780178 0.28982553
0.14071082 0.076781772 0.28982052
0.1407205 0.076783814 0.28981724
0.14073098 0.076813065 0.28979716
0.14074913 0.076818816 0.2897948
-0.087657891 0.082259335 0.31108543
-0.087653436 0.08231952 0.31107908
-0.087653443 0.08231952 0.31107908
-0.087653443 0.08231952 0.31107908
-0.087641045 0.082154699 0.31110218
-0.087640911 0.081968777 0.31113625
-0.024784131 0.08231011 0.30810705
-0.024774363 0.082306601 0.30811304
-0.024768375 0.082253277 0.30812246
-0.024743544 0.08231166 0.30814415
-0.024727568 0.082371116 0.30816007
0.038501751 0.081084833 0.30256179
0.038507756 0.081203438 0.30243781
0.038505137 0.081283547 0.3024523
0.038505141 0.081283547 0.30245227
0.14069144 0.077399001 0.28976926
0.14067969 0.077387363 0.28968638
0.14068858 0.07737273 0.28966439
0.14069271 0.077340148 0.28967074
0.14071204 0.077309325 0.28967279
0.14072464 0.077336974 0.2896494
0.14073525 0.077364676 0.28962585
0.14075553 0.077410132 0.28961363
-0.087651461 0.082829334 0.31100294
-0.087646998 0.082890622 0.31099695
-0.08764226 0.083012149 0.31102651
-0.087642267 0.083012156 0.31102651
-0.087632477 0.08278773 0.31103685
-0.087633267 0.082597747 0.31104618
-0.024781553 0.08293508 0.30803439
-0.024768645 0.082984626 0.30804208
-0.024758738 0.082979679 0.30804422
-0.024752392 0.082924977 0.3080478
-0.024733359 0.082983978 0.30805829
0.038519748 0.081720568 0.30235559
0.0385263 0.081704102 0.30235058
0.0385263 0.081704102 0.30235058
0.0385263 0.081704102 0.30235058
0.14071648 0.077921063 0.28966033
0.14067587 0.077943288 0.28953451
0.14068374 0.077928625 0.28951254
0.14068736 0.077896133 0.28951824
0.14070588 0.077865079 0.28951842
0.14072226 0.077915683 0.28947425
0.14073397 0.077943757 0.2894527
0.14075522 0.077998295 0.28944352
0.14078328 0.077943347 0.28942761
-0.087651417 0.083300114 0.31094959
-0.087633438 0.083419241 0.3109712
-0.087619543 0.083643965 0.31094214
-0.087619022 0.083699517 0.31093079
-0.087609418 0.083589502 0.31095517
-0.024759354 0.083566032 0.3080104
-0.024755694 0.083616234 0.30800679
-0.024759313 0.083505243 0.30801046
-0.024745744 0.083554879 0.30800632
-0.02474574 0.083554879 0.30800632
0.03853916 0.082206853 0.30219293
0.038539164 0.082206845 0.30219296
0.038539167 0.082206853 0.30219293
0.038539167 0.082206845 0.30219293
0.14070946 0.078374952 0.28951347
0.14067224 0.078462906 0.28939137
0.14068785 0.078470588 0.28935167
0.14070159 0.078487799 0.28932339
0.14071397 0.078488953 0.28931567
0.14072351 0.078490593 0.28930956
0.14073117 0.07849326 0.28930715
0.1407496 0.078483626 0.28931341
0.14077286 0.078465462 0.28931513
-0.087632075 0.083928786 0.31084442
-0.087628439 0.083930053 0.31087855
-0.087606773 0.084099144 0.31085759
-0.087584794 0.084274277 0.31084144
-0.087577552 0.084274419 0.31084204
-0.024719713 0.084292635 0.30797493
-0.024723521 0.084230535 0.30797443
-0.024706768 0.084278084 0.30796728
-0.024680763 0.084173761 0.30796835
-0.024676777 0.084179044 0.30796936
0.038550448 0.082705416 0.3020229
0.038550448 0.082705416 0.3020229
0.038550448 0.082705416 0.30202293
0.038550448 0.082705416 0.30202293
0.14067028 0.079009116 0.28930488
0.14069013 0.079048499 0.28919804
0.14069957 0.079012357 0.28920028
0.14071067 0.079007939 0.28919524
0.14071615 0.07903827 0.28918359
0.14072597 0.079039805 0.28917736
0.14073375 0.079042248 0.28917447
0.14075863 0.079018705 0.2891714
0.14076658 0.078911431 0.28920057
-0.087618694 0.084437184 0.31073862
-0.087594092 0.084612206 0.31075671
-0.087571666 0.084672056 0.31075233
-0.087556332 0.084785268 0.31073695
-0.08754085 0.084898435 0.31072098
-0.024698185 0.084597439 0.30795518
-0.024688624 0.08469329 0.307944
-0.024678456 0.084740572 0.30793422
-0.024651086 0.084735848 0.30791715
-0.024641961 0.084898114 0.30790552
0.038560141 0.083200045 0.30184057
0.03856013 0.083200045 0.30184057
0.03856013 0.083200052 0.3018406
0.038560126 0.083200052 0.30184057
0.14068042 0.079600327 0.28909737
0.14068872 0.079534769 0.28907424
0.14070484 0.079503007 0.28908342
0.14071639 0.079500586 0.28908381
0.14072247 0.079530895 0.28907317
0.14072807 0.079501301 0.28907695
0.14073728 0.079502665 0.28907242
0.14074439 0.079504974 0.28907123
0.140762 0.079509102 0.28906715
-0.087569714 0.085286565 0.31061047
-0.087555893 0.085290208 0.31062129
-0.087524004 0.085406601 0.3106055
-0.087504104 0.085518099 0.3105866
-0.087498903 0.085572146 0.31057215
-0.024661042 0.085206442 0.30789608
-0.024651811 0.085202388 0.30789194
-0.024625786 0.085346058 0.30786869
-0.024608763 0.08534351 0.30785835
-0.024600705 0.085394822 0.30784786
0.038560458 0.083858043 0.30167481
0.038560454 0.083858043 0.30167481
0.038560454 0.083858058 0.30167481
0.038560454 0.083858058 0.30167481
0.14067675 0.080117248 0.28893226
0.14068535 0.080056302 0.28895012
0.1406987 0.080056787 0.28895444
0.1407029 0.080025837 0.28896323
0.14070289 0.080025844 0.28896326
0.140729 0.080025621 0.28896257
0.14074744 0.079996288 0.28896883
0.14075185 0.080027647 0.28896168
0.14077888 0.080061361 0.28895101
-0.087525502 0.085793443 0.31050953
-0.087499149 0.085913502 0.31049469
-0.087478071 0.086024441 0.31047189
-0.08745686 0.086135224 0.31044856
-0.087451532 0.08618962 0.31043383
-0.024620892 0.085811526 0.30783212
-0.024615364 0.085759319 0.30783671
-0.024588156 0.085907251 0.30781275
-0.024573136 0.086003907 0.30780521
-0.024559485 0.085958093 0.30778986
-0.02454379 0.085961126 0.3077673
0.038577765 0.084497899 0.30148274
0.038577773 0.084497906 0.30148271
0.038577765 0.084497906 0.30148274
0.038577765 0.084497884 0.30148271
0.14068381 0.080612496 0.28882444
0.14069311 0.080551587 0.28884062
0.14069788 0.080581337 0.28883547
0.14070241 0.080550686 0.28884533
0.14070244 0.080550686 0.2888453
0.1407301 0.080551252 0.28884771
0.14075451 0.080553621 0.2888492
0.14075755 0.080585323 0.28884274
0.14077453 0.080588698 0.28883797
-0.087468214 0.086471893 0.31037238
-0.087454222 0.086535238 0.31036466
-0.087432683 0.086646296 0.31034052
-0.087410852 0.08675696 0.31031516
-0.087406091 0.08681234 0.31030267
-0.024583505 0.086466379 0.30776393
-0.024578407 0.086414993 0.30777165
-0.024578402 0.086414993 0.30777162
-0.024566678 0.086465023 0.30775845
-0.024550481 0.08646743 0.30774334
-0.024540843 0.086470641 0.30773073
0.038592305 0.085282274 0.30123672
0.038588773 0.085355856 0.30121645
0.038595948 0.085129447 0.30130789
0.038598634 0.085303441 0.30127263
0.03860718 0.085231602 0.30129012
0.14068745 0.081139863 0.28871277
0.14069968 0.08110825 0.28872111
0.1406997 0.081108257 0.28872111
0.1407041 0.081077635 0.28873107
0.14071658 0.081076905 0.28873545
0.14072995 0.081016138 0.28874728
0.14075024 0.081108302 0.28872967
0.14075775 0.08110965 0.28872696
0.14077453 0.081112117 0.2887204
-0.087422639 0.087038271 0.31025758
-0.087419823 0.087218523 0.31023616
-0.087398939 0.087331548 0.31021485
-0.087369956 0.087387055 0.31019995
-0.087347433 0.087487161 0.3101564
-0.024580395 0.08717522 0.30768624
-0.024570046 0.087217435 0.30768856
-0.024553083 0.087211087 0.30769417
-0.024550596 0.087258495 0.30769134
-0.024532393 0.087262332 0.30768627
-0.024520306 0.087266371 0.30768159
-0.024493746 0.087223828 0.3076764
-0.024475681 0.087280847 0.30766374
0.038612019 0.085746571 0.30112654
0.038612019 0.085746564 0.30112654
0.038615044 0.085917823 0.30108964
0.038628057 0.085778087 0.30112943
0.14067687 0.081665941 0.288607
0.14069651 0.081662312 0.28860924
0.14071202 0.081630483 0.28861409
0.14071675 0.081599653 0.28862125
0.14073703 0.081625529 0.28861013
0.14073703 0.081625529 0.2886101
0.14075015 0.081626497 0.28860706
0.14075968 0.08162751 0.28860396
0.14077809 0.081628986 0.2885955
-0.087351069 0.087773867 0.31009826
-0.087342642 0.087716095 0.31010473
-0.087327585 0.088070363 0.31005883
-0.087317184 0.088187926 0.31004491
-0.087321743 0.088308185 0.31002998
-0.024508795 0.088125817 0.30757937
-0.024508692 0.088054784 0.30758953
-0.024498766 0.087942608 0.30760735
-0.024482548 0.088040434 0.30759996
-0.024474688 0.088092797 0.3075954
-0.024435455 0.088279486 0.30757815
-0.024415348 0.088340633 0.30757746
-0.024403146 0.088349096 0.30758306
0.038620982 0.086270541 0.30099085
0.038620979 0.086270534 0.30099085
0.038620975 0.086270541 0.30099082
0.038633935 0.086370081 0.3009783
0.14067636 0.0821862 0.28848892
0.14070274 0.082209326 0.28848144
0.14071093 0.082207464 0.28848264
0.1407274 0.082231745 0.28846884
0.14073221 0.08220043 0.28847301
0.14073803 0.082168899 0.28847548
0.14075027 0.082169145 0.28846994
0.14075924 0.0821696 0.28846496
0.14077197 0.082142264 0.2884652
0.1407854 0.082143217 0.28845596
-0.087344982 0.088129349 0.31005281
-0.087321743 0.08830817 0.31002995
-0.087321758 0.088308178 0.31002995
-0.087294593 0.088666037 0.30999464
-0.087300144 0.088843457 0.30997539
-0.024454271 0.088850282 0.30749989
-0.024437042 0.088936955 0.30748963
-0.024431635 0.088713296 0.30751243
-0.024423391 0.088757172 0.30750689
-0.024404315 0.088853054 0.30749854
-0.024385046 0.088948213 0.30748767
-0.024367681 0.089010008 0.30748773
0.038625035 0.08692053 0.30081329
0.038629666 0.086852781 0.30083734
0.038635232 0.086854652 0.30084312
0.038650416 0.086792529 0.3008734
0.14068274 0.0827526 0.28833967
0.14070034 0.082747705 0.28833812
0.14071251 0.082773037 0.28832799
0.1407221 0.08276891 0.28832215
0.14073338 0.082763799 0.28831267
0.14073983 0.082734481 0.28831607
0.14074518 0.082763918 0.28830549
0.14075392 0.082764305 0.28829914
0.14075963 0.082765147 0.28829408
0.14077492 0.082766682 0.28828344
-0.087315023 0.088698789 0.3099505
-0.087306529 0.088641986 0.30996349
-0.087304607 0.088904031 0.30996877
-0.0873046 0.088904053 0.3099688
-0.087296166 0.089559756 0.30990678
-0.024413539 0.089461356 0.30741531
-0.024402611 0.089387216 0.3074187
-0.024392121 0.089324161 0.30742171
-0.024383996 0.089366652 0.30741414
-0.024351133 0.089502215 0.30739689
-0.024343805 0.089605965 0.30738658
-0.024329025 0.08966735 0.30738413
0.038623564 0.087421283 0.30069074
0.038624447 0.087489113 0.3006742
0.038639214 0.087491438 0.3006815
0.038654011 0.087493777 0.30068868
0.14068006 0.083252579 0.28818533
0.14070062 0.083276421 0.28817564
0.14071093 0.083327606 0.28814968
0.14071926 0.083323963 0.28814626
0.14072998 0.083319679 0.28814059
0.14073618 0.083289891 0.28814864
0.14074196 0.083319172 0.2881386
0.14075103 0.083319627 0.28813234
0.14075719 0.083320513 0.28812724
0.14077346 0.083322227 0.2881169
-0.087284319 0.089350708 0.30985022
-0.087278426 0.089295559 0.30988243
-0.08727745 0.08960221 0.30987266
-0.08727745 0.08960221 0.30987266
-0.087294661 0.090438351 0.30978471
-0.024371097 0.0899349 0.30732727
-0.024353424 0.089924686 0.30732894
-0.02434556 0.089966521 0.3073214
-0.024326917 0.090059131 0.3073118
-0.02432174 0.090110131 0.30730709
-0.02431212 0.090119779 0.30730778
0.038645729 0.087781116 0.30062348
0.038646139 0.08784952 0.30060521
0.038660225 0.087982781 0.3005679
0.038660221 0.087982789 0.30056784
0.14068541 0.083802126 0.2880089
0.14070237 0.08379741 0.28800717
0.14071223 0.083848417 0.28798175
0.14072068 0.083845347 0.28797972
0.14073215 0.083841957 0.28797677
0.14073214 0.083841957 0.28797677
0.14074577 0.083842374 0.28797841
0.14075547 0.083842762 0.28797248
0.14076193 0.08384338 0.28796715
0.140773 0.083893947 0.28793228
-0.087288097 0.090006128 0.30977005
-0.087275609 0.08989466 0.30982012
-0.087266468 0.090254873 0.30980155
-0.087266482 0.090254858 0.30980155
-0.024334108 0.090435952 0.30725247
-0.024329331 0.090478107 0.30724534
-0.024321655 0.090519898 0.30723828
-0.024311163 0.090561427 0.30723169
-0.024303021 0.090611085 0.30722672
-0.024290487 0.090619825 0.30722821
0.038649999 0.088345997 0.30050781
0.03865416 0.088477872 0.30046594
0.03866243 0.088541351 0.30044237
0.038662437 0.088541351 0.30044237
0.14070007 0.084345244 0.28784034
0.14071369 0.084367476 0.28782743
0.1407274 0.084366642 0.28782609
0.1407391 0.08436396 0.28782475
0.14073952 0.084386051 0.28780267
0.14075373 0.084386811 0.28780559
0.1407644 0.084387437 0.28780052
0.14077137 0.084388018 0.28779513
0.14078277 0.084417298 0.28778267
-0.087263331 0.090712823 0.30970636
-0.087263897 0.090842731 0.30972466
-0.087260634 0.091016226 0.30970126
-0.087236583 0.091245279 0.30967802
-0.024312517 0.090815797 0.30718261
-0.024304349 0.090897866 0.30717751
-0.024298225 0.090984002 0.30716598
-0.02429077 0.091026306 0.30715981
-0.024282446 0.091074914 0.30715349
-0.024276946 0.091123737 0.30714604
0.038641196 0.089035511 0.30036142
0.038664356 0.089091867 0.3003189
0.038664356 0.089091882 0.30031887
0.038664356 0.089091882 0.3003189
0.14070484 0.08489304 0.28768003
0.14072914 0.084915705 0.28766921
0.1407389 0.084913254 0.28766847
0.14074591 0.084939621 0.28765798
0.14075215 0.084910788 0.28766769
0.14077275 0.0848822 0.28767201
0.14078183 0.084882312 0.28766647
0.14078563 0.084911771 0.28765827
0.14079137 0.084864475 0.28762242
-0.087231673 0.091757879 0.30956268
-0.087222092 0.09175662 0.30956095
-0.087209493 0.091869414 0.30954745
-0.087205574 0.091982611 0.30953318
-0.087158903 0.092631131 0.30941474
-0.02429281 0.091278054 0.3070966
-0.024277302 0.091269657 0.30711049
-0.024270181 0.091490544 0.30708539
-0.024270179 0.091490544 0.30708542
-0.024261717 0.09153825 0.30707821
-0.024251463 0.09154281 0.3070747
0.038649086 0.089546852 0.30027169
0.038661689 0.089698158 0.30018106
0.038665645 0.089634039 0.30019435
0.038671117 0.089692555 0.30014944
0.14072134 0.085472286 0.28753242
0.14073864 0.08544381 0.28754759
0.14075246 0.085468821 0.2875388
0.14076464 0.085466079 0.28753692
0.14077133 0.08543694 0.28754446
0.14077479 0.085429087 0.28752288
0.14078246 0.085428141 0.28751355
0.14078064 0.085447751 0.28748944
0.14079465 0.085435681 0.28745145
0.14079654 0.0853578 0.28744715
-0.08720506 0.09243957 0.3094345
-0.087200306 0.092495553 0.3094272
-0.087178215 0.092603378 0.30940616
-0.087166145 0.09266039 0.30939344
-0.087150425 0.092911743 0.30935273
-0.024266761 0.091602609 0.30703789
-0.024271471 0.09168981 0.307035
-0.024256209 0.091729894 0.30703428
-0.024249636 0.09195482 0.30701149
-0.024249636 0.091954798 0.30701146
-0.024241082 0.092001736 0.30700389
-0.024227681 0.092051759 0.3069894
0.038667873 0.090293653 0.30001229
0.038671933 0.090230137 0.30002511
0.038671937 0.090230137 0.30002511
0.1407344 0.086079746 0.2873911
0.14074412 0.086074844 0.28739911
0.14075518 0.086012319 0.28739113
0.14077061 0.086006373 0.2873708
0.1407821 0.086002685 0.28736508
0.14078519 0.085973151 0.28736582
0.14078517 0.085973151 0.28736582
0.1407876 0.085944206 0.28736877
0.14080015 0.085907876 0.287343
0.14079501 0.085760318 0.28734109
-0.08716359 0.093115956 0.3092874
-0.087149076 0.093224481 0.30926788
-0.087127797 0.093218386 0.30926228
-0.087123625 0.093334153 0.30924258
-0.087107189 0.09351974 0.30920464
-0.024245733 0.092014216 0.30698198
-0.024235774 0.092192203 0.30696619
-0.024231385 0.092238151 0.30695981
-0.02421896 0.092461877 0.30693042
-0.024210384 0.092508271 0.30692357
-0.02420469 0.092555121 0.30691662
-0.024202218 0.092650406 0.30690345
0.038668435 0.090823472 0.29989028
0.038672637 0.090760782 0.29990357
0.038679421 0.090824574 0.29986864
0.14074978 0.086578444 0.28730756
0.14076154 0.086602226 0.28730029
0.14077109 0.086539775 0.28729093
0.14077242 0.086530797 0.28727102
0.14078361 0.086497828 0.28725943
0.14079389 0.086494222 0.28725219
0.14079389 0.086494222 0.28725216
0.14080043 0.086436614 0.28725353
0.14080036 0.086379483 0.28725472
0.14081265 0.086144097 0.2872574
0.14081265 0.085993171 0.28725591
-0.087107867 0.09378615 0.30913496
-0.087098219 0.093838729 0.30912277
-0.087084249 0.093889654 0.3091076
-0.08707346 0.093948089 0.30909941
-0.087065354 0.094006374 0.30908796
-0.024211839 0.092790842 0.30688477
-0.024198864 0.092923798 0.30686137
-0.024188543 0.092965968 0.30684966
-0.024179904 0.093011692 0.30684292
-0.024171526 0.093105271 0.30683222
-0.024175154 0.093201295 0.30682388
-0.024170304 0.093157195 0.30682954
0.038683351 0.091353297 0.29974353
0.038687944 0.091290817 0.29975799
0.038688447 0.091227718 0.2997734
0.14076154 0.087129742 0.28720558
0.14077686 0.087125421 0.28719804
0.14077939 0.087064959 0.28720054
0.14079055 0.087001845 0.28719169
0.14079058 0.087001845 0.28719172
0.14079757 0.08703009 0.28718662
0.14080104 0.087001026 0.28718385
0.14080365 0.086971834 0.28718659
0.14081331 0.086844228 0.28715828
0.14082249 0.086756639 0.2871491
0.1408127 0.086576767 0.28716785
-0.087063074 0.09434361 0.30900207
-0.08704818 0.094449133 0.3089799
-0.087034233 0.094499446 0.30896446
-0.087016985 0.094617181 0.30895063
-0.087002523 0.094733492 0.3089346
-0.087002516 0.094733514 0.30893457
-0.024186349 0.093515255 0.30676818
-0.024178937 0.093557738 0.30675688
-0.024168132 0.093552589 0.3067466
-0.024151634 0.093546733 0.30673397
-0.024142986 0.093591742 0.30672726
-0.024137251 0.093637437 0.30672142
-0.024122385 0.093598999 0.30673569
0.038698491 0.091882557 0.29959902
0.038698487 0.091882564 0.29959905
0.03870485 0.091758654 0.29963511
0.14076783 0.087632395 0.28713617
0.14078227 0.087626837 0.28713021
0.14079033 0.087595634 0.28712884
0.14079718 0.087505355 0.28712723
0.14080051 0.087475829 0.28712395
0.14080745 0.087504402 0.28711912
0.14080748 0.087504402 0.28711915
0.14080992 0.087474965 0.28712142
0.14082521 0.087409824 0.28709269
0.14082001 0.087201208 0.2871094
-0.08701472 0.094952188 0.30886516
-0.086999968 0.09505672 0.30884287
-0.0869774 0.095166527 0.30882642
-0.086970754 0.095225662 0.30882028
-0.086966291 0.095284157 0.30880913
-0.086955287 0.095401198 0.30879274
-0.024143908 0.094181433 0.3066335
-0.024123069 0.094260253 0.30660379
-0.024131699 0.094168074 0.30661505
-0.024118187 0.094116516 0.30660701
-0.024104957 0.094154663 0.30658713
-0.024099162 0.094199575 0.3065812
-0.024089115 0.094204769 0.30658939
0.038715281 0.092318609 0.29951501
0.038714517 0.09241312 0.29946184
0.038714521 0.092413113 0.29946184
0.03871176 0.092162497 0.29953939
0.1407827 0.088126503 0.28705826
0.14079538 0.088122688 0.28704217
0.1408073 0.088090189 0.28703696
0.14081231 0.088029668 0.28703633
0.14081231 0.088029675 0.2870363
0.14081597 0.088000357 0.2870335
0.14081846 0.087970734 0.28703547
0.14082275 0.087998658 0.28702641
0.14084165 0.08793465 0.28700376
-0.08697056 0.095560394 0.30874261
-0.086956546 0.09566474 0.30872247
-0.086943775 0.095715292 0.30871043
-0.086928278 0.095833644 0.30870304
-0.086928271 0.095833652 0.30870295
-0.08691486 0.095949911 0.30869102
-0.024121925 0.094700269 0.30652696
-0.024114301 0.094698809 0.30651802
-0.024090258 0.094733104 0.30648753
-0.024077425 0.094634481 0.30648655
-0.02405981 0.094665617 0.3064492
-0.024053946 0.094709828 0.30644378
-0.024053942 0.094709814 0.30644375
0.038732011 0.092877127 0.29934216
0.038734816 0.092939459 0.29932541
0.038734816 0.092939459 0.29932538
0.038739562 0.092751071 0.29938003
0.14078528 0.088675238 0.28694952
0.14079767 0.088645868 0.28695175
0.14079955 0.088616513 0.28695521
0.14080772 0.088557161 0.28695744
0.14081232 0.088527732 0.28695932
0.14082074 0.088555887 0.28694421
0.14083312 0.088610016 0.2869229
0.140847 0.088580117 0.28691515
-0.086917982 0.096273623 0.30861902
-0.086896345 0.096382961 0.30860516
-0.086880624 0.096432924 0.30859447
-0.086873874 0.096491411 0.30858833
-0.086869948 0.096549891 0.30857971
-0.0240956 0.09521842 0.30641752
-0.024074668 0.09525203 0.3063896
-0.024051074 0.095286123 0.30635801
-0.024051376 0.095241383 0.30636498
-0.024028607 0.095226251 0.30633542
-0.024023129 0.095181994 0.30633944
-0.024019942 0.095225744 0.30633342
0.038759861 0.093463287 0.29919335
0.038762849 0.093526348 0.29918069
0.038766604 0.093334794 0.29922006
0.0387666 0.093334794 0.29922006
0.0387666 0.093334779 0.29922006
0.1407851 0.089163169 0.28684002
0.14079754 0.089134514 0.2868433
0.14080849 0.089132927 0.28683683
0.14081414 0.089133129 0.28683415
0.14081959 0.08916086 0.28682429
0.14082412 0.089160405 0.28682303
0.14084437 0.089186348 0.28680658
0.14085183 0.089214854 0.28679821
-0.086872518 0.096974656 0.30849427
-0.086851209 0.097082265 0.30848065
-0.086836323 0.097131401 0.30847201
-0.086829111 0.09718895 0.30846414
-0.08682467 0.097246476 0.30845374
-0.024058577 0.095815904 0.30629021
-0.024035428 0.09585242 0.30626434
-0.024013603 0.095842257 0.30624637
-0.02400388 0.095882855 0.30623233
-0.02400388 0.095882855 0.30623239
-0.023991866 0.095924832 0.30622578
-0.0239772 0.095923342 0.30622378
0.038785454 0.093979269 0.29903629
0.038794532 0.093918055 0.29907188
0.038794525 0.093918078 0.29907188
0.038794529 0.093918078 0.29907188
0.038794529 0.09391807 0.29907188
0.14078932 0.089676067 0.28671744
0.14079805 0.089677401 0.2867147
0.14080863 0.089704879 0.28670248
0.1408191 0.089676104 0.28670657
0.14082333 0.089675426 0.28670469
0.14082733 0.089703389 0.2866959
0.14084862 0.089700699 0.2866869
0.14085321 0.089700229 0.28668791
-0.086819544 0.097721331 0.30837113
-0.086809218 0.097770877 0.30836609
-0.086795285 0.09781947 0.30835995
-0.086788118 0.097876556 0.30835214
-0.086761579 0.097838394 0.30836073
-0.024023974 0.096238188 0.30619517
-0.024017846 0.096238315 0.3061935
-0.023994483 0.096281581 0.3061862
-0.023979349 0.096368961 0.3061747
-0.023977904 0.096503057 0.30615696
-0.023971949 0.096456766 0.3061555
-0.023959231 0.096497804 0.30614397
-0.02393309 0.096402436 0.30614695
0.03878947 0.094488151 0.29890361
0.038800035 0.094558291 0.29888642
0.038814913 0.094566934 0.29890192
0.038814913 0.094566941 0.29890192
0.038814913 0.094566934 0.29890192
0.14079025 0.090186387 0.28658834
0.14080375 0.090129867 0.28659683
0.14081228 0.090187594 0.28658158
0.14081974 0.090188488 0.28658068
0.14082383 0.090187721 0.28657854
0.14082815 0.090216093 0.2865707
0.14084674 0.090214729 0.2865642
0.14085889 0.090212286 0.28656042
0.14086561 0.090238765 0.28655332
-0.086762093 0.098572701 0.30827767
-0.086741246 0.098609596 0.30825958
-0.086728476 0.098657332 0.30825633
-0.086735785 0.098600358 0.30825257
-0.086722732 0.098564565 0.30827206
-0.023989994 0.09672574 0.30612612
-0.023984812 0.096683234 0.30613419
-0.023970805 0.096686408 0.30613747
-0.023949757 0.096773103 0.30612347
-0.023933817 0.096858509 0.30610734
-0.023929568 0.096946768 0.30609539
-0.023916671 0.09698683 0.30608311
-0.023897272 0.096937351 0.30607292
0.038799837 0.09488751 0.29874533
0.038830843 0.09508574 0.29876372
0.038826395 0.09515027 0.29876494
0.038826395 0.09515027 0.29876491
0.038837723 0.095215514 0.29875877
0.14078532 0.090695411 0.2864618
0.14079827 0.090668038 0.28646594
0.14081687 0.090641543 0.28647128
0.14082314 0.090643607 0.28647202
0.14082679 0.090701394 0.2864573
0.140827 0.090672195 0.28646353
0.14084385 0.090699501 0.28645051
0.14085203 0.090668783 0.28645208
0.14086556 0.090691917 0.28643915
0.14086691 0.090634294 0.28644961
-0.086696051 0.099452592 0.30820733
-0.086687341 0.099499777 0.30820611
-0.086687356 0.099499784 0.30820611
-0.086681306 0.099490076 0.30819577
-0.086665161 0.099400736 0.30821127
-0.023954701 0.097307265 0.3060452
-0.023949806 0.09726534 0.30605558
-0.023949804 0.09726534 0.30605558
-0.023943977 0.097311504 0.30605271
-0.023931263 0.09735287 0.30604041
-0.023906453 0.097485557 0.30602258
-0.023883363 0.097525716 0.30600294
-0.023869319 0.097567186 0.30599192
0.038814217 0.09547247 0.29862282
0.03882179 0.095409326 0.29865068
0.038839716 0.095734112 0.29864514
0.038857587 0.095862664 0.29863325
0.038857587 0.095862664 0.29863325
0.14079088 0.091211066 0.28634566
0.14080478 0.091183908 0.28634924
0.14080876 0.091155872 0.28635517
0.14082175 0.091156445 0.286356
0.14082946 0.091128923 0.2863625
0.14082946 0.091128923 0.28636244
0.14084211 0.091126479 0.28635627
0.14085166 0.091124184 0.28635058
0.14085837 0.09112227 0.28634617
0.14087258 0.091090165 0.28634384
-0.086703442 0.10003211 0.30816719
-0.086686134 0.10012264 0.30816519
-0.086656749 0.10026786 0.30817267
-0.086656764 0.10026787 0.30817267
-0.086663209 0.10021206 0.30816549
-0.086633362 0.10013158 0.30818209
-0.023949657 0.09797933 0.30594531
-0.023936424 0.097981431 0.30595708
-0.023936426 0.097981431 0.30595708
-0.023930673 0.098026589 0.30595422
-0.023909779 0.098024063 0.30594835
-0.02388427 0.098066323 0.30593035
-0.023866395 0.098112933 0.3059302
-0.023855781 0.098018475 0.3059327
0.038838625 0.095997244 0.29855224
0.038853329 0.096121252 0.2985577
0.038846068 0.096182801 0.29858172
0.038876612 0.096440539 0.29854694
0.038880967 0.096441142 0.29854909
0.1407969 0.091787718 0.2862305
0.14080995 0.091731593 0.28623885
0.14081344 0.091703303 0.28624412
0.14081873 0.0916752 0.28624934
0.1408328 0.091675848 0.28624955
0.14083278 0.091675833 0.28624955
0.14084533 0.091673069 0.28624231
0.14085463 0.091670319 0.28623533
0.14085814 0.091610961 0.28624189
0.14087121 0.091517515 0.28624544
0.1408826 0.091424532 0.28625223
-0.086675279 0.10073344 0.30814919
-0.086659692 0.10082269 0.30815127
-0.08664649 0.10086629 0.30815595
-0.08663886 0.1009113 0.30815664
-0.086627416 0.10086686 0.30815759
-0.086610094 0.1008274 0.30812907
-0.023920657 0.098596983 0.30583501
-0.023907514 0.098598443 0.30584535
-0.023901789 0.098643124 0.30584151
-0.023901789 0.098643124 0.30584151
-0.023893429 0.098688066 0.30583969
-0.023877658 0.098775484 0.30582839
-0.023865843 0.098777838 0.30583307
0.038860887 0.096763074 0.29848191
0.038862377 0.09669701 0.29849976
0.03887539 0.096698835 0.29850608
0.038896248 0.096952066 0.2984665
0.038895003 0.097018942 0.29844871
0.14082471 0.092253171 0.2861377
0.1408277 0.092224635 0.28614235
0.1408323 0.092196189 0.28614667
0.14084542 0.092196636 0.28614551
0.14085406 0.092225291 0.28614047
0.14086087 0.092251815 0.2861301
0.14086749 0.092192493 0.28613505
0.14087979 0.092131659 0.28613529
0.14087306 0.091975801 0.28614941
0.14089 0.091971688 0.28613886
-0.086660579 0.10126202 0.3081235
-0.086646259 0.10140661 0.30812332
-0.086629145 0.10149388 0.30812883
-0.086617582 0.10144975 0.30812851
-0.086609103 0.10140517 0.30812821
-0.086598523 0.10141521 0.30812812
-0.023904914 0.099171281 0.3057428
-0.023885807 0.099215485 0.30574334
-0.023877321 0.099259265 0.30573854
-0.023877323 0.099259257 0.30573857
-0.023868237 0.099303089 0.30573517
-0.023861913 0.099347316 0.30573171
-0.023841169 0.099393271 0.30573839
0.038888767 0.097480431 0.29837534
0.038888771 0.097480431 0.29837537
0.038890202 0.09727601 0.29841161
0.038903363 0.097405121 0.29838994
0.038916297 0.097465038 0.29837677
0.14084931 0.092805058 0.28603217
0.14085819 0.092804871 0.28603041
0.14087003 0.092804372 0.2860277
0.14087652 0.092805654 0.28602505
0.14087655 0.092805669 0.28602505
0.14088 0.092746086 0.28603351
0.14089003 0.092743009 0.28602627
0.14089707 0.092740215 0.28601986
0.14090735 0.092650749 0.28602514
0.14091124 0.092557333 0.28603277
-0.086642824 0.10164063 0.30812585
-0.086646825 0.10177482 0.30812106
-0.086610898 0.10199834 0.30812779
-0.086600244 0.10195585 0.30812958
-0.086592577 0.10191295 0.30813137
-0.086574458 0.10178368 0.30813363
-0.023862118 0.099832959 0.30565718
-0.023853397 0.09987504 0.30564797
-0.0238472 0.099919394 0.30564606
-0.02383855 0.09996289 0.30564946
-0.023826383 0.099964403 0.30565199
0.038913105 0.098175153 0.29828081
0.038919277 0.098113254 0.29828703
0.038919017 0.097908683 0.29831627
0.038919013 0.097908676 0.29831621
0.038923092 0.097975977 0.29830661
0.1408615 0.09343908 0.28593495
0.14088005 0.093416415 0.28590798
0.14089839 0.09344171 0.28589463
0.14090542 0.093442008 0.28589088
0.14090873 0.093470722 0.28588343
0.1409187 0.093440734 0.28588256
0.14092569 0.093381725 0.28588983
0.14092684 0.09332063 0.28589907
0.14092931 0.093261212 0.28590754
0.14094292 0.09328644 0.28589445
-0.086633623 0.10196949 0.30807513
-0.086625718 0.10222621 0.30807593
-0.086592369 0.1024883 0.30806038
-0.086576559 0.10258119 0.30806848
-0.086556368 0.1025821 0.30807108
-0.086530805 0.10251327 0.30807489
-0.023826241 0.10057658 0.30556253
-0.023821656 0.10053344 0.30557007
-0.023809645 0.1006165 0.30554491
-0.023797797 0.10070246 0.30553579
-0.023783436 0.10065942 0.30553871
0.038934294 0.098729387 0.29820359
0.038940404 0.098668098 0.29820853
0.038950786 0.098584592 0.29817751
0.038950786 0.098584585 0.29817754
0.038959399 0.098467477 0.29818779
0.14088345 0.094135232 0.28581804
0.14089468 0.094136454 0.28579754
0.14091407 0.09407492 0.28578761
0.14091708 0.094103403 0.2857798
0.14093184 0.09404631 0.28576201
0.14094284 0.094016016 0.28575954
0.14095742 0.094042607 0.28574976
0.14095911 0.093984969 0.28575903
0.14095582 0.093868233 0.28578076
0.14096513 0.093834862 0.28578195
-0.086624883 0.10240277 0.30801681
-0.086597711 0.10281751 0.30800071
-0.086552486 0.10305122 0.30801854
-0.086520858 0.10317957 0.30801198
-0.086505733 0.10319205 0.30801427
-0.086492859 0.10312032 0.30800992
-0.023801716 0.10122522 0.30545747
-0.023791134 0.10126497 0.30544275
-0.02376008 0.10134164 0.3054148
-0.023754578 0.10134149 0.30541435
-0.023740418 0.10129996 0.30541903
0.038971394 0.099337406 0.29806569
0.03896749 0.099271089 0.29808015
0.038981777 0.099194892 0.29808494
0.038981769 0.099194899 0.29808491
0.03899039 0.099080339 0.29809234
0.14089806 0.094774097 0.28571564
0.14090727 0.094772905 0.28569967
0.14092812 0.094712578 0.28568444
0.14094341 0.094708145 0.28566411
0.14095137 0.094706401 0.28565723
0.14095889 0.094618596 0.28565764
0.1409768 0.094616301 0.2856341
0.14098644 0.094584756 0.28563124
0.1409919 0.094499417 0.28564245
0.1409955 0.0944084 0.28565925
-0.086587831 0.10307617 0.3079429
-0.086546026 0.10346351 0.30793014
-0.08649487 0.10369028 0.30792093
-0.086485557 0.10373923 0.30791536
-0.086477168 0.10370185 0.30792326
-0.086463012 0.10359579 0.30794269
-0.023774132 0.10189363 0.30530652
-0.023746643 0.10192896 0.3052935
-0.023730038 0.10200707 0.30526876
-0.023728285 0.10204341 0.30524921
-0.023683911 0.10200807 0.30526409
-0.023686267 0.1018467 0.30531117
0.038989954 0.099875212 0.29798591
0.038993455 0.099866293 0.29798582
0.039006282 0.099790573 0.29798764
0.039019413 0.099841446 0.29796356
0.039027803 0.099729702 0.29796603
0.14091395 0.095508821 0.28559685
0.14093272 0.095439829 0.28558624
0.14095245 0.095346369 0.28557071
0.14096659 0.095256768 0.28556159
0.14097916 0.095253222 0.28555447
0.1409851 0.095252506 0.28555253
0.14099701 0.095221326 0.28553984
0.1410099 0.095249265 0.2855325
0.14102015 0.095192701 0.28553602
0.14102146 0.095132515 0.28554633
-0.086526446 0.10387246 0.30784622
-0.086475268 0.10416614 0.3078343
-0.086450286 0.10427918 0.30782303
-0.086450286 0.10427918 0.307823
-0.086433195 0.10429097 0.30782682
-0.086440258 0.10411032 0.30785626
-0.023784541 0.10260878 0.30510727
-0.023753643 0.10267761 0.30508643
-0.023721125 0.102793 0.30505902
-0.023665236 0.10275924 0.3050811
-0.023636924 0.10272308 0.30509749
-0.023617711 0.10257637 0.30514452
0.039023478 0.1004417 0.29788181
0.039038666 0.10042186 0.2978721
0.039056845 0.10041612 0.29784673
0.039055455 0.1003056 0.29785478
0.1409651 0.096203759 0.28546637
0.14096704 0.09607397 0.28547555
0.14097312 0.095955059 0.28547913
0.14098954 0.095834933 0.2854664
0.1410004 0.095831595 0.28546011
0.14101672 0.095857918 0.28545299
0.14102712 0.095856957 0.28544554
0.14104053 0.095885374 0.2854389
0.14105272 0.095887117 0.28543356
0.14106143 0.095918357 0.28543264
-0.086465292 0.10467315 0.30773586
-0.08644484 0.10478227 0.30772126
-0.08642213 0.10485337 0.30772391
-0.086406417 0.10493819 0.30771649
-0.086396486 0.10490358 0.3077274
-0.086382605 0.10476872 0.30776498
-0.023860171 0.10337143 0.30486581
-0.02380647 0.10347687 0.30485356
-0.023764078 0.10350031 0.30484584
-0.023729773 0.10353755 0.30484602
-0.023627354 0.1035447 0.30487224
-0.02358339 0.10358717 0.30486822
-0.023504755 0.1034238 0.3049286
-0.023439664 0.10343654 0.30491653
0.039046049 0.10111095 0.29777378
0.039053801 0.10109758 0.29776198
0.039102878 0.10097368 0.29773414
0.039102878 0.10097367 0.29773414
0.1410052 0.096869051 0.28536409
0.14100869 0.096710399 0.28538045
0.14101279 0.096556783 0.28537062
0.14102133 0.096468933 0.28537592
0.14102574 0.096410118 0.28538132
0.14103851 0.096465044 0.28536963
0.14104903 0.096464194 0.28536168
0.14107916 0.096549094 0.28534618
0.14109875 0.096582979 0.28532755
-0.086441711 0.10539306 0.30759421
-0.086422913 0.10546102 0.30759153
-0.086403191 0.10552969 0.307594
-0.086375885 0.10564709 0.30759436
-0.086376972 0.10558092 0.30760238
-0.086357892 0.10549051 0.30763918
-0.02396089 0.10420454 0.30455956
-0.023878014 0.10427072 0.30456725
-0.023786021 0.10433827 0.30458716
-0.023642806 0.10435152 0.30462316
-0.023590073 0.10437885 0.30461019
-0.023489093 0.10439198 0.30460805
-0.023401367 0.10433 0.30463603
-0.023322212 0.10426424 0.30465421
0.039075617 0.10163805 0.29768586
0.039087005 0.10173524 0.29765567
0.039137684 0.10171646 0.29760069
0.039155342 0.10171249 0.29758099
0.14103214 0.097410999 0.28528884
0.14103805 0.097257614 0.28529191
0.14103997 0.097133964 0.28528965
0.14104483 0.097075447 0.28529596
0.14106521 0.097070806 0.28527945
0.1410699 0.097014055 0.28528014
0.14108977 0.097040504 0.28526828
0.14110352 0.097068973 0.28526142
0.14112826 0.097157553 0.28525248
-0.086449064 0.10618306 0.30740255
-0.086414732 0.10624778 0.30741704
-0.086347915 0.10637458 0.3074469
-0.086315013 0.10645316 0.30746597
-0.086238816 0.10648608 0.30750287
-0.086224876 0.10650369 0.3075155
-0.023844536 0.10499886 0.30433819
-0.023750912 0.10518735 0.3042824
-0.02365943 0.10525555 0.30428454
-0.02356698 0.10524193 0.30429557
-0.023472203 0.10514599 0.30432925
-0.023351386 0.10499568 0.30440319
-0.023254281 0.10498247 0.30439246
0.039085653 0.10257542 0.29746753
0.039098926 0.10266193 0.29743746
0.039120302 0.10265937 0.29743066
0.039154842 0.1026133 0.29742888
0.039177127 0.10264296 0.29743138
0.14105751 0.097834364 0.28523523
0.14107323 0.097853713 0.28520694
0.14107482 0.097732931 0.28519511
0.14108419 0.097645864 0.28520644
0.14109464 0.097614989 0.28519583
0.1410998 0.097557977 0.28520015
0.14112064 0.097611792 0.28519636
0.14114802 0.097666256 0.28518909
0.14115937 0.097613581 0.28518403
-0.086438827 0.10684913 0.30723885
-0.086343594 0.10708071 0.3072693
-0.086237416 0.10721991 0.30731007
-0.086160108 0.10732965 0.30731052
-0.086107306 0.10735559 0.30731586
-0.086071096 0.10740107 0.30732229
-0.086040281 0.1073707 0.30736181
-0.023771945 0.10580373 0.30410087
-0.023725182 0.10590272 0.30405736
-0.023657376 0.1059885 0.3040368
-0.023545675 0.10592566 0.30403933
-0.023472764 0.10586923 0.30406553
-0.023419226 0.10570344 0.30412424
0.039110728 0.10317905 0.29729342
0.039118387 0.10322043 0.2972784
0.039135482 0.10331416 0.29724294
0.039153684 0.10338899 0.29724309
0.039161883 0.10334804 0.29725876
0.14107557 0.098311909 0.28515205
0.14110105 0.098325789 0.2851395
0.14110687 0.098268308 0.28512651
0.14111546 0.09818431 0.28512317
0.14112072 0.098182619 0.2851097
0.14112616 0.098126009 0.28511378
0.14115995 0.098203935 0.28510997
0.14116922 0.098177239 0.28510433
0.14119388 0.098176487 0.28510496
-0.086469129 0.10729471 0.30709854
-0.086408578 0.10749725 0.30709517
-0.086228095 0.10780258 0.30713969
-0.086144269 0.10795955 0.3071281
-0.086071856 0.1080041 0.30713776
-0.086034723 0.10798337 0.30716687
-0.086018808 0.10805402 0.3071591
-0.085969016 0.10810771 0.30717748
-0.023800962 0.10644393 0.30397055
-0.023707908 0.10656328 0.30390412
-0.023616936 0.10652652 0.30385509
-0.023603257 0.10652527 0.30384615
-0.023537362 0.10649399 0.30385238
-0.023463897 0.10645154 0.30386263
0.039129779 0.10380787 0.29712838
0.039137304 0.10384888 0.29711428
0.039145034 0.10390462 0.29710278
0.039149843 0.10396124 0.29709217
0.039158221 0.10392141 0.2971091
0.14111699 0.098799691 0.28505456
0.1411242 0.098769829 0.28505564
0.14114425 0.098713264 0.28504106
0.1411747 0.098707296 0.28502062
0.14117469 0.098707311 0.28502065
0.14120442 0.098673426 0.28502336
0.14125577 0.098716035 0.28501269
0.14132041 0.098789424 0.28499687
0.1413292 0.098769724 0.28499004
-0.08639694 0.1080138 0.30699247
-0.086232409 0.10831454 0.30698898
-0.086161315 0.10843883 0.30698651
-0.086063616 0.10864705 0.30696702
-0.086023293 0.10862587 0.30700293
-0.086011708 0.10856286 0.30702394
-0.085998282 0.1085804 0.3070327
-0.08598239 0.10860021 0.3070412
-0.085943192 0.10863411 0.30708006
-0.023813708 0.10698863 0.30381179
-0.0236938 0.10710529 0.30374137
-0.023656113 0.1071169 0.30371082
-0.02361278 0.10706308 0.30369222
-0.023576133 0.10707528 0.30368197
-0.0234854 0.10702956 0.30372742
0.039156947 0.10449016 0.29695651
0.039156947 0.10449018 0.29695654
0.039156951 0.10449018 0.29695654
0.039156947 0.10449018 0.29695654
0.039165102 0.10444956 0.29697102
0.14115703 0.09933906 0.28497696
0.14117205 0.099335656 0.28496125
0.1411832 0.099229828 0.28495157
0.14119612 0.099194296 0.2849535
0.14127228 0.099278994 0.28493208
0.14129013 0.099278726 0.28491828
0.14135155 0.099292181 0.28490609
0.14141166 0.099360198 0.2848728
0.14151761 0.099491343 0.28482622
-0.086215682 0.10875513 0.30690801
-0.086150117 0.1088839 0.30688253
-0.086059988 0.10909554 0.30685022
-0.086040646 0.1091249 0.30686542
-0.086024567 0.10913908 0.3068842
-0.086013451 0.10907787 0.30690548
-0.085989676 0.1090741 0.30692908
-0.085976921 0.10909345 0.30693889
-0.085955314 0.10915258 0.3069692
-0.023807092 0.10792986 0.30362651
-0.02367812 0.10762471 0.30359244
-0.023665193 0.10764452 0.30355072
-0.023641484 0.10766775 0.30356798
-0.02361748 0.10774093 0.3035478
-0.023542481 0.10770022 0.30359975
0.039172325 0.10508882 0.29683292
0.039174575 0.10507631 0.29683051
0.039174575 0.10507633 0.29683051
0.039174575 0.10507633 0.29683051
0.039182477 0.10503458 0.29684156
0.14118065 0.099846847 0.28488535
0.14122912 0.099881671 0.28487548
0.14129315 0.099927105 0.28486091
0.14130759 0.099855557 0.2848357
0.14134972 0.09983708 0.28482842
0.14138182 0.0998578 0.28482038
0.14145996 0.099937499 0.2847901
0.14154343 0.10004669 0.28472075
0.14166348 0.10016616 0.28467625
-0.086140215 0.10936739 0.30679029
-0.08605583 0.1095197 0.30677575
-0.086038426 0.10958812 0.30677778
-0.086031623 0.10956302 0.30679023
-0.0860155 0.10959354 0.30680829
-0.086011671 0.1095669 0.30681694
-0.085998349 0.10958131 0.30682203
-0.085974433 0.10967309 0.30681378
-0.085938975 0.10970888 0.30685326
-0.023815069 0.10850193 0.30351985
-0.023724537 0.10854079 0.30346715
-0.023697127 0.10823768 0.30346152
-0.02365873 0.10811652 0.30344763
-0.023648029 0.10817433 0.3034364
-0.023614237 0.10828295 0.30343539
-0.023543214 0.10837238 0.30345914
0.039192092 0.10558198 0.29674527
0.039200358 0.10562635 0.29674011
0.039200358 0.10562636 0.29674011
0.039200354 0.10562637 0.29674017
0.039204821 0.10557093 0.29675356
0.14123569 0.10056853 0.28479269
0.14131187 0.10068058 0.28475243
0.14135583 0.10063898 0.28472778
0.14138812 0.10056695 0.28473136
0.14142299 0.10057289 0.28473008
0.14147237 0.10051759 0.28468683
0.14157499 0.10057831 0.2846407
0.14171205 0.10077266 0.28457671
0.14182936 0.10095458 0.28452846
-0.08606112 0.109883 0.30671266
-0.086045384 0.1100056 0.30669174
-0.086029403 0.11003447 0.30670995
-0.08601974 0.11002831 0.30672866
-0.086019747 0.1100283 0.30672863
-0.086004809 0.11000938 0.30673391
-0.08598201 0.11008126 0.30675006
-0.085962169 0.11024075 0.30671784
-0.085925363 0.11019725 0.30676448
-0.023740971 0.10879317 0.30339628
-0.023729192 0.10874579 0.30340752
-0.023700282 0.10870948 0.30339465
-0.023644166 0.10859288 0.30335164
-0.023653267 0.1087369 0.30335754
-0.023646507 0.10889866 0.30338216
-0.02359833 0.1090269 0.30337083
0.039213501 0.10607976 0.29666975
0.039222181 0.10612616 0.29666886
0.039216097 0.10607179 0.29667449
0.039221764 0.10596389 0.29670233
0.03922176 0.10596391 0.29670233
0.14129792 0.10134051 0.28468266
0.14137226 0.1014187 0.28464979
0.14141077 0.10144322 0.2846311
0.14146835 0.10146485 0.28462324
0.14154948 0.10131997 0.28459305
0.14162809 0.10135549 0.28453919
0.14172126 0.10140605 0.28451869
0.1418981 0.10164656 0.28444326
0.14206317 0.10197131 0.28437227
-0.086014256 0.11039702 0.30663243
-0.086010754 0.11041856 0.30664453
-0.086006552 0.11050264 0.30664653
-0.086006895 0.11049531 0.30664897
-0.086006895 0.11049531 0.30664897
-0.085988149 0.11050471 0.30666238
-0.085966997 0.11058192 0.30666068
-0.085940242 0.11076673 0.30664083
-0.08584477 0.11098462 0.30670664
-0.023717027 0.10918173 0.30333489
-0.02370468 0.1091729 0.3033376
-0.023688616 0.10916963 0.30332351
-0.023674075 0.10914484 0.30330813
-0.023660991 0.10926285 0.30328763
-0.02364894 0.10944659 0.3033101
-0.023616482 0.1094978 0.30330738
0.039215304 0.10642672 0.29661676
0.039220899 0.10647441 0.29661667
0.039226517 0.10636863 0.29664508
0.039221004 0.10632089 0.29664537
0.039225452 0.10627478 0.29665107
0.14133696 0.1021029 0.28459874
0.14142299 0.10220004 0.28459373
0.1414838 0.10227884 0.28457117
0.1415994 0.10237032 0.28452814
0.14173304 0.10234675 0.28445643
0.14179255 0.10235002 0.28440535
0.14193377 0.10243098 0.28435004
0.14208494 0.1026305 0.28428039
0.14219828 0.10276637 0.28422475
-0.086000852 0.11095455 0.30653504
-0.085993528 0.11094284 0.30656439
-0.085991442 0.1109369 0.306573
-0.085989699 0.1109857 0.30657709
-0.085982308 0.1110486 0.30656543
-0.085975826 0.11096556 0.30658433
-0.085962571 0.1110595 0.30658883
-0.085910402 0.11135251 0.30658782
-0.085826099 0.11154209 0.30664623
-0.023712749 0.10969994 0.30327237
-0.023700463 0.10969158 0.30327478
-0.023674432 0.10966127 0.30324572
-0.023674428 0.10966128 0.30324578
-0.023661301 0.1097495 0.3032285
-0.023645254 0.10981334 0.30321208
-0.023622615 0.10985188 0.30322608
0.039238989 0.10693153 0.29655918
0.039238993 0.10693153 0.29655918
0.039243802 0.1068252 0.29658344
0.039243799 0.10682519 0.29658344
0.039247535 0.10668176 0.29659432
0.14144202 0.10304102 0.28449523
0.14156538 0.10318469 0.28445917
0.14170724 0.10322113 0.28441045
0.14187939 0.10327144 0.28432733
0.14198656 0.10320906 0.28424901
0.14210011 0.10330015 0.28419042
0.14220348 0.10334051 0.28414962
0.14234313 0.10352908 0.28408578
0.14245641 0.10355303 0.28403857
-0.085990645 0.11141042 0.30645818
-0.085984483 0.11142609 0.3064782
-0.085972607 0.11151063 0.30648214
-0.085969254 0.11156725 0.3064788
-0.085966878 0.11153293 0.30648533
-0.085957497 0.1115129 0.30649319
-0.085939854 0.11157696 0.30651724
-0.085908778 0.11176907 0.30651501
-0.085867956 0.11197452 0.30652368
-0.023723399 0.11027034 0.30323249
-0.023708642 0.11023126 0.303231
-0.02368732 0.11023293 0.30320239
-0.023670305 0.11017617 0.30318213
-0.023659503 0.11023545 0.30317095
-0.023650944 0.11026426 0.30316406
-0.023605993 0.11016644 0.3031131
0.039261594 0.10739002 0.29650989
0.039263498 0.10743814 0.2965076
0.039263498 0.10743814 0.2965076
0.039263498 0.10743812 0.2965076
0.03927115 0.10718551 0.29653472
0.039271031 0.10723934 0.29652673
0.14149524 0.10375343 0.28436786
0.14166003 0.10386472 0.28430781
0.14180431 0.10391788 0.28424793
0.1419401 0.10395104 0.28417987
0.14208284 0.10399754 0.28410742
0.14219229 0.10398689 0.28406239
0.14229396 0.10399221 0.28402165
0.14241509 0.10406666 0.28394371
0.14252467 0.10406281 0.28389522
-0.085989282 0.11186037 0.30636555
-0.085976116 0.11196063 0.30638403
-0.085968673 0.11204164 0.30639651
-0.085940592 0.11213381 0.30640998
-0.085935846 0.11210849 0.30642051
-0.085929848 0.11202663 0.30644029
-0.085929856 0.11202663 0.30644026
-0.085907884 0.1121387 0.30643982
-0.085891031 0.11223067 0.30644521
-0.023731207 0.11070018 0.30321229
-0.023693977 0.11064357 0.30316901
-0.023680709 0.11063951 0.30315867
-0.023668215 0.11061627 0.30313805
-0.023665749 0.11058562 0.30313677
-0.023643762 0.11050129 0.30311215
-0.02361859 0.11042615 0.30308148
-0.02355342 0.11034435 0.30300415
0.039276615 0.10794382 0.2964648
0.039290387 0.108045 0.29645056
0.039292641 0.10799164 0.29645237
0.039300531 0.10803929 0.29645041
0.039292995 0.10779938 0.29646888
0.039292991 0.10779939 0.29646891
0.14160591 0.10444557 0.28423235
0.14176269 0.10451391 0.28417107
0.14189661 0.10452743 0.28406942
0.14199217 0.10456418 0.28401688
0.14212912 0.1045358 0.28395334
0.14221933 0.10460574 0.28391075
0.14234354 0.10460358 0.28386641
0.14249919 0.10467817 0.28378025
0.14262885 0.10468032 0.28370175
0.14278403 0.10466423 0.28362149
-0.08597821 0.11233921 0.30631813
-0.085967168 0.11241303 0.306328
-0.085958973 0.11246506 0.30633637
-0.085951969 0.11255426 0.30632651
-0.085932046 0.11250208 0.30635169
-0.085926056 0.11244641 0.30636442
-0.085926056 0.1124464 0.30636436
-0.085916214 0.1124559 0.30637074
-0.085903578 0.11260029 0.30636668
-0.023712208 0.11107762 0.30315134
-0.02368529 0.11101643 0.30312788
-0.023659648 0.11099088 0.3030977
-0.023647232 0.11090015 0.30309692
-0.023638139 0.11086929 0.30309159
-0.023628768 0.11084817 0.30306715
-0.023601506 0.11087397 0.30301425
-0.023565661 0.11080065 0.30297655
-0.023536408 0.11075567 0.30298516
0.039300453 0.10844754 0.29640841
0.039321452 0.10859512 0.29638812
0.039323613 0.10854251 0.29639083
0.039323613 0.10854251 0.29639083
0.039328799 0.10849608 0.29639682
0.03931772 0.10830308 0.29641548
0.14169942 0.10505899 0.28414747
0.14184558 0.1051158 0.28407186
0.14196125 0.10509631 0.28390691
0.14206816 0.10503218 0.2838499
0.14214136 0.1050051 0.28380489
0.14227442 0.10511877 0.28373763
0.14238545 0.10515212 0.28367862
0.14256565 0.10523958 0.28359073
0.14272948 0.10528886 0.28351885
0.14288674 0.10527577 0.28341112
-0.08596094 0.11283979 0.30628541
-0.085958198 0.11283415 0.30628505
-0.085955262 0.11286207 0.30628273
-0.085954413 0.11291812 0.30627498
-0.085934207 0.11286923 0.30629653
-0.085930496 0.11283551 0.30629811
-0.08592499 0.11286803 0.30629888
-0.085918926 0.11297758 0.3062948
-0.085907198 0.11304982 0.30630091
-0.085882634 0.11316217 0.30630577
-0.023738798 0.11152135 0.30309573
-0.023694675 0.11145598 0.30308482
-0.023669969 0.1112798 0.30306599
-0.023660157 0.11124679 0.30307031
-0.023632191 0.11119287 0.30304125
-0.023619723 0.11122282 0.30303597
-0.02362068 0.11125632 0.30302656
-0.023605512 0.11126786 0.30298924
-0.023575457 0.11119912 0.30295247
-0.023537312 0.11122192 0.30294955
-0.023498664 0.11138098 0.30296516
-0.02344038 0.11152796 0.30293345
0.039336722 0.10904828 0.29632789
0.039343901 0.10909543 0.29632267
0.039346088 0.1090437 0.29632679
0.039346088 0.10904372 0.29632685
0.039347433 0.10894939 0.29633829
0.039339114 0.10864304 0.29636946
0.14179946 0.10560927 0.28396931
0.14189838 0.1056817 0.2838943
0.14203872 0.10563891 0.28376275
0.14212139 0.10555082 0.2836735
0.14221798 0.10558206 0.28361985
0.14233321 0.10562409 0.2835606
0.14247009 0.10569312 0.2834948
0.14265925 0.10580336 0.28338519
0.14279318 0.1058299 0.28331804
0.14289586 0.10585354 0.28327677
0.14302266 0.10586643 0.2832014
-0.085967921 0.11317456 0.30624166
-0.085965656 0.11322609 0.30623212
