# .PCD v0.7 - Point Cloud Data file format
VERSION 0.7
FIELDS x y z
SIZE 4 4 4
TYPE F F F
COUNT 1 1 1
WIDTH 1368
HEIGHT 1
VIEWPOINT 0 0 0 1 0 0 0
POINTS 1368
DATA ascii
-0.0060872603 0.0098681711 0.31723404
-0.0054545491 0.0098946458 0.3180851
-0.0048183645 0.0099211195 0.31893617
-0.0015655153 0.0099277375 0.31914893
-0.00091308361 0.0099145016 0.31872341
-0.00026247607 0.0099045737 0.31840426
0.00038708778 0.0099012638 0.31829786
0.0010372569 0.0099078827 0.31851065
0.0016882942 0.0099145016 0.31872341
0.0023394192 0.0099178096 0.31882977
0.0029899806 0.0099178096 0.31882977
0.0036368982 0.0099078827 0.31851065
0.0042839446 0.0099012638 0.31829786
0.0049334206 0.0099012638 0.31829786
0.0055847629 0.0099045737 0.31840426
0.006232373 0.0099012638 0.31829786
0.0068772491 0.0098946458 0.3180851
0.0075288084 0.0098979548 0.3181915
0.0081917383 0.0099145016 0.31872341
0.012761164 0.0099277375 0.31914893
0.013407907 0.0099244295 0.31904256
0.014058903 0.0099244295 0.31904256
0.014714803 0.0099277375 0.31914893
0.015366015 0.0099277375 0.31914893
0.028229393 0.009871481 0.31734043
0.028838191 0.0098582432 0.31691489
0.029474949 0.0098549351 0.31680852
0.030171961 0.009871481 0.31734043
0.03088147 0.0098913359 0.31797871
0.034809321 0.0099012638 0.31829786
0.035411395 0.0098880269 0.31787235
0.036011729 0.00987479 0.3174468
0.036610328 0.0098615531 0.31702128
0.037257202 0.0098615531 0.31702128
0.037904073 0.0098615531 0.31702128
0.038563877 0.0098648621 0.31712765
-0.039309628 0.010571898 0.31893617
-0.038620166 0.010561319 0.31861702
-0.037957363 0.010557793 0.31851065
-0.037344832 0.010568371 0.31882977
-0.026962811 0.010578951 0.31914893
-0.026302829 0.010575425 0.31904256
-0.02564328 0.010571898 0.31893617
-0.024992501 0.010571898 0.31893617
-0.024349842 0.010575425 0.31904256
-0.015113975 0.010490793 0.31648937
-0.014434145 0.010466108 0.31574467
-0.0060790954 0.010501372 0.31680852
-0.00091338833 0.010568371 0.31882977
-0.00026247607 0.010554266 0.31840426
0.00038721715 0.010554266 0.31840426
0.0010372569 0.010557793 0.31851065
0.0016888576 0.010568371 0.31882977
0.0023401997 0.010571898 0.31893617
0.0029909783 0.010571898 0.31893617
0.035387695 0.010529582 0.31765959
0.035999663 0.010519003 0.31734043
0.036647186 0.010519003 0.31734043
0.037319712 0.010526056 0.31755319
0.037993107 0.010533108 0.31776595
-0.040611185 0.011222676 0.31893617
-0.039907094 0.011207704 0.31851065
-0.039217848 0.011196474 0.3181915
-0.038542796 0.011188986 0.31797871
-0.03789397 0.011188986 0.31797871
-0.027614024 0.011230163 0.31914893
-0.026917873 0.011211446 0.31861702
-0.026241435 0.011200216 0.31829786
-0.025600512 0.01120396 0.31840426
-0.024959156 0.011207704 0.31851065
0.035963457 0.011155296 0.31702128
0.036622614 0.011159038 0.31712765
0.037332214 0.011177757 0.31765959
0.038018543 0.011188986 0.31797871
-0.10243515 0.011873455 0.31893617
-0.10168252 0.011861574 0.31861702
-0.10120106 0.011881376 0.31914893
-0.027568001 0.011861574 0.31861702
-0.026863948 0.01183781 0.31797871
-0.02618004 0.011821969 0.31755319
-0.025532084 0.011821969 0.31755319
0.035866912 0.011770483 0.31617022
0.036548901 0.011782365 0.31648937
0.037257202 0.011802167 0.31702128
0.037942231 0.011814049 0.31734043
-0.10226431 0.012503346 0.31840426
-0.10151277 0.012490814 0.3180851
-0.10106613 0.012515879 0.31872341
-0.02954795 0.012524234 0.31893617
-0.028887533 0.012520056 0.31882977
-0.028227551 0.012515879 0.31872341
-0.027540386 0.012499169 0.31829786
-0.026836986 0.012474104 0.31765959
-0.026153728 0.012457393 0.31723404
-0.025489317 0.012449038 0.31702128
0.035782434 0.012386376 0.31542554
0.036450621 0.012394731 0.3156383
0.037144676 0.01241144 0.31606382
0.037815038 0.012419797 0.31627661
-0.030870087 0.013183801 0.31914893
-0.030138291 0.013148644 0.31829786
-0.02947896 0.013144251 0.3181915
-0.028848978 0.01315304 0.31840426
-0.028218128 0.013161829 0.31861702
-0.027540386 0.013148644 0.31829786
-0.026845973 0.013126671 0.31776595
-0.026153728 0.013104699 0.31723404
-0.025489317 0.01309591 0.31702128
0.035746228 0.013016807 0.31510639
0.036401477 0.013021201 0.31521276
0.037057161 0.013025596 0.31531915
0.037713282 0.013029991 0.31542554
-0.030098001 0.013779675 0.31787235
-0.029459247 0.013784286 0.31797871
-0.028848978 0.013802732 0.31840426
-0.028227551 0.013816568 0.31872341
-0.027558798 0.013807345 0.31851065
-0.026863948 0.013784286 0.31797871
-0.02618004 0.013765839 0.31755319
-0.02552353 0.013761227 0.3174468
0.035746228 0.013659772 0.31510639
0.036401477 0.013664382 0.31521276
0.037057161 0.013668994 0.31531915
0.037713282 0.013673606 0.31542554
-0.029459247 0.01443311 0.31797871
-0.028839339 0.014447597 0.31829786
-0.028208708 0.014457256 0.31851065
-0.027549591 0.014452426 0.31840426
-0.026872935 0.014437939 0.3180851
-0.026206354 0.014428282 0.31787235
-0.02554919 0.014423453 0.31776595
0.035782434 0.014317222 0.31542554
0.036438335 0.01432205 0.31553191
0.037119672 0.014336536 0.31585106
0.037789594 0.014346194 0.31606382
-0.028781507 0.015066799 0.31765959
-0.028142754 0.015071844 0.31776595
-0.027512772 0.015081936 0.31797871
-0.026863948 0.015081936 0.31797871
-0.026223894 0.015086981 0.3180851
-0.025574852 0.015086981 0.3180851
0.03580657 0.014970928 0.3156383
0.036499761 0.014991111 0.31606382
0.03720719 0.01501634 0.31659573
0.037891351 0.015031477 0.31691489
-0.028685117 0.015662342 0.31659573
-0.02806738 0.015678132 0.31691489
-0.027448339 0.01569392 0.31723404
-0.026845973 0.015720235 0.31776595
-0.026223894 0.015736023 0.3180851
-0.025591958 0.015746549 0.31829786
0.035842776 0.015630767 0.31595746
0.036524333 0.015646555 0.31627661
0.037244696 0.015678132 0.31691489
0.037929509 0.01569392 0.31723404
-0.028627286 0.016275467 0.31595746
-0.028010851 0.016291907 0.31627661
-0.027411522 0.016319307 0.31680852
-0.026819009 0.016352186 0.3174468
-0.026232665 0.016390545 0.3181915
-0.025634725 0.016423425 0.31882977
0.035854843 0.016280945 0.31606382
0.036524333 0.016291907 0.31627661
0.037219692 0.016313827 0.31670213
0.037891351 0.016324786 0.31691489
-0.028627286 0.016920168 0.31595746
-0.028001428 0.016931562 0.31617022
-0.027411522 0.016965743 0.31680852
-0.026819009 0.016999925 0.3174468
-0.026241435 0.017045502 0.31829786
-0.025660386 0.017091077 0.31914893
0.035830706 0.01691447 0.31585106
0.036475189 0.01691447 0.31585106
0.037132178 0.016920168 0.31595746
0.037776876 0.016920168 0.31595746
-0.028057959 0.017612182 0.31680852
-0.027457546 0.017641751 0.31734043
-0.026845973 0.017665407 0.31776595
-0.026250206 0.017700892 0.31840426
-0.025660386 0.017742291 0.31914893
0.035782434 0.017535297 0.31542554
0.036413763 0.017529383 0.31531915
0.037044659 0.017523469 0.31521276
0.037662402 0.017511642 0.315
-0.028152177 0.018319929 0.31787235
-0.027531182 0.018338323 0.3181915
-0.026890909 0.018344453 0.31829786
-0.026267746 0.018362848 0.31861702
-0.025651833 0.018387374 0.31904256
0.035734158 0.018154388 0.315
0.036364619 0.018148256 0.3148936
0.036982145 0.018135995 0.31468084
0.037611526 0.018129865 0.31457448
-0.028255817 0.019038368 0.31904256
-0.027595615 0.01903202 0.31893617
-0.026926862 0.019019324 0.31872341
-0.026267746 0.019012975 0.31861702
-0.025617618 0.019012975 0.31861702
0.035685889 0.018771743 0.31457448
0.036315478 0.018765394 0.31446809
0.036957141 0.018765394 0.31446809
0.037611526 0.018771743 0.31457448
0.038266338 0.018778089 0.31468084
-0.027614024 0.019695928 0.31914893
-0.026935847 0.019676233 0.31882977
-0.026258977 0.019656537 0.31851065
-0.025574852 0.019630276 0.3180851
0.035625543 0.019380793 0.31404254
0.036266338 0.019380793 0.31404254
0.036907129 0.019380793 0.31404254
0.037662402 0.019439882 0.315
0.038369831 0.019472707 0.31553191
-0.02823697 0.020326793 0.31882977
-0.027577206 0.020320013 0.31872341
-0.026908888 0.020306448 0.31851065
-0.026232665 0.0202861 0.3181915
-0.025557745 0.020265752 0.31787235
0.035577271 0.019994458 0.31361702
0.036217198 0.019994458 0.31361702
0.036857121 0.019994458 0.31361702
0.037738718 0.020123323 0.3156383
0.03874499 0.020313229 0.31861702
-0.028142754 0.020907361 0.31776595
-0.027521977 0.020928361 0.3180851
-0.026872935 0.020928361 0.3180851
-0.026223894 0.020928361 0.3180851
-0.025557745 0.020914361 0.31787235
-0.0249008 0.020907361 0.31776595
0.035541069 0.020613384 0.31329787
0.036168057 0.020606386 0.3131915
0.036782108 0.020592386 0.31297871
0.037789594 0.02079537 0.31606382
-0.028086223 0.021512453 0.31712765
-0.027466748 0.021534102 0.3174468
-0.02685496 0.021562969 0.31787235
-0.026223894 0.021577401 0.3180851
-0.025591958 0.021591835 0.31829786
-0.024950819 0.021599051 0.31840426
0.035541069 0.021252658 0.31329787
0.036155771 0.021238225 0.31308511
0.036757104 0.021216575 0.31276596
0.037738718 0.021411423 0.3156383
-0.028714035 0.022144673 0.31691489
-0.028076803 0.022152107 0.31702128
-0.027466748 0.022181841 0.3174468
-0.02685496 0.022211578 0.31787235
-0.026250206 0.022248745 0.31840426
-0.025626173 0.022271046 0.31872341
-0.024984164 0.022278478 0.31882977
0.035541069 0.021891931 0.31329787
0.036143485 0.021869631 0.31297871
0.036719594 0.021832462 0.3124468
0.037547924 0.021943966 0.31404254
0.038538005 0.022144673 0.31691489
-0.028752591 0.022821931 0.31734043
-0.028123911 0.022837233 0.31755319
-0.027494363 0.022852533 0.31776595
-0.026872935 0.022875486 0.3180851
-0.026258977 0.022906089 0.31851065
-0.025634725 0.022929039 0.31882977
-0.024992501 0.022936691 0.31893617
0.035541069 0.022531206 0.31329787
0.036131199 0.022500604 0.31287235
0.03669459 0.0224547 0.31223404
0.037357133 0.022469999 0.3124468
0.038007606 0.022477651 0.3125532
-0.028858619 0.023556 0.31851065
-0.028180443 0.023532396 0.3181915
-0.027531182 0.023532396 0.3181915
-0.026890909 0.023540262 0.31829786
-0.026258977 0.023556 0.31851065
-0.025617618 0.023563866 0.31861702
-0.024967492 0.023563866 0.31861702
0.036082059 0.023107538 0.3124468
0.036644578 0.023060331 0.3118085
0.0372045 0.023013126 0.31117022
0.037813559 0.02299739 0.31095746
-0.028218128 0.024213994 0.31861702
-0.027540386 0.024189739 0.31829786
-0.026881924 0.024181655 0.3181915
-0.026241435 0.024189739 0.31829786
-0.025583405 0.024181655 0.3181915
-0.024917472 0.024165483 0.31797871
0.036020633 0.023704652 0.31191489
0.036594573 0.023664227 0.31138298
0.037166342 0.023623804 0.31085107
0.037761811 0.023599548 0.31053191
-0.028218128 0.02486412 0.31861702
-0.027521977 0.024822611 0.3180851
-0.026863948 0.02481431 0.31797871
-0.026215121 0.02481431 0.31797871
-0.02554919 0.024797706 0.31776595
-0.02487579 0.024772801 0.3174468
0.035959207 0.024299594 0.31138298
0.036569569 0.02428299 0.31117022
0.03715362 0.024249781 0.31074467
0.037761811 0.024233179 0.31053191
-0.028916448 0.025556842 0.31914893
-0.028189862 0.025488691 0.31829786
-0.02748516 0.025437579 0.31765959
-0.026836986 0.025437579 0.31765959
-0.026188813 0.025437579 0.31765959
-0.02552353 0.025420539 0.3174468
-0.024842447 0.025386464 0.31702128
-0.024171216 0.025360908 0.31670213
0.035983775 0.024951998 0.31159574
0.036594573 0.024934961 0.31138298
0.0372045 0.024917923 0.31117022
0.037813559 0.024900885 0.31095746
-0.028877895 0.026173113 0.31872341
-0.028161597 0.026111959 0.31797871
-0.027466748 0.02606828 0.3174468
-0.026819009 0.02606828 0.3174468
-0.02618004 0.026077015 0.31755319
-0.025506424 0.026050808 0.31723404
-0.024817437 0.026007127 0.31670213
-0.024138739 0.025972184 0.31627661
0.036008343 0.025605269 0.3118085
0.03663208 0.025596535 0.31170213
0.037255377 0.025587799 0.31159574
0.037878241 0.025579063 0.31148937
-0.029538093 0.026832409 0.31882977
-0.028848978 0.026796598 0.31840426
-0.028142754 0.026742877 0.31776595
-0.027457546 0.026707066 0.31734043
-0.026819009 0.026716018 0.3174468
-0.02618004 0.026724972 0.31755319
-0.025514977 0.026707066 0.31734043
-0.024817437 0.026653348 0.31670213
-0.024138739 0.026617536 0.31627661
0.036032919 0.026259413 0.31202129
0.036657084 0.026250459 0.31191489
0.037293535 0.026250459 0.31191489
0.037917048 0.026241504 0.3118085
-0.02947896 0.027427951 0.3181915
-0.028800784 0.02740044 0.31787235
-0.028123911 0.027372928 0.31755319
-0.027466748 0.027363759 0.3174468
-0.026827998 0.027372928 0.31755319
-0.026197581 0.027391268 0.31776595
-0.025532084 0.027372928 0.31755319
-0.02485078 0.027336247 0.31712765
-0.024171216 0.027299568 0.31670213
0.036008343 0.026877739 0.3118085
0.036657084 0.02688691 0.31191489
0.037293535 0.02688691 0.31191489
0.037942924 0.026896082 0.31202129
-0.0293804 0.027983336 0.31712765
-0.028723674 0.02797395 0.31702128
-0.02806738 0.027964562 0.31691489
-0.027429931 0.02797395 0.31702128
-0.026819009 0.028011497 0.3174468
-0.026188813 0.028030274 0.31765959
-0.025540639 0.028030274 0.31765959
-0.02487579 0.028011497 0.3174468
-0.024203692 0.027983336 0.31712765
0.035971493 0.027485814 0.31148937
0.03663208 0.027504588 0.31170213
0.037293535 0.027523363 0.31191489
0.037942924 0.027532751 0.31202129
-0.028627286 0.028524779 0.31595746
-0.027982585 0.028524779 0.31595746
-0.0273655 0.028553592 0.31627661
-0.026774071 0.028611217 0.31691489
-0.0261625 0.028649634 0.31734043
-0.02552353 0.028659238 0.3174468
-0.024859117 0.02864003 0.31723404
-0.024203692 0.028630424 0.31712765
0.035934635 0.028092586 0.31117022
0.036582068 0.028102187 0.31127658
0.037255377 0.028131001 0.31159574
0.037917048 0.028150208 0.3118085
-0.090569831 0.02939537 0.31840426
-0.090100408 0.029454298 0.31904256
-0.028530896 0.029071264 0.3148936
-0.027888365 0.029071264 0.3148936
-0.027291862 0.029120373 0.31542554
-0.026702171 0.029179299 0.31606382
-0.026109876 0.029238228 0.31670213
-0.025480762 0.029257869 0.31691489
-0.024817437 0.029238228 0.31670213
-0.024154978 0.029218586 0.31648937
0.03589778 0.028698053 0.31085107
0.036544565 0.028707875 0.31095746
0.0372045 0.028727517 0.31117022
0.037865303 0.02874716 0.31138298
-0.090479054 0.030014947 0.3180851
-0.08998023 0.03006514 0.31861702
-0.028492343 0.029673642 0.31446809
-0.027860103 0.029683681 0.31457448
-0.027245836 0.029713793 0.3148936
-0.026657233 0.029774025 0.31553191
-0.026066024 0.029834256 0.31617022
-0.025429444 0.029844295 0.31627661
-0.024767417 0.029824216 0.31606382
-0.024106262 0.02980414 0.31585106
0.035873208 0.029312259 0.31063831
0.036519557 0.029322295 0.31074467
0.037166342 0.029332334 0.31085107
0.037826493 0.02935241 0.31106383
-0.090479054 0.030663989 0.3180851
-0.08998023 0.030715266 0.31861702
-0.028540535 0.030366579 0.315
-0.027888365 0.030356323 0.3148936
-0.027255042 0.030366579 0.315
-0.026639258 0.030397346 0.31531915
-0.026030941 0.030438367 0.31574467
-0.025403783 0.030458881 0.31595746
-0.024742408 0.030438367 0.31574467
-0.024081903 0.030417858 0.31553191
0.035873208 0.029946106 0.31063831
0.036519557 0.029956359 0.31074467
0.037166342 0.029966615 0.31085107
0.037891176 0.030038403 0.31159574
-0.090569831 0.031344451 0.31840426
-0.090040311 0.031386338 0.31882977
-0.02859837 0.031072164 0.3156383
-0.027944896 0.031061688 0.31553191
-0.027282655 0.031040745 0.31531915
-0.026648246 0.031051219 0.31542554
-0.026022172 0.031072164 0.3156383
-0.025395229 0.031093108 0.31585106
-0.024742408 0.031082634 0.31574467
-0.024090024 0.031072164 0.3156383
0.035922348 0.030621842 0.31106383
0.036557063 0.030621842 0.31106383
0.037191778 0.030621842 0.31106383
0.038059354 0.030810347 0.31297871
-0.090660617 0.032026213 0.31872341
-0.090100408 0.032058284 0.31904256
-0.028588729 0.031705521 0.31553191
-0.027935477 0.031694833 0.31542554
-0.02727345 0.031673454 0.31521276
-0.026639258 0.031684142 0.31531915
-0.0260134 0.031705521 0.31553191
-0.025395229 0.031737592 0.31585106
-0.024750745 0.031737592 0.31585106
-0.024114382 0.031748284 0.31595746
0.035946917 0.031277936 0.31127658
0.036582068 0.031277936 0.31127658
0.037217218 0.031277936 0.31127658
0.038279276 0.031630695 0.31478724
-0.028521258 0.032273009 0.31478724
-0.027888365 0.032283913 0.3148936
-0.027245836 0.032283913 0.3148936
-0.026621284 0.032305729 0.31510639
-0.026004631 0.032338448 0.31542554
-0.025386674 0.032371167 0.31574467
-0.024759082 0.032392982 0.31595746
0.035971493 0.031934898 0.31148937
0.036594573 0.031923991 0.31138298
0.037217218 0.031913083 0.31127658
0.038356896 0.032338448 0.31542554
-0.028453786 0.032837451 0.31404254
-0.027831838 0.032859702 0.31425533
-0.027218224 0.032893073 0.31457448
-0.026612295 0.032937568 0.315
-0.026004631 0.032982063 0.31542554
-0.025386674 0.033015434 0.31574467
-0.024767417 0.033048805 0.31606382
0.035946917 0.032548234 0.31127658
0.036569569 0.03253711 0.31117022
0.037191778 0.032525986 0.31106383
0.038266338 0.032904197 0.31468084
-0.028492343 0.033523612 0.31446809
-0.027869523 0.033546291 0.31468084
-0.027255042 0.033580314 0.315
-0.026639258 0.033614337 0.31531915
-0.026022172 0.033648361 0.3156383
-0.025403783 0.033682384 0.31595746
-0.024775755 0.033705063 0.31617022
0.035910066 0.033149362 0.31095746
0.036544565 0.033149362 0.31095746
0.037166342 0.033138022 0.31085107
0.038033478 0.033342157 0.31276596
-0.028617647 0.034315526 0.31585106
-0.027982585 0.034327086 0.31595746
-0.027337885 0.034327086 0.31595746
-0.026693184 0.034327086 0.31595746
-0.026057253 0.034338642 0.31606382
-0.025429444 0.034361757 0.31627661
-0.024792427 0.034373313 0.31638297
0.035873208 0.033749186 0.31063831
0.036507055 0.033749186 0.31063831
0.037128184 0.03373763 0.31053191
0.037839431 0.033806976 0.31117022
-0.089950189 0.035254385 0.31851065
-0.089359932 0.035277937 0.31872341
-0.088798411 0.03531326 0.31904256
-0.028762227 0.035136633 0.3174468
-0.028095646 0.035113085 0.31723404
-0.027411522 0.035065986 0.31680852
-0.026729133 0.035018884 0.31638297
-0.026066024 0.034995332 0.31617022
-0.025429444 0.035007112 0.31627661
-0.024792427 0.035018884 0.31638297
0.035848636 0.034359481 0.31042552
0.036469549 0.034347709 0.31031916
0.037090022 0.034335934 0.31021276
0.037684191 0.034300607 0.30989361
-0.089799963 0.035844333 0.31797871
-0.089210801 0.035868321 0.3181915
-0.088679969 0.035916287 0.31861702
-0.088176802 0.035976246 0.31914893
-0.028820062 0.035856325 0.3180851
-0.028133335 0.035808358 0.31765959
-0.027429931 0.035736404 0.31702128
-0.026729133 0.035664454 0.31638297
-0.026048483 0.035616487 0.31595746
-0.025403783 0.035616487 0.31595746
-0.024767417 0.035628475 0.31606382
0.035811782 0.034956921 0.3101064
0.036432039 0.034944929 0.31
0.037013706 0.034896959 0.30957446
0.037580699 0.034836996 0.30904254
0.038171828 0.034801021 0.30872339
-0.089799963 0.036493156 0.31797871
-0.089240618 0.036529787 0.31829786
-0.088739187 0.036590829 0.31882977
-0.028771868 0.036444321 0.31755319
-0.028095646 0.036407694 0.31723404
-0.027393112 0.03633444 0.31659573
-0.026684197 0.036248975 0.31585106
-0.026004631 0.03620014 0.31542554
-0.025361016 0.03620014 0.31542554
-0.0247174 0.03620014 0.31542554
0.035762638 0.035540845 0.30968085
0.036369529 0.035516426 0.30946809
0.036924671 0.035443172 0.30882978
0.037464272 0.03535771 0.30808511
0.038040292 0.035308871 0.30765957
-0.089950189 0.037204117 0.31851065
-0.089419581 0.037253819 0.31893617
-0.028704397 0.037005298 0.31680852
-0.028029693 0.036968019 0.31648937
-0.027337885 0.036905888 0.31595746
-0.026648246 0.036843754 0.31542554
-0.025969548 0.036794048 0.315
-0.025326801 0.036794048 0.315
-0.024684055 0.036794048 0.315
0.03628201 0.036060899 0.30872339
0.036822915 0.035973918 0.30797872
0.037373714 0.03589936 0.30734041
0.037948221 0.035849657 0.3069149
-0.090690874 0.037891954 0.31882977
-0.090130441 0.037929885 0.31914893
-0.027992006 0.037563227 0.31606382
-0.027310271 0.037512656 0.3156383
-0.026630269 0.037462082 0.31521276
-0.025960777 0.037424151 0.3148936
-0.025318246 0.037424151 0.3148936
-0.024675718 0.037424151 0.3148936
0.036181994 0.036589697 0.30787235
0.036759317 0.036539122 0.30744681
0.037334908 0.036488552 0.30702129
0.037935063 0.036463261 0.3068085
-0.027973162 0.038182426 0.31585106
-0.027301066 0.038143843 0.31553191
-0.026630269 0.038105264 0.31521276
-0.025960777 0.038066681 0.3148936
-0.025318246 0.038066681 0.3148936
-0.024684055 0.038079545 0.315
0.03611948 0.037153594 0.30734041
0.036746595 0.037153594 0.30734041
0.037347842 0.037127875 0.30712765
0.037974525 0.037127875 0.30712765
-0.027944896 0.038787678 0.31553191
-0.027291862 0.038774602 0.31542554
-0.026630269 0.038748443 0.31521276
-0.025969548 0.038722292 0.315
-0.025326801 0.038722292 0.315
-0.024692392 0.038735367 0.31510639
0.036144488 0.037806872 0.3075532
0.036784757 0.037819948 0.30765957
0.037412524 0.037819948 0.30765957
0.038053449 0.037833024 0.30776596
-0.090660617 0.039830346 0.31872341
-0.027926054 0.039404921 0.31531915
-0.027282655 0.039404921 0.31531915
-0.026630269 0.039391626 0.31521276
-0.025987089 0.039391626 0.31521276
-0.025335355 0.039378334 0.31510639
-0.024692392 0.039378334 0.31510639
-0.024041306 0.039365038 0.315
0.036232002 0.038527485 0.30829787
0.036873795 0.038540781 0.30840427
0.037503082 0.038540781 0.30840427
0.038145524 0.038554072 0.30851063
-0.090448789 0.040386107 0.31797871
-0.089950189 0.040453669 0.31851065
-0.027926054 0.04004832 0.31531915
-0.027291862 0.040061831 0.31542554
-0.026657233 0.040075343 0.31553191
-0.0260134 0.040075343 0.31553191
-0.025352461 0.04004832 0.31531915
-0.024692392 0.040021297 0.31510639
-0.024033187 0.03999427 0.3148936
0.036319517 0.039251134 0.30904254
0.036950108 0.039251134 0.30904254
0.037593637 0.039264649 0.30914894
0.038224444 0.039264649 0.30914894
-0.090176448 0.040911376 0.31702128
-0.089739881 0.041007474 0.31776595
-0.089419581 0.04115849 0.31893617
-0.027963741 0.040746629 0.31574467
-0.027328679 0.040760361 0.31585106
-0.026693184 0.040774092 0.31595746
-0.026039712 0.040760361 0.31585106
-0.025369568 0.040719174 0.31553191
-0.024692392 0.040664259 0.31510639
-0.02402507 0.040623076 0.31478724
0.036369529 0.039936643 0.30946809
0.037000988 0.039936643 0.30946809
0.037645381 0.039950367 0.30957446
0.038290214 0.039964098 0.30968085
-0.089964628 0.04146063 0.31627661
-0.089499533 0.0415443 0.31691489
-0.089210801 0.041711651 0.3181915
-0.027973162 0.041404843 0.31585106
-0.027356293 0.041446682 0.31617022
-0.026720148 0.04146063 0.31627661
-0.026057253 0.041432735 0.31606382
-0.025369568 0.041363005 0.31553191
-0.024692392 0.041307226 0.31510639
-0.02402507 0.041265387 0.31478724
0.036382031 0.040582046 0.30957446
0.037026428 0.040595993 0.30968085
0.037671257 0.040609941 0.30978724
0.038316518 0.040623881 0.30989361
-0.089813314 0.042035162 0.31574467
-0.089319274 0.04210598 0.31627661
-0.089002006 0.042261768 0.3174468
-0.088591143 0.042375069 0.31829786
-0.088088624 0.042445883 0.31882977
-0.087496422 0.042474214 0.31904256
-0.027944896 0.042006839 0.31553191
-0.027347088 0.042077653 0.31606382
-0.026702171 0.042077653 0.31606382
-0.026030941 0.042035162 0.31574467
-0.025343908 0.041964348 0.31521276
-0.024667382 0.041907702 0.31478724
-0.024008831 0.041879375 0.31457448
0.036369529 0.041199561 0.30946809
0.037013706 0.041213721 0.30957446
0.037684191 0.041256212 0.30989361
0.038329676 0.041270375 0.31
-0.089722544 0.042636294 0.31542554
-0.089229144 0.042708192 0.31595746
-0.088852875 0.042837609 0.31691489
-0.088413492 0.04293827 0.31765959
-0.087853491 0.042981405 0.31797871
-0.087175496 0.042967029 0.31787235
-0.028473064 0.042478114 0.31425533
-0.027869523 0.042535633 0.31468084
-0.027282655 0.042621911 0.31531915
-0.026648246 0.042636294 0.31542554
-0.025978319 0.042593155 0.31510639
-0.02530114 0.042535633 0.31468084
-0.024642373 0.042506874 0.31446809
-0.023992591 0.04249249 0.31436169
0.036332022 0.041787881 0.30914894
0.037000988 0.04183102 0.30946809
0.037671257 0.041874159 0.30978724
0.038329676 0.041902918 0.31
-0.089722544 0.043279909 0.31542554
-0.089229144 0.043352894 0.31595746
-0.088823058 0.043469667 0.31680852
-0.088354267 0.043557249 0.3174468
-0.087735921 0.043571845 0.31755319
-0.08705879 0.043557249 0.3174468
-0.08632417 0.043513454 0.31712765
-0.028405592 0.04301716 0.31351063
-0.027794149 0.043060951 0.31382978
-0.027199812 0.043133937 0.31436169
-0.026585331 0.043177728 0.31468084
-0.025925696 0.043148536 0.31446809
-0.025258373 0.043104742 0.31414893
-0.024609026 0.043090146 0.31404254
-0.023968233 0.043090146 0.31404254
0.036307018 0.042389493 0.30893618
0.03696283 0.042418689 0.30914894
0.037658319 0.042491671 0.30968085
0.038316518 0.042520866 0.30989361
-0.089783065 0.043953151 0.3156383
-0.089289226 0.04402722 0.31617022
-0.088852875 0.044130918 0.31691489
-0.088383883 0.044219803 0.31755319
-0.087765321 0.044234619 0.31765959
-0.08705879 0.044204988 0.3174468
-0.086353138 0.04417536 0.31723404
-0.028367037 0.043597616 0.31308511
-0.027756464 0.043642055 0.31340426
-0.02715379 0.04370131 0.31382978
-0.026540393 0.043745752 0.31414893
-0.025890613 0.043730937 0.31404254
-0.025241267 0.043716125 0.31393617
-0.024592353 0.04370131 0.31382978
-0.023951994 0.04370131 0.31382978
0.036269508 0.042975426 0.30861703
0.03693739 0.043019868 0.30893618
0.037619509 0.043079123 0.3093617
0.03827706 0.04310875 0.30957446
0.14010586 0.0414644 0.29776597
0.14041181 0.041375514 0.29712766
0.14071514 0.041286629 0.29648936
-0.0899041 0.044657324 0.31606382
-0.089379363 0.04471745 0.31648937
-0.088972189 0.044837698 0.31734043
-0.088472709 0.044912852 0.31787235
-0.087853491 0.04492788 0.31797871
-0.087146312 0.044897821 0.31776595
-0.086411051 0.044852726 0.3174468
-0.028386315 0.044266514 0.31329787
-0.027765883 0.044296578 0.31351063
-0.02715379 0.044341668 0.31382978
-0.026522418 0.044356704 0.31393617
-0.025881844 0.044356704 0.31393617
-0.02522416 0.044326641 0.31372342
-0.02457568 0.044311609 0.31361702
-0.023927636 0.044296578 0.31351063
0.036244504 0.043575089 0.30840427
0.036899231 0.043605149 0.30861703
0.037567765 0.043650243 0.30893618
0.038224444 0.043680303 0.30914894
0.13964778 0.04211707 0.29808509
0.14010586 0.042071979 0.29776597
0.14036153 0.041966759 0.29702127
0.14066465 0.041876577 0.29638299
-0.090055399 0.04537848 0.31659573
-0.089529574 0.045439474 0.31702128
-0.089121319 0.045561459 0.31787235
-0.088591143 0.045622449 0.31829786
-0.087912276 0.045607205 0.3181915
-0.087146312 0.045546211 0.31776595
-0.086411051 0.045500465 0.3174468
-0.027794149 0.044982031 0.31382978
-0.027172199 0.045012526 0.31404254
-0.026531406 0.045012526 0.31404254
-0.025881844 0.044997279 0.31393617
-0.02522416 0.044966783 0.31372342
-0.024559008 0.044921041 0.31340426
-0.023895159 0.044875294 0.31308511
0.036206998 0.04415863 0.30808511
0.036861073 0.044189125 0.30829787
0.037516017 0.044219621 0.30851063
0.038158678 0.044234872 0.30861703
0.13964778 0.042725302 0.29808509
0.14015591 0.042694807 0.29787233
0.14046207 0.042603318 0.29723403
0.14071514 0.042496581 0.29648936
0.14111729 0.04243559 0.29606384
-0.090236969 0.046117276 0.31723404
-0.089709841 0.046179138 0.31765959
-0.089210801 0.046256464 0.3181915
-0.088620752 0.046287395 0.31840426
-0.087882884 0.046240997 0.3180851
-0.08705879 0.046148207 0.3174468
-0.086295217 0.046086345 0.31702128
-0.02785068 0.045715179 0.31446809
-0.027209019 0.045715179 0.31446809
-0.026540393 0.045668785 0.31414893
-0.025881844 0.045637857 0.31393617
-0.025207052 0.045575991 0.31351063
-0.024534 0.045514133 0.31308511
-0.023846444 0.04542134 0.3124468
0.036181994 0.044756338 0.30787235
0.036822915 0.044771802 0.30797872
0.037477206 0.044802733 0.30819148
0.03813237 0.044833664 0.30840427
0.13969763 0.043349002 0.29819149
0.14020596 0.043318074 0.29797873
0.14056262 0.043240748 0.29744682
0.14091711 0.043163422 0.29691491
0.14132011 0.04310156 0.29648936
-0.090448789 0.046874356 0.31797871
-0.089860059 0.046905722 0.3181915
-0.089300275 0.046952773 0.31851065
-0.088650368 0.046952773 0.31851065
-0.087824099 0.046858676 0.31787235
-0.086971261 0.046748899 0.31712765
-0.086179383 0.046670485 0.31659573
-0.027897788 0.046435252 0.315
-0.027236633 0.046403889 0.31478724
-0.026558369 0.046341158 0.31436169
-0.025881844 0.046278432 0.31393617
-0.025207052 0.046215702 0.31351063
-0.02450899 0.046105925 0.31276596
-0.023805847 0.045980468 0.31191489
-0.023129884 0.045902055 0.31138298
0.036810197 0.045384541 0.30787235
0.037464272 0.045415908 0.30808511
0.038106062 0.045431584 0.30819148
0.14020596 0.04392609 0.29797873
0.14066316 0.04387904 0.29765958
0.14111906 0.043831993 0.29734042
0.14167506 0.043816309 0.29723403
-0.090630352 0.047618579 0.31861702
-0.08998023 0.047618579 0.31861702
-0.089359932 0.047634479 0.31872341
-0.088650368 0.047602683 0.31851065
-0.087853491 0.047523182 0.31797871
-0.087000437 0.047411885 0.31723404
-0.086237304 0.047348291 0.31680852
-0.027916631 0.047109798 0.31521276
-0.027245836 0.047062099 0.3148936
-0.026558369 0.046982605 0.31436169
-0.025873072 0.046903107 0.31382978
-0.025189945 0.04682361 0.31329787
-0.024492318 0.046712317 0.3125532
-0.023781488 0.046569221 0.31159574
-0.023098275 0.046473827 0.31095746
0.036797475 0.045996845 0.30776596
0.0374384 0.046012744 0.30787235
0.038053449 0.045996845 0.30776596
0.14025602 0.044550002 0.29808509
0.14081399 0.044534106 0.29797873
0.141422 0.044534106 0.29797873
0.14203002 0.044534106 0.29797873
0.14258711 0.044518203 0.29787233
0.14278577 0.04439101 0.29702127
0.14308369 0.044295616 0.29638299
0.14358529 0.044263814 0.2961702
0.14418963 0.044263814 0.2961702
-0.090690874 0.048300937 0.31882977
-0.090040311 0.048300937 0.31882977
-0.089389749 0.048300937 0.31882977
-0.088679969 0.048268706 0.31861702
-0.087941669 0.048220355 0.31829786
-0.087204665 0.048172005 0.31797871
-0.086497925 0.048139773 0.31776595
-0.028530896 0.04770463 0.3148936
-0.027888365 0.04770463 0.3148936
-0.027227428 0.047672398 0.31468084
-0.026549382 0.047607932 0.31425533
-0.025864303 0.047527354 0.31372342
-0.025172839 0.047430653 0.31308511
-0.024483981 0.047333952 0.3124468
-0.023781488 0.04720502 0.31159574
-0.023106176 0.047124438 0.31106383
0.036772039 0.046592601 0.3075532
0.037386652 0.046576481 0.30744681
0.037987679 0.04654425 0.30723405
0.14096481 0.045190468 0.29829788
0.14167444 0.045222703 0.29851064
0.14223284 0.045206584 0.29840425
0.14268894 0.045158233 0.29808509
0.14278577 0.04499707 0.29702127
0.14303233 0.044884257 0.2962766
0.14348215 0.044835906 0.29595745
0.14403424 0.044819787 0.29585105
0.1445339 0.044787556 0.29563829
-0.090690874 0.048951499 0.31882977
-0.09001027 0.048935167 0.31872341
-0.089359932 0.048935167 0.31872341
-0.088679969 0.048918832 0.31861702
-0.088059239 0.048935167 0.31872341
-0.087408893 0.048935167 0.31872341
-0.086758554 0.048935167 0.31872341
-0.028473064 0.048249163 0.31425533
-0.027841257 0.048265491 0.31436169
-0.027190611 0.048249163 0.31425533
-0.026513431 0.048183825 0.31382978
-0.025829218 0.048102159 0.31329787
-0.025155732 0.048036825 0.31287235
-0.024475645 0.047955159 0.31234044
-0.023805847 0.047889821 0.31191489
-0.02315359 0.047857158 0.31170213
0.036721159 0.047154814 0.30712765
0.037334908 0.047138486 0.30702129
0.037921913 0.047089484 0.30670214
0.038520984 0.047056813 0.30648935
0.14111562 0.045848139 0.29861704
0.14182591 0.045880802 0.29882979
0.14238496 0.04586447 0.2987234
0.14268894 0.045766465 0.29808509
0.14278577 0.045603134 0.29702127
0.14292961 0.045456134 0.29606384
0.14322427 0.045358133 0.29542553
0.1437235 0.045325466 0.29521278
0.14427386 0.04530913 0.29510638
0.14487602 0.04530913 0.29510638
-0.090509318 0.04950276 0.3181915
-0.089860059 0.04950276 0.3181915
-0.089240618 0.049519308 0.31829786
-0.088620752 0.049535859 0.31840426
-0.088088624 0.049602062 0.31882977
-0.087525591 0.049651712 0.31914893
-0.028395955 0.048757985 0.31340426
-0.027765883 0.048774533 0.31351063
-0.027135381 0.048791084 0.31361702
-0.026477482 0.048757985 0.31340426
-0.025802907 0.048691779 0.31297871
-0.025147179 0.04865868 0.31276596
-0.024500653 0.048642129 0.31265956
-0.02386268 0.048642129 0.31265956
-0.02322471 0.048642129 0.31265956
0.036670282 0.047715299 0.30670214
0.037270222 0.047682192 0.30648935
0.037842989 0.047615994 0.30606383
0.038440764 0.047582895 0.30585107
0.1418764 0.046507105 0.29893616
0.14238496 0.046474002 0.2987234
0.14268894 0.046374697 0.29808509
0.14273465 0.046192646 0.29691491
0.1428269 0.046027139 0.29585105
0.14306955 0.045911286 0.29510638
0.14346454 0.045845084 0.29468086
0.14401381 0.045828532 0.29457447
0.14461488 0.045828532 0.29457447
-0.090146184 0.049950805 0.31691489
-0.089559615 0.04998434 0.31712765
-0.089002006 0.050034642 0.3174468
-0.08850231 0.05011848 0.31797871
-0.088059239 0.050235856 0.31872341
-0.028309204 0.049246565 0.3124468
-0.027690509 0.0492801 0.31265956
-0.027080152 0.049330402 0.31297871
-0.026441529 0.049330402 0.31297871
-0.025794139 0.049313638 0.31287235
-0.025164284 0.049330402 0.31297871
-0.024550671 0.049380705 0.31329787
-0.023927636 0.04941424 0.31351063
0.036657561 0.048324347 0.30659574
0.037257288 0.048290811 0.30638298
0.037829835 0.048223738 0.30595744
0.03841402 0.048173435 0.30563828
0.14167444 0.047050003 0.29851064
0.14228354 0.047050003 0.29851064
0.14263803 0.046966165 0.29797873
0.14273465 0.04679849 0.29691491
0.1428269 0.046630811 0.29585105
0.1429664 0.046479907 0.29489362
0.14336094 0.046412833 0.29446808
0.14385778 0.046379298 0.29425532
0.1444582 0.046379298 0.29425532
-0.08969228 0.05034269 0.31531915
-0.089169048 0.050410628 0.31574467
-0.088763393 0.050546505 0.31659573
-0.088354267 0.050682381 0.3174468
-0.087971061 0.050835248 0.31840426
-0.028232094 0.049748223 0.31159574
-0.027624559 0.049799178 0.31191489
-0.027015721 0.049850132 0.31223404
-0.026396591 0.049884103 0.3124468
-0.025785366 0.049935058 0.31276596
-0.025198501 0.050036967 0.31340426
-0.024609026 0.050138872 0.31404254
-0.023992591 0.050189827 0.31436169
0.036657561 0.048949942 0.30659574
0.037257288 0.048915975 0.30638298
0.037829835 0.048848033 0.30595744
0.03842739 0.048814066 0.30574468
0.14051235 0.047472272 0.29734042
0.14132103 0.047540214 0.29776597
0.14213143 0.047608152 0.29819149
0.14258711 0.047557198 0.29787233
0.14288805 0.047455285 0.29723403
0.14298096 0.047285441 0.2961702
0.14312112 0.047132581 0.29521278
0.14341274 0.047030672 0.29457447
0.14385778 0.046979718 0.29425532
0.14440596 0.046962731 0.29414892
-0.088928699 0.050917279 0.3148936
-0.088584445 0.051089302 0.31595746
-0.088235833 0.051261317 0.31702128
-0.087853491 0.051416129 0.31797871
-0.087408893 0.051536545 0.31872341
-0.028154982 0.05024641 0.31074467
-0.027549185 0.050298017 0.31106383
-0.026951289 0.050366826 0.31148937
-0.026360642 0.050452836 0.31202129
-0.025776595 0.050556041 0.31265956
-0.025207052 0.050693657 0.31351063
-0.024642373 0.050848473 0.31446809
-0.024033187 0.050917279 0.3148936
0.036670282 0.049592745 0.30670214
0.03728316 0.049575541 0.30659574
0.037869297 0.049523935 0.30627659
0.038480874 0.049506735 0.30617023
0.13854334 0.048027381 0.29702127
0.13909957 0.048010182 0.29691491
0.1396053 0.047975775 0.29670212
0.14026098 0.047992978 0.29680851
0.14096759 0.048027381 0.29702127
0.14177649 0.048096191 0.29744682
0.14243433 0.048113387 0.29755318
0.1429392 0.048078988 0.29734042
0.14313504 0.047941372 0.29648936
0.14327586 0.04778656 0.29553193
0.14351632 0.047666144 0.29478723
0.1439098 0.047597338 0.29436171
-0.088988796 0.051594649 0.31510639
-0.088584445 0.051734 0.31595746
-0.088176616 0.051873352 0.31680852
-0.087735921 0.051995281 0.31755319
-0.087233841 0.052082375 0.3180851
-0.086700641 0.052152053 0.31851065
-0.086079463 0.052169468 0.31861702
-0.028097151 0.050775964 0.3101064
-0.027492654 0.050828218 0.31042552
-0.026905265 0.050915316 0.31095746
-0.02633368 0.051037244 0.31170213
-0.025759054 0.051159177 0.3124468
-0.025198501 0.051315948 0.31340426
-0.024634035 0.051472716 0.31436169
-0.02402507 0.051542394 0.31478724
0.036019459 0.050183721 0.30648935
0.036657561 0.05020114 0.30659574
0.03728316 0.05020114 0.30659574
0.037895601 0.050183721 0.30648935
0.038507614 0.050166301 0.30638298
0.1381349 0.048703119 0.29744682
0.1386922 0.0486857 0.29734042
0.13919924 0.048650865 0.29712766
0.1396053 0.048581183 0.29670212
0.1400599 0.048528932 0.29638299
0.14061417 0.048511513 0.2962766
0.14132011 0.048546348 0.29648936
0.1421288 0.048616026 0.29691491
0.14278577 0.048633441 0.29702127
0.14318641 0.048563767 0.29659575
0.14343056 0.048441835 0.29585105
0.14367171 0.048319902 0.29510638
0.14401381 0.048232809 0.29457447
-0.089259185 0.052396335 0.31606382
-0.088673927 0.052431609 0.31627661
-0.088176616 0.052519791 0.31680852
-0.087647744 0.052590329 0.31723404
-0.087117143 0.052660875 0.31765959
-0.086555839 0.052713782 0.31797871
-0.085964501 0.052749056 0.3181915
-0.028048955 0.051320542 0.30957446
-0.027454967 0.051391087 0.31
-0.026886854 0.05151454 0.31074467
-0.026324691 0.051655624 0.31159574
-0.025759054 0.051796712 0.3124468
-0.025181394 0.051920168 0.3131915
-0.02460069 0.052043617 0.31393617
-0.023992591 0.052114159 0.31436169
0.036632124 0.050791468 0.30638298
0.037270222 0.0508091 0.30648935
0.037908759 0.05082674 0.30659574
0.038534354 0.05082674 0.30659574
0.13894032 0.049380593 0.29787233
0.13949828 0.049362957 0.29776597
0.13975546 0.049239505 0.29702127
0.14000963 0.049116053 0.2962766
0.14031123 0.049010236 0.29563829
0.14086376 0.048992604 0.29553193
0.14161955 0.049045507 0.29585105
0.14237665 0.049098417 0.2961702
0.14287826 0.049063146 0.29595745
0.14327586 0.048992604 0.29553193
0.14361991 0.048904419 0.29499999
0.14406583 0.048851516 0.29468086
-0.089439444 0.05314837 0.31670213
-0.088823058 0.053166226 0.31680852
-0.088235833 0.053201932 0.31702128
-0.087677144 0.053255491 0.31734043
-0.087117143 0.053309049 0.31765959
-0.086613759 0.053398315 0.3181915
-0.086021982 0.053434018 0.31840426
-0.028068235 0.051987927 0.30978724
-0.027483232 0.052077193 0.31031916
-0.026914468 0.052202161 0.31106383
-0.026351655 0.052344985 0.31191489
-0.025767826 0.052452106 0.3125532
-0.025189945 0.052577075 0.31329787
-0.02460069 0.052684195 0.31393617
-0.023984473 0.052737754 0.31425533
0.036606684 0.051380929 0.30617023
0.03724435 0.051398776 0.30627659
0.037895601 0.051434483 0.30648935
0.038534354 0.051452335 0.30659574
0.13908918 0.050041951 0.29819149
0.13959795 0.050006244 0.29797873
0.13985558 0.049881272 0.29723403
0.13995935 0.049702741 0.2961702
0.14010927 0.049542069 0.29521278
0.14055952 0.049488507 0.29489362
0.14111032 0.049470652 0.29478723
0.1418141 0.049506359 0.29499999
0.14236468 0.049488507 0.29489362
0.14281167 0.049434949 0.29457447
0.14325736 0.04938139 0.29425532
0.14380577 0.049363535 0.29414892
-0.090085663 0.053794593 0.31670213
-0.089499533 0.053830732 0.31691489
-0.088912524 0.053866871 0.31712765
-0.088324666 0.053903013 0.31734043
-0.087794706 0.053975292 0.31776595
-0.087292194 0.054065641 0.31829786
-0.086845428 0.054192133 0.31904256
-0.028135706 0.052746527 0.31053191
-0.027539764 0.052818809 0.31095746
-0.026960492 0.052927226 0.31159574
-0.026378617 0.05303565 0.31223404
-0.025785366 0.053126 0.31276596
-0.025198501 0.053234421 0.31340426
-0.024609026 0.053342838 0.31404254
-0.023992591 0.053397048 0.31436169
0.036581244 0.051969513 0.30595744
0.037231416 0.052005656 0.30617023
0.037882451 0.052041795 0.30638298
0.038534354 0.052077934 0.30659574
0.13964778 0.050632328 0.29808509
0.13985558 0.050487768 0.29723403
0.13990907 0.050289001 0.29606384
0.14000827 0.050108295 0.29499999
0.14030598 0.049999878 0.29436171
0.14070292 0.049927596 0.29393616
0.14120041 0.049891457 0.2937234
0.14164566 0.049837247 0.29340425
0.14214119 0.049801107 0.29319149
0.14273944 0.049801107 0.29319149
0.14354572 0.049873386 0.29361701
0.1444582 0.049981806 0.29425532
-0.090115927 0.054459102 0.31680852
-0.089529574 0.054495674 0.31702128
-0.088972189 0.054550536 0.31734043
-0.088413492 0.054605398 0.31765959
-0.087912276 0.054696832 0.3181915
-0.087496422 0.054843131 0.31904256
-0.027615136 0.0535996 0.3118085
-0.027015721 0.053672753 0.31223404
-0.026414566 0.053745899 0.31265956
-0.025802907 0.053800762 0.31297871
-0.025198501 0.053873911 0.31340426
-0.024609026 0.053983632 0.31404254
-0.023992591 0.054038491 0.31436169
0.036581244 0.052593809 0.30595744
0.037218478 0.0526121 0.30606383
0.037869297 0.052648671 0.30627659
0.038507614 0.052666958 0.30638298
0.13924907 0.051094264 0.29723403
0.13965535 0.051021118 0.29680851
0.1398588 0.050874818 0.29595745
0.1399578 0.050691947 0.29489362
0.14015386 0.050545651 0.29404256
0.1404483 0.050435927 0.29340425
0.14074013 0.050326202 0.29276595
0.14113209 0.050253056 0.29234043
0.14162545 0.050216485 0.29212767
0.1423769 0.050271347 0.29244682
0.14328568 0.050381064 0.2930851
0.14430152 0.050527364 0.29393616
0.14521594 0.050637089 0.29457447
0.14602765 0.050710235 0.29499999
-0.090115927 0.055105537 0.31680852
-0.089529574 0.055142544 0.31702128
-0.088942356 0.055179551 0.31723404
-0.088413492 0.055253573 0.31765959
-0.087941669 0.055364594 0.31829786
-0.027662246 0.05432836 0.31234044
-0.027043335 0.05436537 0.3125532
-0.026423555 0.054402377 0.31276596
-0.025794139 0.054420881 0.31287235
-0.025181394 0.054476395 0.3131915
-0.02457568 0.054550409 0.31361702
-0.023951994 0.054587416 0.31382978
0.036568526 0.053199604 0.30585107
0.03720554 0.053218104 0.30595744
0.037829835 0.053218104 0.30595744
0.03845413 0.053218104 0.30595744
0.13735242 0.05121965 0.29446808
0.13855134 0.051441703 0.29574469
0.13925491 0.05147871 0.29595745
0.13965772 0.051404696 0.29553193
0.13980633 0.051238157 0.29457447
0.14000174 0.051090121 0.2937234
0.14019369 0.050942089 0.29287234
0.14048442 0.050831061 0.29223403
0.14087529 0.050757047 0.29180852
0.14141914 0.050738543 0.29170212
0.14222153 0.050812561 0.29212767
0.14312965 0.050923582 0.29276595
0.14404039 0.051034611 0.29340425
0.14495373 0.051145636 0.29404256
0.14581701 0.051238157 0.29457447
0.14636521 0.05121965 0.29446808
0.14675368 0.051145636 0.29404256
-0.090055399 0.055714529 0.31659573
-0.089439444 0.055733252 0.31670213
-0.088882707 0.055789415 0.31702128
-0.088354267 0.055864301 0.3174468
-0.087882884 0.055976629 0.3180851
-0.087467246 0.056126397 0.31893617
-0.027671667 0.054984398 0.3124468
-0.02703413 0.054984398 0.3124468
-0.026414566 0.055021841 0.31265956
-0.025785366 0.055040564 0.31276596
-0.025164284 0.055078007 0.31297871
-0.024534 0.055096731 0.31308511
-0.023895159 0.055096731 0.31308511
0.036543082 0.053786237 0.30563828
0.03716673 0.053786237 0.30563828
0.037790373 0.053786237 0.30563828
0.03841402 0.053786237 0.30563828
0.12810782 0.051726896 0.29393616
0.12903367 0.051857948 0.29468086
0.12986895 0.051951554 0.29521278
0.13051833 0.051970273 0.29531914
0.13093199 0.051895391 0.29489362
0.13110664 0.051726896 0.29393616
0.13151574 0.051652014 0.29351065
0.13197099 0.051595848 0.29319149
0.13541766 0.051315032 0.29159576
0.13660811 0.051539686 0.29287234
0.13780376 0.051764339 0.29414892
0.1387043 0.051876668 0.29478723
0.13920526 0.051839225 0.29457447
0.13950339 0.051726896 0.29393616
0.13969749 0.051577125 0.2930851
0.13993905 0.05144608 0.29234043
0.140331 0.051371191 0.29191488
0.14087529 0.051352475 0.29180852
0.14157386 0.051389914 0.29202127
0.1423251 0.05144608 0.29234043
0.14307764 0.051502243 0.29265958
0.14383149 0.051558409 0.29297873
0.14463907 0.051633291 0.29340425
0.14539574 0.051689457 0.2937234
0.14599507 0.051689457 0.2937234
0.14622274 0.051558409 0.29297873
0.14628743 0.051371191 0.29191488
-0.089934364 0.056284782 0.31617022
-0.089319274 0.056303721 0.31627661
-0.088793226 0.056379471 0.31670213
-0.088265441 0.056455221 0.31712765
-0.087765321 0.056549918 0.31765959
-0.087321371 0.056682486 0.31840426
-0.086845428 0.056796119 0.31904256
-0.027605716 0.055489369 0.31170213
-0.026988106 0.055527247 0.31191489
-0.026378617 0.055584062 0.31223404
-0.025767826 0.055640876 0.3125532
-0.025147179 0.055678751 0.31276596
-0.02450899 0.055678751 0.31276596
-0.023870802 0.055678751 0.31276596
0.036492206 0.05433413 0.30521277
0.037114985 0.05433413 0.30521277
0.037750915 0.05435307 0.30531916
0.03837391 0.05435307 0.30531916
0.10237786 0.053614471 0.3011702
0.11872258 0.051379748 0.28861701
0.11939944 0.051417623 0.28882977
0.12012137 0.051474437 0.28914893
0.12088903 0.051550195 0.28957447
0.12170304 0.051644884 0.29010639
0.12260891 0.051777452 0.29085106
0.12356289 0.05192896 0.29170212
0.12442978 0.052042589 0.29234043
0.12516278 0.052099407 0.29265958
0.12580565 0.052118342 0.29276595
0.1264949 0.052156221 0.29297873
0.12713885 0.052175157 0.2930851
0.12782963 0.052213036 0.29329789
0.12847467 0.052231971 0.29340425
0.12916695 0.052269846 0.29361701
0.12981308 0.052288789 0.2937234
0.13036518 0.052269846 0.29361701
0.1307745 0.052194096 0.29319149
0.13122974 0.052137282 0.29287234
0.13173157 0.052099407 0.29265958
0.13228062 0.052080464 0.29255319
0.13278092 0.052042589 0.29234043
0.13323183 0.051985774 0.29202127
0.13368143 0.05192896 0.29170212
0.13408077 0.051853206 0.2912766
0.13457672 0.051815327 0.29106382
0.13526945 0.051853206 0.2912766
0.13616151 0.051966835 0.29191488
0.13720571 0.052137282 0.29287234
0.13810363 0.052250914 0.29351065
0.13865225 0.052231971 0.29340425
0.13899849 0.052137282 0.29287234
0.13924114 0.052004714 0.29212767
0.1395826 0.051910024 0.29159576
0.14012644 0.051891081 0.29148936
0.14087529 0.051947899 0.29180852
0.14167701 0.052023649 0.29223403
0.1423251 0.052042589 0.29234043
0.14297363 0.052061532 0.29244682
0.14362258 0.052080464 0.29255319
0.14432441 0.052118342 0.29276595
0.14502712 0.052156221 0.29297873
0.14551917 0.052118342 0.29276595
0.14569178 0.051966835 0.29191488
0.14570101 0.051758517 0.29074469
0.14575896 0.05156913 0.28968084
-0.089783065 0.056834139 0.3156383
-0.089229144 0.056891605 0.31595746
-0.088703744 0.056968223 0.31638297
-0.088235833 0.05708316 0.31702128
-0.087735921 0.057178937 0.31755319
-0.087204665 0.057255555 0.31797871
-0.086671673 0.05733218 0.31840426
-0.027502075 0.055914678 0.31053191
-0.026923675 0.05602961 0.31117022
-0.026342666 0.056144539 0.3118085
-0.025750285 0.05624032 0.31234044
-0.025138624 0.056297783 0.31265956
-0.024517328 0.056336097 0.31287235
-0.023878921 0.056336097 0.31287235
0.03641589 0.054841973 0.30457446
0.037050303 0.054861128 0.30468085
0.037711453 0.054918598 0.30500001
0.038347166 0.05493775 0.30510637
0.097470574 0.053558562 0.29744682
0.10025559 0.053750116 0.29851064
0.10122415 0.053941667 0.29957446
0.10198008 0.054018293 0.30000001
0.10248307 0.053960826 0.29968086
0.10276518 0.053788424 0.2987234
0.10616925 0.052754033 0.29297873
0.1068446 0.052792344 0.29319149
0.10759878 0.052868962 0.29361701
0.10835471 0.052945588 0.29404256
0.10903353 0.052983899 0.29425532
0.10955468 0.052945588 0.29404256
0.10995539 0.052849811 0.29351065
0.11031387 0.052734878 0.29287234
0.11066974 0.052619942 0.29223403
0.11114451 0.052562475 0.29191488
0.11178088 0.052581634 0.29202127
0.11249956 0.052639101 0.29234043
0.11317838 0.052677412 0.29255319
0.11377533 0.052677412 0.29255319
0.1142891 0.052639101 0.29234043
0.11484379 0.052619942 0.29223403
0.11548211 0.052639101 0.29234043
0.11607863 0.052639101 0.29234043
0.11659022 0.05260079 0.29212767
0.11701559 0.052524168 0.29170212
0.11739634 0.052428391 0.29117021
0.1176887 0.052294303 0.29042554
0.11797801 0.052160211 0.28968084
0.11830784 0.052045286 0.28904256
0.11885386 0.052026127 0.28893617
0.1194874 0.052045286 0.28904256
0.12016558 0.052083593 0.28925532
0.12093344 0.052160211 0.28968084
0.12174767 0.052255996 0.29021278
0.12260891 0.052370925 0.29085106
0.12347277 0.052485857 0.29148936
0.12433922 0.05260079 0.29212767
0.12507179 0.05265826 0.29244682
0.12571423 0.052677412 0.29255319
0.12631117 0.052677412 0.29255319
0.12681583 0.052639101 0.29234043
0.1273196 0.05260079 0.29212767
0.1278225 0.052562475 0.29191488
0.12841815 0.052562475 0.29191488
0.12901379 0.052562475 0.29191488
0.12965667 0.052581634 0.29202127
0.13020508 0.052562475 0.29191488
0.13075306 0.052543323 0.29180852
0.1313006 0.052524168 0.29170212
0.13194391 0.052543323 0.29180852
0.13253933 0.052543323 0.29180852
0.13308622 0.052524168 0.29170212
0.13358393 0.052485857 0.29148936
0.13403179 0.052428391 0.29117021
0.13447835 0.052370925 0.29085106
0.13502242 0.052351773 0.29074469
0.13576452 0.052409232 0.29106382
0.13665748 0.052524168 0.29170212
0.13745292 0.05260079 0.29212767
