# .PCD v0.7 - Point Cloud Data file format
VERSION 0.7
FIELDS x y z
SIZE 4 4 4
TYPE F F F
COUNT 1 1 1
WIDTH 1315
HEIGHT 1
VIEWPOINT 0 0 0 1 0 0 0
POINTS 1315
DATA ascii
0.033054985 -0.10678571 0.31403688
0.033120651 -0.10688028 0.31409368
0.0332595 -0.10696536 0.31424549
0.033366352 -0.10719292 0.31441596
0.033466063 -0.10724923 0.31440887
0.033539224 -0.10690039 0.31416827
0.033425681 -0.1066804 0.31397089
-0.096434861 -0.092448585 0.27940294
-0.09633176 -0.092466362 0.27945566
-0.096226864 -0.092542075 0.27955219
-0.096118964 -0.092518829 0.27957234
-0.096085764 -0.092630491 0.27967519
-0.096049309 -0.092731342 0.27974159
-0.096059032 -0.092878677 0.27983382
-0.095982283 -0.092860863 0.27983731
-0.095915109 -0.092819713 0.27983055
-0.095814392 -0.092767224 0.27982849
-0.095774077 -0.092857994 0.27987725
-0.095647745 -0.092942253 0.27994534
-0.095318332 -0.092964709 0.27999437
-0.094996966 -0.09291783 0.28001869
-0.094717257 -0.092898205 0.28007445
-0.094522454 -0.092948176 0.28010964
-0.031550694 -0.097829387 0.29247096
-0.031550694 -0.097829387 0.29247093
-0.031560071 -0.097685218 0.29231733
-0.031480178 -0.097823173 0.29231548
0.032589234 -0.10452926 0.31259868
0.032669697 -0.1046554 0.31264859
0.032742672 -0.10481787 0.31279427
0.032902475 -0.10525928 0.31309497
0.033000976 -0.10588106 0.31354797
0.033006206 -0.10616459 0.31367648
0.033039596 -0.10651646 0.3138319
0.033095684 -0.1065789 0.31388626
0.033113476 -0.10656272 0.31386161
0.033154938 -0.10660261 0.31385925
0.033238344 -0.10659577 0.31390545
0.033318087 -0.1065744 0.31395605
0.033180993 -0.10636553 0.31368276
0.03307699 -0.10579365 0.31333566
0.03288959 -0.10508159 0.31284651
-0.09706492 -0.091622248 0.27877444
-0.096675582 -0.091857575 0.27898258
-0.096400253 -0.09220276 0.27924526
-0.096301682 -0.092371188 0.27939647
-0.096157014 -0.092402324 0.27947575
-0.096074432 -0.092421994 0.27952534
-0.09601517 -0.092438869 0.27954736
-0.095976733 -0.092581689 0.27967238
-0.095990904 -0.092698403 0.27974632
-0.095942207 -0.092778966 0.27980971
-0.095866412 -0.092754111 0.27981189
-0.095835902 -0.092775077 0.27982983
-0.095734634 -0.09278132 0.27984908
-0.095549807 -0.092728384 0.27984947
-0.095233552 -0.092742853 0.2799181
-0.094981529 -0.092727631 0.27993479
-0.094736353 -0.092762783 0.28002679
-0.094572462 -0.092798822 0.28005898
-0.031671695 -0.097268179 0.29217991
-0.031671699 -0.097268194 0.29217991
-0.031671699 -0.097268194 0.29217994
-0.031682711 -0.097160205 0.29210261
-0.03165476 -0.097236753 0.29211736
0.032628775 -0.10465538 0.31274527
0.032698989 -0.10486738 0.31288818
0.032868538 -0.1053097 0.31318951
0.032973669 -0.10568872 0.3134301
0.032995373 -0.10608287 0.31365424
0.032992341 -0.10621998 0.31372914
0.03300631 -0.10646597 0.31387421
0.033081427 -0.10644944 0.31381661
0.033103667 -0.10636365 0.31374067
0.033103678 -0.10636368 0.31374064
0.033101402 -0.10631525 0.31371617
0.033130765 -0.10625921 0.3136346
0.033054315 -0.10581027 0.31341797
0.032994237 -0.10542075 0.31313887
0.032735649 -0.10439701 0.31235343
-0.097576529 -0.091184676 0.27839735
-0.097404085 -0.091098465 0.27843463
-0.097048692 -0.091379359 0.27867535
-0.096636884 -0.091642514 0.27889869
-0.096382141 -0.092007749 0.279129
-0.096231826 -0.092270449 0.27936298
-0.096163742 -0.092385925 0.27945822
-0.096054807 -0.092341244 0.27946359
-0.095983312 -0.092389651 0.2795229
-0.09593185 -0.092439085 0.27957425
-0.095917732 -0.092561968 0.27966964
-0.095890954 -0.092666626 0.27975112
-0.095849164 -0.092717998 0.27979171
-0.09582337 -0.092740119 0.27980912
-0.095695108 -0.092698947 0.27980736
-0.09556175 -0.092649981 0.27979943
-0.095270544 -0.092624418 0.279816
-0.094940677 -0.092616908 0.27989337
-0.094732657 -0.092663668 0.27999029
-0.094517142 -0.092728846 0.28003818
-0.094311103 -0.092758007 0.28010011
-0.031821597 -0.096574612 0.2917563
-0.03180844 -0.096683964 0.29183701
-0.031761896 -0.096894681 0.29199165
-0.031821594 -0.096574612 0.2917563
-0.031821597 -0.096574612 0.29175627
0.032513052 -0.10438225 0.31263372
0.032613382 -0.10453503 0.31270799
0.03271661 -0.1048804 0.3129366
0.032906543 -0.10540005 0.31327266
0.032981899 -0.10584909 0.31355166
0.032981358 -0.10613486 0.31370562
0.032959793 -0.10626479 0.31383035
0.03297561 -0.10633059 0.31385061
0.03301147 -0.10623705 0.31375325
0.033044826 -0.10616922 0.31367359
0.033063285 -0.10615768 0.31364053
0.033060398 -0.10603332 0.31358415
0.03305323 -0.10588861 0.31346661
0.033029091 -0.10559538 0.31330994
0.032912109 -0.1050788 0.31296372
0.032701205 -0.10394632 0.31205592
0.033449978 -0.10311222 0.31107482
-0.097612917 -0.092205308 0.27892914
-0.097478867 -0.09137819 0.27851379
-0.097421847 -0.091083206 0.2784265
-0.09726534 -0.091110133 0.27849162
-0.096936397 -0.091265574 0.27865753
-0.09658464 -0.091631487 0.27891064
-0.096386686 -0.091940694 0.27909184
-0.096235417 -0.092251547 0.27935007
-0.09614367 -0.092262365 0.27938128
-0.096075453 -0.092237152 0.27938107
-0.095983706 -0.092215419 0.27939475
-0.095877513 -0.092275336 0.27946654
-0.095861472 -0.092377029 0.27954268
-0.095826931 -0.092502154 0.27964869
-0.095774509 -0.092599139 0.27972975
-0.095732786 -0.092632368 0.27976263
-0.095619366 -0.092609264 0.27976623
-0.095466346 -0.092548743 0.27975416
-0.095276296 -0.092497893 0.27975282
-0.094946295 -0.092520319 0.2798444
-0.09474548 -0.09257789 0.27992356
-0.094529212 -0.092632793 0.28000197
-0.09430404 -0.092675813 0.28007418
-0.031897489 -0.096319295 0.2917141
-0.031897489 -0.09631931 0.2917141
-0.031897489 -0.096319295 0.2917141
-0.031839777 -0.09648791 0.29173565
-0.031839777 -0.09648791 0.29173565
0.032509919 -0.1043008 0.31259498
0.03258989 -0.10442393 0.31265268
0.032700885 -0.10466311 0.31277585
0.032796193 -0.10502523 0.31304535
0.032947797 -0.10549841 0.31334451
0.032981534 -0.10589189 0.31357402
0.032981366 -0.10613487 0.31370553
0.033000447 -0.10615154 0.31372961
0.033013318 -0.10608137 0.31363896
0.033003535 -0.10592385 0.31357151
0.033020012 -0.10582841 0.31349343
0.033038381 -0.10577939 0.31343326
0.033036347 -0.10570297 0.31338367
0.033006113 -0.10548509 0.31325671
0.03287717 -0.10493193 0.31291264
0.032694779 -0.10418247 0.3123197
0.03314307 -0.10308363 0.31129965
-0.09765695 -0.092556491 0.27916896
-0.097340263 -0.092016943 0.2789242
-0.097217098 -0.091424651 0.27863142
-0.097044826 -0.09129291 0.27863485
-0.096806921 -0.091391526 0.27874872
-0.096520044 -0.09172602 0.27896577
-0.096370928 -0.092033505 0.27916259
-0.096231669 -0.092268676 0.27936658
-0.096115693 -0.092227079 0.27936712
-0.096029595 -0.092078693 0.27928999
-0.095941119 -0.09203355 0.2792739
-0.095865652 -0.092007384 0.27926931
-0.095775887 -0.092158973 0.27940202
-0.095722541 -0.092303969 0.27951768
-0.095722228 -0.092449352 0.27963081
-0.095633261 -0.092534624 0.27971527
-0.095522784 -0.092500523 0.27971652
-0.09538684 -0.092451483 0.27970761
-0.095225401 -0.092423968 0.27970073
-0.094943203 -0.092440702 0.27978471
-0.094748698 -0.092495576 0.27985746
-0.094484657 -0.092499867 0.27992305
-0.09413413 -0.092474848 0.27997518
-0.031935778 -0.096142501 0.29166362
-0.031935778 -0.096142508 0.29166359
-0.031935774 -0.096142501 0.29166362
-0.031935774 -0.096142493 0.29166359
-0.031913634 -0.096230268 0.29168975
0.03252209 -0.10406098 0.31242234
0.032581817 -0.10411697 0.31243366
0.032677513 -0.10439054 0.31259635
0.032813188 -0.10486075 0.31289372
0.03294076 -0.10545883 0.31332922
0.032985546 -0.10576127 0.31350562
0.033000994 -0.10588107 0.31354806
0.032985549 -0.10576127 0.31350562
0.03301562 -0.10558999 0.31334957
0.033008084 -0.10551628 0.31330502
0.032994892 -0.10540798 0.31323212
0.032994889 -0.10540797 0.31323212
0.032947022 -0.10516348 0.31308034
0.032813024 -0.10469455 0.31277809
0.032681845 -0.10408721 0.31239277
0.032787655 -0.10359923 0.31190979
-0.097779073 -0.092717811 0.27925533
-0.09741316 -0.092611358 0.27929464
-0.097068518 -0.092230909 0.27917501
-0.096934855 -0.091697991 0.27885669
-0.096726745 -0.091651298 0.27888694
-0.09649229 -0.091861039 0.27903178
-0.096359678 -0.092122421 0.27924159
-0.096226968 -0.092186995 0.27931735
-0.096120328 -0.092092983 0.27927971
-0.096054792 -0.09191332 0.27917376
-0.095979236 -0.091794558 0.27909973
-0.095894732 -0.091790579 0.27910975
-0.095753238 -0.091931172 0.27924347
-0.095667325 -0.092142552 0.27941418
-0.095633827 -0.092327766 0.27956122
-0.0955761 -0.092378236 0.2796112
-0.095444627 -0.09234558 0.27961051
-0.095339701 -0.0923656 0.27965489
-0.095097065 -0.092279881 0.2796222
-0.094846085 -0.092270836 0.27967319
-0.094516493 -0.09224242 0.27972811
-0.094142415 -0.092210978 0.279789
-0.093742371 -0.092141576 0.27979535
-0.032101788 -0.095485382 0.29137677
-0.032101788 -0.095485382 0.2913768
-0.031989012 -0.095850475 0.29150727
0.032412257 -0.1034402 0.31202242
0.032465316 -0.10350922 0.3120797
0.032540102 -0.10372281 0.31221563
0.032670416 -0.10434466 0.31257528
0.032869942 -0.10505666 0.31306124
0.032938939 -0.10542106 0.31330976
0.032990485 -0.10555827 0.31336999
0.032973509 -0.10536949 0.31321833
0.032936737 -0.10514893 0.31308675
0.032917924 -0.10504005 0.31301925
0.032918502 -0.1050062 0.31299886
0.03294231 -0.10512354 0.31306171
0.032873381 -0.10484258 0.31288946
0.032754548 -0.10440652 0.31261432
0.032621745 -0.10382736 0.31221139
-0.097972237 -0.092818104 0.27927223
-0.097616561 -0.09275455 0.27933666
-0.097252503 -0.092562556 0.27935025
-0.096905477 -0.092373766 0.27932367
-0.096666619 -0.092270136 0.27929848
-0.096511476 -0.092211835 0.27926755
-0.096335165 -0.092253454 0.27933934
-0.096223228 -0.092203796 0.27933359
-0.09613736 -0.092097975 0.27927816
-0.096048675 -0.091926031 0.27919388
-0.096000127 -0.09177693 0.27909428
-0.095904693 -0.091751434 0.27909318
-0.095779754 -0.091917858 0.27923089
-0.095642731 -0.092059046 0.2793619
-0.09558332 -0.092202015 0.27947628
-0.095450364 -0.09221109 0.27951321
-0.095349506 -0.092233047 0.27955228
-0.09518975 -0.092176713 0.27954072
-0.094957359 -0.092080832 0.27950501
-0.094631523 -0.092062749 0.27955827
-0.094282456 -0.092007905 0.27959895
-0.093964577 -0.092034198 0.27965805
-0.093507722 -0.091938213 0.27968505
-0.092953645 -0.091795288 0.27970147
-0.032133579 -0.095304698 0.29132837
-0.032133579 -0.095304698 0.29132837
-0.032114889 -0.09539476 0.29135469
0.032333724 -0.10283479 0.31161681
0.032492176 -0.10356811 0.31211644
0.032654129 -0.10417117 0.31248283
0.032810584 -0.1048841 0.31295937
0.032931693 -0.10530735 0.3132422
0.032950733 -0.10529957 0.3132109
0.032886602 -0.10492053 0.31296322
0.032751646 -0.10447811 0.31267509
0.032731798 -0.10433511 0.31258726
0.032742426 -0.1044464 0.31265229
0.032826733 -0.1046904 0.31281045
0.032800484 -0.10459654 0.31274775
0.032700624 -0.10419788 0.31249934
-0.097753413 -0.092708543 0.27930021
-0.09734156 -0.0925612 0.27934489
-0.097028978 -0.092480846 0.27938178
-0.096765749 -0.092331782 0.27933705
-0.096525073 -0.092209466 0.2792953
-0.096352339 -0.092139453 0.27925885
-0.09622933 -0.092081413 0.2792542
-0.096163049 -0.092060067 0.27925584
-0.096097641 -0.091952786 0.27920651
-0.096031085 -0.091978706 0.27923489
-0.095921002 -0.091942236 0.27922803
-0.095822543 -0.09198615 0.27927706
-0.095690861 -0.092050642 0.27934915
-0.095573597 -0.092053682 0.27937713
-0.095415495 -0.092036687 0.27939042
-0.095246948 -0.091967598 0.27937028
-0.095023893 -0.091928244 0.27940622
-0.094772473 -0.091897175 0.2794098
-0.094530158 -0.091896161 0.27944878
-0.094184421 -0.091884181 0.27950603
-0.093809932 -0.091859981 0.27955922
-0.093247332 -0.091773503 0.27962455
-0.092835248 -0.091677174 0.27965823
-0.092357554 -0.091614597 0.27975529
-0.032157257 -0.095214196 0.29129466
-0.032157253 -0.095214188 0.29129466
-0.032133583 -0.095304705 0.2913284
0.032547016 -0.1037515 0.31223521
0.032668483 -0.1044088 0.3126542
0.032805435 -0.10495907 0.31303671
0.032880452 -0.10517222 0.31315458
0.032877319 -0.10504355 0.31306615
0.032763816 -0.10450966 0.31269801
0.032641765 -0.10404395 0.31241038
0.032624483 -0.1038678 0.31230959
0.032635599 -0.10397976 0.31237507
0.032728903 -0.10430381 0.3125678
0.032737516 -0.10431781 0.31258005
-0.097845845 -0.092548132 0.27922994
-0.097437114 -0.092498645 0.2792998
-0.097079098 -0.092355281 0.27931195
-0.096812271 -0.092155576 0.27923217
-0.096632227 -0.091758303 0.27900919
-0.096469812 -0.091713466 0.27900597
-0.096312463 -0.091873102 0.27911198
-0.09620513 -0.091966316 0.27919459
-0.096110322 -0.092034787 0.27926636
-0.096017547 -0.09202531 0.27928084
-0.095892563 -0.092082784 0.27934447
-0.095836006 -0.09206114 0.27933916
-0.095716767 -0.092021145 0.27933183
-0.095551498 -0.09196566 0.27932417
-0.095378041 -0.091857754 0.27928266
-0.095093966 -0.091769822 0.27927551
-0.094909459 -0.091731921 0.27928114
-0.094754964 -0.09175241 0.27931529
-0.094469279 -0.091793776 0.27938837
-0.094172671 -0.091798611 0.27944785
-0.093692593 -0.091794513 0.27953228
-0.093254097 -0.091696873 0.27957311
-0.092778191 -0.09160503 0.27964509
-0.09230455 -0.091560841 0.27974865
-0.091674782 -0.091401219 0.27981129
-0.032157257 -0.095214188 0.29129466
-0.032168437 -0.095120683 0.2912662
-0.032185182 -0.095028132 0.29123494
-0.032185182 -0.095028132 0.29123494
0.032653615 -0.10445911 0.31270677
0.032740884 -0.10472572 0.31287903
0.032805424 -0.10495906 0.31303659
0.032837491 -0.10498402 0.31305474
0.032795154 -0.104731 0.31286862
0.032698646 -0.104213 0.31251878
0.032622539 -0.10381839 0.31227934
0.032580305 -0.10368071 0.31219375
0.032619286 -0.10378784 0.31226009
0.032629237 -0.10391705 0.31233802
-0.097371452 -0.092272624 0.27924368
-0.097104847 -0.091936462 0.27905279
-0.096961521 -0.091282241 0.27867055
-0.096741185 -0.091253862 0.27871689
-0.096561298 -0.091351867 0.27879792
-0.096397094 -0.091520101 0.27890134
-0.096286334 -0.091671325 0.27899638
-0.096144564 -0.091864608 0.27915037
-0.09602201 -0.092008635 0.27926645
-0.095992416 -0.092032932 0.27929625
-0.095866613 -0.09202788 0.27931547
-0.095722124 -0.091874667 0.27922574
-0.095546931 -0.091728106 0.27915835
-0.095352523 -0.091627225 0.27912569
-0.095132932 -0.091568723 0.27913627
-0.094903328 -0.091620967 0.2792131
-0.094747566 -0.091689348 0.27926901
-0.094481111 -0.091729589 0.27935648
-0.094146833 -0.091724709 0.27941412
-0.093713298 -0.091707245 0.2794801
-0.0932533 -0.091635026 0.27954626
-0.092790246 -0.091583766 0.27963498
-0.092286251 -0.091457732 0.27972659
-0.091655232 -0.091315687 0.27979365
-0.090965398 -0.091083862 0.27986196
-0.090214193 -0.09072154 0.27988046
-0.032185182 -0.095028132 0.29123497
-0.032212626 -0.09494064 0.29119435
-0.032212626 -0.094940655 0.29119438
-0.032231394 -0.094848253 0.29114428
0.032582637 -0.10467009 0.31298092
0.032680128 -0.1047304 0.31295696
0.032740872 -0.10472573 0.312879
0.032734968 -0.10464104 0.31283271
0.032742422 -0.10444643 0.31265235
0.032641765 -0.10404396 0.31241041
0.03260874 -0.1037368 0.31223315
0.032542925 -0.10349106 0.31208354
0.032564081 -0.10353193 0.31210837
-0.097419277 -0.091376044 0.27867943
-0.097228847 -0.090839535 0.27841175
-0.09706749 -0.090612113 0.27837586
-0.096884266 -0.090643935 0.27843612
-0.096684746 -0.090760052 0.27852306
-0.096531041 -0.09102957 0.27866167
-0.096340574 -0.091353141 0.27883369
-0.096245036 -0.091518223 0.27892491
-0.0961188 -0.091723941 0.27906278
-0.095995463 -0.091723047 0.27908695
-0.095897712 -0.091751531 0.27912471
-0.095727593 -0.091631837 0.27906486
-0.095555812 -0.09149982 0.27900141
-0.095355816 -0.091457054 0.27901682
-0.095147491 -0.091483742 0.27907819
-0.094931871 -0.091563016 0.27916563
-0.094757132 -0.091620795 0.27923119
-0.094452471 -0.091655344 0.27931532
-0.094033122 -0.091622896 0.27936441
-0.093662746 -0.091621451 0.27944443
-0.093128726 -0.091554247 0.27953646
-0.092774607 -0.091508426 0.279612
-0.092246011 -0.091397703 0.2797237
-0.091585964 -0.091183595 0.27978951
-0.090889379 -0.09088096 0.27981028
-0.089984246 -0.090510011 0.27984557
-0.089259304 -0.090244807 0.2798712
-0.088689201 -0.090091936 0.2798959
-0.088195369 -0.090008549 0.27992356
-0.08745636 -0.089765288 0.27989364
-0.086301148 -0.08940956 0.27982557
-0.085344814 -0.088977367 0.2796998
-0.08440619 -0.088701509 0.27963746
-0.083792023 -0.088551931 0.27961436
-0.032311134 -0.094568484 0.29100925
-0.032311134 -0.094568476 0.29100925
-0.032311138 -0.094568484 0.29100931
-0.032319158 -0.094472893 0.29097176
0.032576464 -0.10438011 0.31273964
0.032610845 -0.10417569 0.31254774
0.032632865 -0.10417271 0.31251737
0.032641757 -0.10404395 0.31241035
0.032624479 -0.10386784 0.31230956
0.032593071 -0.10370896 0.31221378
0.032576352 -0.10356739 0.31213856
0.032584891 -0.10364174 0.31217468
-0.097398013 -0.090067446 0.27810153
-0.097285487 -0.090000756 0.27810866
-0.097115941 -0.09002921 0.27815866
-0.096889123 -0.090167232 0.2782481
-0.096663654 -0.090470679 0.2784043
-0.096467532 -0.09076567 0.2785604
-0.096289255 -0.091081202 0.27871704
-0.096194766 -0.091336273 0.27884334
-0.096054576 -0.091402903 0.2788845
-0.095927022 -0.091455944 0.27892667
-0.095745318 -0.091428913 0.27893215
-0.095528796 -0.091353789 0.27892002
-0.095378801 -0.091320992 0.2789287
-0.095192246 -0.091391318 0.27900994
-0.094944559 -0.091443375 0.27908665
-0.094675414 -0.091512017 0.27916762
-0.09435875 -0.091477141 0.2791909
-0.094000287 -0.091484368 0.27927214
-0.093491532 -0.091440484 0.27937719
-0.093041867 -0.091428339 0.27949071
-0.092541076 -0.091293424 0.27958405
-0.092007332 -0.091105737 0.27966142
-0.09139704 -0.090919115 0.27972141
-0.090762183 -0.090695448 0.279778
-0.089816101 -0.090322182 0.27980939
-0.089100696 -0.09013167 0.27985093
-0.088594668 -0.089992538 0.2798731
-0.08797054 -0.089839876 0.27988723
-0.087309718 -0.089655831 0.27987361
-0.086269863 -0.089307152 0.27979705
-0.085174248 -0.088894665 0.27968094
-0.084370852 -0.088675186 0.27963421
-0.083750971 -0.088542067 0.27961689
-0.083208203 -0.088403925 0.27959469
-0.082882352 -0.088320166 0.27959445
-0.0822846 -0.088176921 0.27960032
-0.032405216 -0.094118588 0.2907992
-0.032405216 -0.09411858 0.2907992
-0.032405216 -0.094118603 0.2907992
-0.032357574 -0.094290398 0.29088807
0.032515038 -0.10381263 0.31233996
0.032480389 -0.10346651 0.31210694
0.032573845 -0.10375486 0.31223518
0.032605458 -0.10380978 0.31227115
0.032619279 -0.10378788 0.31226006
0.032580301 -0.10368072 0.31219372
0.03258406 -0.10361904 0.3121675
-0.097721219 -0.089376479 0.2777181
-0.097620085 -0.089350931 0.27773556
-0.097519927 -0.089314513 0.27774301
-0.097264886 -0.089485861 0.2778852
-0.096872255 -0.089843825 0.27811632
-0.096562445 -0.090347499 0.27837107
-0.096417814 -0.090633646 0.27851209
-0.096263811 -0.090823822 0.27860788
-0.096110195 -0.09094505 0.27867249
-0.095958397 -0.091023929 0.27871883
-0.095722899 -0.091107897 0.27878612
-0.095541514 -0.091175161 0.27884093
-0.095392875 -0.091261506 0.27890599
-0.09522 -0.091326378 0.27897272
-0.094994642 -0.091332808 0.27901575
-0.094696894 -0.09131667 0.27903694
-0.09435948 -0.091262892 0.27907133
-0.093831405 -0.091236711 0.27917707
-0.093405269 -0.091085784 0.27920669
-0.09293884 -0.09105739 0.27935731
-0.092374086 -0.090875082 0.27945039
-0.091740459 -0.090667799 0.27954546
-0.091048613 -0.090473056 0.27962598
-0.090204127 -0.09019237 0.27966699
-0.089435332 -0.090005338 0.27973178
-0.088775828 -0.089873455 0.27978721
-0.08819668 -0.089764304 0.27982855
-0.08774823 -0.089677453 0.27984557
-0.087036289 -0.089472637 0.27982941
-0.086014852 -0.089121528 0.27974322
-0.08513432 -0.088883638 0.2796818
-0.084332004 -0.088659279 0.27963305
-0.08371181 -0.088526584 0.2796163
-0.083246373 -0.088378318 0.27959737
-0.082725003 -0.088266946 0.27960974
-0.082245693 -0.088168293 0.27962306
-0.081715427 -0.088049412 0.27962646
-0.081027441 -0.087882236 0.27968195
-0.080493882 -0.087758355 0.27971292
-0.080200553 -0.087695606 0.27972746
-0.032587294 -0.093411446 0.29046521
-0.032567292 -0.093502544 0.2905156
-0.032567289 -0.093502544 0.2905156
-0.032438781 -0.093934692 0.29070854
-0.032405213 -0.094118588 0.29079917
0.032402478 -0.10312728 0.31190678
0.032403067 -0.10285181 0.31169727
0.03245569 -0.10315998 0.31189111
0.032502126 -0.10337412 0.31202599
0.032527428 -0.10343022 0.31205553
0.03253131 -0.10345214 0.3120648
0.032569055 -0.10345481 0.3121112
-0.098018922 -0.088905327 0.277408
-0.097890921 -0.088879257 0.2774018
-0.09771473 -0.088729203 0.27733079
-0.097493932 -0.088910066 0.27748421
-0.097145028 -0.089269049 0.27777213
-0.096715666 -0.089737117 0.27808806
-0.096487008 -0.090133898 0.27829564
-0.096305944 -0.090381332 0.27841437
-0.096134104 -0.090572156 0.27850962
-0.095994271 -0.090618059 0.27854219
-0.095775709 -0.090787113 0.2786409
-0.095588349 -0.090898246 0.27871501
-0.095459983 -0.091053016 0.27880621
-0.095255375 -0.091100723 0.27885258
-0.094988436 -0.091039553 0.27884826
-0.094682567 -0.090999693 0.27888292
-0.094213307 -0.090904512 0.27890974
-0.093750373 -0.09083952 0.27898592
-0.093272619 -0.090745606 0.27909353
-0.09264379 -0.090590075 0.27924663
-0.091969699 -0.090375476 0.27936155
-0.091193333 -0.090042144 0.27937171
-0.090378255 -0.089883007 0.27945891
-0.089642502 -0.089739583 0.279533
-0.088815816 -0.089506604 0.27958736
-0.088196144 -0.089464724 0.27967912
-0.087728575 -0.089445934 0.27974296
-0.087250747 -0.089342162 0.27975598
-0.086600855 -0.089160562 0.27973279
-0.085874557 -0.089007333 0.27971017
-0.085150898 -0.088828191 0.27966377
-0.084222414 -0.08861126 0.27962542
-0.083607383 -0.088450938 0.27960134
-0.083205186 -0.088366799 0.27959996
-0.082725011 -0.088266946 0.27960974
-0.082163975 -0.088146947 0.27962846
-0.081638463 -0.08803194 0.2796585
-0.080987073 -0.08786989 0.27968377
-0.080453478 -0.087741286 0.27971399
-0.080196396 -0.087692805 0.27972475
-0.079785228 -0.087591313 0.27974945
-0.079333529 -0.087519385 0.27980357
-0.079095431 -0.087483555 0.279845
-0.07863345 -0.087396085 0.2798948
-0.078087203 -0.087281495 0.27994406
-0.032668326 -0.093165599 0.29036558
-0.032611717 -0.093325712 0.29040849
-0.032611717 -0.093325712 0.29040849
-0.032567289 -0.093502529 0.2905156
0.032292418 -0.10254242 0.31155998
0.032358997 -0.10251272 0.31149438
0.03244099 -0.1029 0.31173766
0.032454334 -0.10301001 0.31181675
0.032487534 -0.10301688 0.31185526
-0.098181754 -0.088218458 0.27691406
-0.098057814 -0.088120438 0.27690542
-0.097909465 -0.087889433 0.27678546
-0.097649582 -0.088410318 0.27718285
-0.097309738 -0.088843495 0.2774758
-0.096885681 -0.089325339 0.27783513
-0.096577488 -0.089625724 0.27803007
-0.096352279 -0.089865014 0.2781857
-0.096174307 -0.090049848 0.27828506
-0.095986024 -0.090221077 0.27838153
-0.095826969 -0.090414621 0.27849877
-0.095615342 -0.090631217 0.27860501
-0.095487274 -0.090820014 0.27869761
-0.095246196 -0.090865545 0.27874926
-0.095004223 -0.090847194 0.27877203
-0.094676159 -0.090764292 0.27878135
-0.094192557 -0.090669297 0.27881005
-0.093741491 -0.090513647 0.27887106
-0.093095213 -0.090394415 0.27903497
-0.092459314 -0.090253189 0.27916476
-0.091701202 -0.089952029 0.2792075
-0.090703674 -0.089537792 0.27917406
-0.089797832 -0.089223303 0.27920082
-0.088883556 -0.089054346 0.27928638
-0.08830294 -0.08908195 0.27941996
-0.087746508 -0.08906921 0.27951396
-0.087284073 -0.089108638 0.27962238
-0.086871833 -0.089082785 0.27966565
-0.086354896 -0.088997237 0.27967575
-0.085628331 -0.088890299 0.27967516
-0.084983021 -0.088749424 0.27964744
-0.084231898 -0.088585444 0.27961844
-0.083490796 -0.088413797 0.27959561
-0.082977831 -0.088273555 0.27960038
-0.082534067 -0.088195138 0.27961931
-0.082163982 -0.088146947 0.27962849
-0.081644766 -0.088003866 0.27966943
-0.081111014 -0.087886862 0.279681
-0.08049392 -0.087737218 0.27970853
-0.080072358 -0.08765322 0.27973098
-0.079742312 -0.087577805 0.27975196
-0.079327412 -0.087508537 0.27979398
-0.079002813 -0.087451212 0.27983969
-0.078540415 -0.087362841 0.27989236
-0.078033447 -0.087261386 0.27993947
-0.077478066 -0.087154374 0.27997756
-0.076787636 -0.08701247 0.28002182
-0.032721795 -0.093007237 0.29032746
-0.032695457 -0.092988387 0.29029113
-0.032708056 -0.092895709 0.29023978
-0.032708056 -0.092895716 0.29023978
-0.032708056 -0.092895709 0.29023978
0.032274667 -0.10270176 0.31180391
0.032218434 -0.10183119 0.31108248
0.032307055 -0.10191089 0.31114155
0.032361295 -0.1018757 0.31114376
-0.098322496 -0.086947389 0.27610457
-0.098071709 -0.086839646 0.27612001
-0.097921126 -0.086896755 0.27621451
-0.097674213 -0.087820739 0.2768454
-0.09745501 -0.088614143 0.2773636
-0.097048558 -0.088986658 0.27761275
-0.096675619 -0.089228168 0.27780148
-0.096405387 -0.089431427 0.27793288
-0.096158609 -0.089497671 0.27800596
-0.095972747 -0.08969523 0.27814665
-0.095750801 -0.090027235 0.27833596
-0.095643103 -0.090270467 0.27846304
-0.095404059 -0.090412505 0.2785337
-0.095223479 -0.090494536 0.27859381
-0.09495309 -0.090542056 0.27865541
-0.094567448 -0.090486757 0.27870265
-0.094063297 -0.090384774 0.27876699
-0.093591347 -0.090223849 0.27882156
-0.088656344 -0.088876039 0.279199
-0.088073954 -0.088922396 0.27934897
-0.087549932 -0.088931039 0.27945563
-0.08707656 -0.088978149 0.27956712
-0.086613648 -0.088987596 0.27964291
-0.086235911 -0.088943735 0.27966097
-0.085566379 -0.088860936 0.27966684
-0.084870912 -0.088715449 0.27964267
-0.083847336 -0.088488847 0.27960554
-0.083218522 -0.08833731 0.27958852
-0.082822077 -0.088233493 0.27958998
-0.082413279 -0.088164821 0.27961633
-0.081969187 -0.088084117 0.27964717
-0.081604451 -0.087991908 0.27966622
-0.080988437 -0.087853186 0.27969182
-0.080493912 -0.087737225 0.27970853
-0.079992466 -0.087624997 0.27973095
-0.079651952 -0.087567694 0.2797541
-0.079320922 -0.087492451 0.27978322
-0.078864858 -0.087406963 0.27983803
-0.078401104 -0.08732032 0.27989236
-0.077892184 -0.087219879 0.27993885
-0.077329241 -0.087109551 0.27997518
-0.076549172 -0.086958818 0.28001592
-0.076023482 -0.086841784 0.28004178
-0.075449541 -0.086724699 0.28009218
-0.074926451 -0.086624004 0.28016677
-0.03260481 -0.0935454 0.29063332
-0.032768928 -0.092743248 0.29021031
-0.032708049 -0.092895694 0.29023978
-0.032708049 -0.092895694 0.29023981
0.032231804 -0.10266291 0.31201527
0.032120574 -0.1010972 0.3107999
0.032253288 -0.1008409 0.31072941
0.032346278 -0.10024562 0.31048414
-0.098320976 -0.086450353 0.27582127
-0.098072983 -0.086578518 0.27599519
-0.097855702 -0.087058656 0.27637443
-0.097639263 -0.087682135 0.27684864
-0.097456492 -0.088451937 0.27731195
-0.097160935 -0.088770926 0.27749616
-0.096778125 -0.088932484 0.27764127
-0.096494302 -0.089100704 0.27774242
-0.096181773 -0.089226149 0.27785951
-0.095972843 -0.089387983 0.2779727
-0.095771737 -0.089611948 0.27813265
-0.095655195 -0.089929484 0.27832016
-0.095461875 -0.090115592 0.27842376
-0.095163144 -0.090198629 0.27850333
-0.086889356 -0.088884518 0.27954087
-0.086473271 -0.088913463 0.27961981
-0.08608748 -0.088878103 0.27964389
-0.085337229 -0.0887798 0.27964392
-0.08444313 -0.08858721 0.27961281
-0.083733454 -0.088452466 0.27959654
-0.083019927 -0.088285521 0.279585
-0.082621321 -0.088189304 0.27959001
-0.082266271 -0.088095739 0.27960655
-0.08185222 -0.088036045 0.27964428
-0.081443086 -0.087951273 0.27966928
-0.080909304 -0.087830916 0.27969557
-0.080411136 -0.087723009 0.2797111
-0.079908513 -0.087603211 0.27973282
-0.079485215 -0.087520361 0.27976143
-0.079106078 -0.08744511 0.27979532
-0.078780949 -0.087384239 0.27984655
-0.07831677 -0.087297477 0.27990091
-0.077808283 -0.087190285 0.27994317
-0.077204317 -0.087069944 0.27998376
-0.076632045 -0.08696156 0.28000697
-0.075973742 -0.086835399 0.28004009
-0.075491279 -0.086725555 0.28008628
-0.074963257 -0.086607181 0.28015849
-0.074255869 -0.086480118 0.28025439
-0.073537417 -0.086355463 0.2803421
-0.072944164 -0.086238347 0.28039286
-0.072294369 -0.086105332 0.28042978
-0.071686924 -0.085997172 0.28045473
-0.032934323 -0.092173159 0.28991035
-0.032872543 -0.092326231 0.28998584
-0.032872543 -0.092326209 0.2899859
0.032177914 -0.10210641 0.31180003
0.032154437 -0.10026684 0.31059825
0.032230828 -0.099816352 0.31031036
0.032167669 -0.098128617 0.30913725
-0.098251648 -0.086644426 0.27601889
-0.098089509 -0.08680547 0.27618974
-0.097847283 -0.087207273 0.27654171
-0.097689219 -0.087770917 0.27693757
-0.097486429 -0.088153921 0.27720919
-0.097190805 -0.088487238 0.27742273
-0.096924089 -0.088567205 0.27749592
-0.096623115 -0.088607147 0.27755955
-0.096249864 -0.088773295 0.27768037
-0.083472721 -0.088364467 0.27957869
-0.082916431 -0.088229574 0.27957225
-0.082429864 -0.088121884 0.27958426
-0.082151122 -0.088056371 0.27960002
-0.081733309 -0.087999292 0.27964017
-0.081241108 -0.087894708 0.27966863
-0.080745198 -0.087791152 0.27969983
-0.080330603 -0.087694705 0.27971572
-0.079824008 -0.087585792 0.27974066
-0.079401746 -0.087496668 0.27976519
-0.078979447 -0.087405272 0.27980641
-0.078515068 -0.087321676 0.27986309
-0.077967063 -0.087217033 0.27992013
-0.077586338 -0.087135129 0.2799544
-0.077123709 -0.087051757 0.27998999
-0.076421291 -0.086915545 0.28002581
-0.075838126 -0.086795919 0.28005016
-0.075442486 -0.086713247 0.28008935
-0.074913226 -0.086599387 0.28015679
-0.074248239 -0.086469695 0.28024611
-0.073574737 -0.086346954 0.28032881
-0.072853796 -0.086211056 0.28040144
-0.072294354 -0.086105339 0.28042981
-0.071686931 -0.085997172 0.28045473
-0.07107766 -0.08588969 0.28048557
-0.070376225 -0.085759968 0.28053924
-0.069679871 -0.085610285 0.28059307
-0.033060726 -0.091403544 0.28955409
-0.033028875 -0.091570422 0.28967732
0.032088835 -0.10077874 0.31111658
0.032011792 -0.099065818 0.3100678
0.031855263 -0.09740229 0.30888149
0.031845074 -0.096542135 0.30839682
-0.0982235 -0.086559214 0.276088
-0.098075464 -0.08686015 0.27629578
-0.097865447 -0.087118737 0.27651396
-0.097689182 -0.087505087 0.27682352
-0.097496681 -0.087996796 0.2771481
-0.09724126 -0.088102594 0.27724692
-0.096949942 -0.088140786 0.27730542
-0.09665852 -0.088210031 0.27740216
-0.081124552 -0.087852605 0.2796708
-0.080623291 -0.087756269 0.27969822
-0.080166675 -0.087651111 0.27972209
-0.079746984 -0.08755748 0.27974305
-0.079323404 -0.087477438 0.27977529
-0.078899585 -0.087389968 0.27981585
-0.078358486 -0.087282464 0.27987817
-0.077850737 -0.087178782 0.27992195
-0.077327669 -0.08707618 0.27996251
-0.076851897 -0.086988084 0.28000456
-0.076237611 -0.086868331 0.28003192
-0.075703368 -0.086758904 0.28005874
-0.075170651 -0.08664757 0.28011388
-0.074688151 -0.086543404 0.28017765
-0.074070148 -0.086425193 0.28026539
-0.073486291 -0.086317688 0.28033775
-0.072763145 -0.086183436 0.28040907
-0.072203651 -0.086077705 0.28043744
-0.071639277 -0.085986316 0.28045967
-0.071030162 -0.085879587 0.28049141
-0.07028573 -0.085730381 0.28054991
-0.069633223 -0.085598819 0.28059891
-0.068925083 -0.085458025 0.28062341
-0.068302907 -0.085324854 0.28063107
-0.067675345 -0.085184433 0.28062832
-0.067042857 -0.085047014 0.28063035
-0.066361643 -0.084904991 0.28065476
-0.033290405 -0.089493074 0.28860995
-0.033124063 -0.090212062 0.28904319
0.031818595 -0.098607786 0.3099882
0.031547535 -0.09640073 0.30849016
0.031379838 -0.09538909 0.30796206
0.031346764 -0.094915248 0.30770999
-0.098457903 -0.085668296 0.27537549
-0.098266095 -0.086138137 0.27578932
-0.098081537 -0.0865696 0.27616885
-0.097918831 -0.086551428 0.27622083
-0.097655825 -0.086905539 0.27652782
-0.097477034 -0.087348044 0.2768535
-0.097263195 -0.087574691 0.27704376
-0.096971974 -0.087558948 0.27709359
-0.07916443 -0.087445021 0.27979404
-0.078743644 -0.087356448 0.2798368
-0.07824254 -0.087253399 0.27988997
-0.077693202 -0.087143466 0.27993804
-0.077167474 -0.087043278 0.27997643
-0.076643333 -0.086942889 0.28001538
-0.076110236 -0.086836092 0.2800355
-0.075622171 -0.086738624 0.28006867
-0.075091153 -0.086622432 0.28012872
-0.074519359 -0.086499654 0.28020552
-0.073982507 -0.0863965 0.28027579
-0.073311433 -0.086273223 0.28035703
-0.072627239 -0.086143866 0.28041509
-0.072069332 -0.08604189 0.28043759
-0.071459696 -0.085929424 0.2804713
-0.070895664 -0.085835442 0.28050604
-0.070194982 -0.085700475 0.28055957
-0.069586866 -0.085587271 0.28059974
-0.068879031 -0.085441478 0.28062019
-0.068208367 -0.085295826 0.28062949
-0.067580283 -0.085155137 0.28062621
-0.066948131 -0.085015684 0.28063142
-0.066363536 -0.084895149 0.28065133
-0.06583821 -0.084797673 0.2806623
-0.065585598 -0.08473596 0.28069565
-0.065439001 -0.084728718 0.28071716
-0.065296575 -0.084721483 0.28074664
-0.06490346 -0.084651217 0.28077525
-0.064161472 -0.084480591 0.28077927
-0.063254572 -0.084275186 0.28072479
-0.062301058 -0.084048137 0.28065193
-0.061852071 -0.083935633 0.28064135
-0.061299182 -0.083802424 0.28060862
-0.060804453 -0.083683334 0.28058442
-0.033189043 -0.091300286 0.2897343
-0.033517931 -0.088262409 0.28784752
-0.03325611 -0.088543028 0.28813517
0.031323124 -0.095257528 0.30790678
0.03129809 -0.094839565 0.30763021
0.031211136 -0.093862966 0.30718392
0.031157883 -0.093400829 0.30691552
-0.098508276 -0.084500946 0.27475896
-0.09835963 -0.085226491 0.27524394
-0.098076969 -0.08588656 0.27578241
-0.097944371 -0.085939951 0.27590623
-0.097697735 -0.086246528 0.27621913
-0.097446226 -0.086524114 0.27647176
-0.0972258 -0.086747378 0.27664381
-0.075504787 -0.086702809 0.28009009
-0.074932575 -0.086575568 0.28015774
-0.074395932 -0.086475708 0.28022698
-0.073858097 -0.086365424 0.2802839
-0.07314159 -0.086230755 0.28037718
-0.072540529 -0.086119503 0.28042012
-0.07193391 -0.086004183 0.28044489
-0.071367763 -0.085911989 0.28047067
-0.070711829 -0.085789524 0.28051561
-0.070103787 -0.08567702 0.28056499
-0.069495879 -0.085554965 0.28060335
-0.068879023 -0.08544147 0.28062019
-0.068208359 -0.085295826 0.28062949
-0.067580298 -0.085155115 0.28062621
-0.066997707 -0.085024603 0.28062987
-0.066365778 -0.084885985 0.28064957
-0.065878227 -0.084794834 0.28068119
-0.065350696 -0.084679864 0.28068042
-0.064858511 -0.08458215 0.28070259
-0.064317748 -0.084464066 0.28070077
-0.063813567 -0.084382288 0.28070042
-0.063313037 -0.084273323 0.28068492
-0.062758401 -0.084145121 0.28066799
-0.062254358 -0.084029056 0.28064796
-0.061804093 -0.083917014 0.28063795
-0.06125436 -0.083781607 0.28060547
-0.060711388 -0.083648972 0.28057775
-0.060170699 -0.083516978 0.28054753
-0.059677828 -0.083405472 0.28052258
-0.033829723 -0.087622561 0.28743598
-0.033745673 -0.087535702 0.28740606
-0.033791807 -0.087016679 0.2870318
-0.03344249 -0.087658219 0.28763556
0.030730676 -0.092137761 0.30619359
0.03097518 -0.092745438 0.30655608
0.030733304 -0.092068009 0.30612728
0.030621869 -0.091232844 0.30558243
0.030625284 -0.091136217 0.30550888
-0.098673768 -0.083956547 0.27431986
-0.098561488 -0.08432401 0.2746557
-0.098398127 -0.084618673 0.27495211
-0.098237693 -0.084898844 0.27522323
-0.097979404 -0.085377187 0.27565515
-0.09779527 -0.085650474 0.27590251
-0.09760993 -0.085825719 0.27607441
-0.074279435 -0.086426847 0.28023404
-0.074058443 -0.086425342 0.28029767
-0.073857494 -0.086395845 0.28035933
-0.073794946 -0.086383797 0.28040248
-0.072697483 -0.086152241 0.28041503
-0.071604982 -0.085947983 0.28046629
-0.07057777 -0.085751407 0.2805253
-0.070013158 -0.08565262 0.28056893
-0.069359429 -0.085511535 0.28059971
-0.068783715 -0.085416853 0.28062278
-0.068208352 -0.085295826 0.28062952
-0.06758029 -0.085155115 0.28062621
-0.066997707 -0.085024618 0.28062987
-0.066412419 -0.084903978 0.2806474
-0.065878227 -0.084794827 0.28068119
-0.065439992 -0.084696196 0.2806986
-0.064858511 -0.084582165 0.28070262
-0.064217962 -0.084440447 0.28070027
-0.063665628 -0.084338583 0.28069791
-0.063312203 -0.08426252 0.28069597
-0.062758408 -0.084145121 0.28066799
-0.06240714 -0.084053971 0.28067121
-0.06190354 -0.0839414 0.28064868
-0.061254367 -0.083781607 0.28060547
-0.060760673 -0.083656445 0.28058916
-0.060170706 -0.083516978 0.28054753
-0.059632726 -0.08338625 0.28051713
-0.058853596 -0.083226025 0.28046629
-0.058006741 -0.083027899 0.28045747
-0.035733983 -0.082353905 0.28408721
-0.035234649 -0.083457455 0.28470343
-0.034599047 -0.084735714 0.28545868
-0.033995107 -0.085933231 0.28633767
-0.033616781 -0.086512342 0.28685322
0.030425293 -0.089966632 0.30467811
0.030443907 -0.090157755 0.30479538
0.030470485 -0.090343252 0.30491754
0.030438762 -0.090048902 0.30471846
0.030433258 -0.089944117 0.30463725
-0.098600172 -0.084116787 0.27448824
-0.098561466 -0.084323995 0.27465567
-0.098454557 -0.084500529 0.27482486
-0.09832783 -0.084560722 0.27492523
-0.098206557 -0.084651671 0.27503929
-0.098069392 -0.084842697 0.2752175
-0.068645768 -0.085365787 0.280619
-0.0680691 -0.085246541 0.28062573
-0.06753353 -0.085129716 0.28062829
-0.066999003 -0.085015059 0.28063628
-0.066365778 -0.084885977 0.28064954
-0.065927297 -0.084804676 0.28067884
-0.065488502 -0.084710874 0.28069839
-0.065000787 -0.084611863 0.28072333
-0.064217962 -0.084440447 0.28070027
-0.063615173 -0.084326021 0.28070039
-0.063263051 -0.084247023 0.28070018
-0.062708937 -0.084128745 0.28067151
-0.062305834 -0.08403001 0.2806614
-0.061855532 -0.083922848 0.28064528
-0.061256148 -0.083769403 0.28061497
-0.060760684 -0.083656445 0.28058922
-0.060219884 -0.083523713 0.28055876
-0.059585236 -0.083370306 0.2805123
-0.058762014 -0.083195388 0.28046224
-0.057920109 -0.082999684 0.28047669
-0.057310324 -0.082886592 0.28050199
-0.057032496 -0.082816735 0.28053734
-0.056841537 -0.082770519 0.28056228
-0.036306389 -0.080493271 0.28310701
-0.035830885 -0.081471592 0.28365275
-0.03546337 -0.082300022 0.28412566
-0.034974586 -0.083023056 0.28455064
-0.034455445 -0.084106632 0.28519273
-0.034057748 -0.08459644 0.28557447
0.030251287 -0.08895655 0.30398232
0.030279055 -0.089125983 0.30412048
0.030339882 -0.089427739 0.30434722
0.030380027 -0.089589432 0.30443513
0.030386157 -0.089675091 0.30447513
-0.098699935 -0.083930887 0.2742843
-0.098570876 -0.08417888 0.27455536
-0.098469511 -0.084362268 0.2747255
-0.09848728 -0.084292799 0.27469003
-0.098449238 -0.084239088 0.27466214
-0.066901803 -0.08499074 0.28063789
-0.066365771 -0.084885977 0.28064957
-0.065878227 -0.084794834 0.28068116
-0.065439999 -0.084700659 0.28070134
-0.064952068 -0.084600858 0.28072593
-0.064316571 -0.084457763 0.28071877
-0.06366574 -0.084334642 0.28070462
-0.063164607 -0.08421395 0.28069904
-0.062609844 -0.084098339 0.28066978
-0.062057305 -0.083968706 0.28064522
-0.06156021 -0.083830766 0.28063187
-0.061110862 -0.083727568 0.28060061
-0.060712814 -0.083639324 0.28058556
-0.060171917 -0.083507054 0.28055421
-0.059486195 -0.083348125 0.28050435
-0.058667801 -0.083170108 0.28046501
-0.057920109 -0.082999684 0.28047669
-0.057361159 -0.082884692 0.28051606
-0.056803741 -0.082775719 0.28055185
-0.056346323 -0.082675084 0.28061363
-0.05580233 -0.08254309 0.28062522
-0.055059243 -0.082401916 0.28065693
-0.054505911 -0.082292974 0.28067932
-0.053959168 -0.082191288 0.28073078
-0.053184275 -0.082031079 0.28078529
-0.052595939 -0.081918634 0.28082404
-0.051906418 -0.081760742 0.28083909
-0.038254872 -0.080449738 0.28268203
-0.037743647 -0.080197178 0.28265885
-0.036505613 -0.07992579 0.28275666
-0.036259327 -0.080167003 0.28297767
-0.035900764 -0.080899261 0.28342885
-0.035553455 -0.081512123 0.28377959
-0.035174437 -0.082055025 0.28407425
-0.034744471 -0.082360126 0.2842586
-0.034530502 -0.082520999 0.28435448
0.030085711 -0.088150926 0.30346081
0.030153371 -0.088425867 0.30364904
0.030207008 -0.088705629 0.30384487
0.030251281 -0.088956557 0.30398235
-0.099138975 -0.082331128 0.27341881
-0.098745793 -0.08358714 0.27407378
-0.098642737 -0.083935238 0.27435139
-0.098604999 -0.084039092 0.27442351
-0.098582201 -0.083951063 0.2743926
-0.098582797 -0.083793834 0.27430499
-0.065007053 -0.084599309 0.28073221
-0.064368017 -0.084463209 0.2807261
-0.063665606 -0.084330276 0.28071031
-0.063113689 -0.084203243 0.28070047
-0.062510468 -0.084067576 0.28066698
-0.061859369 -0.083907314 0.28063911
-0.061408296 -0.08379373 0.28062183
-0.060962129 -0.083687834 0.28059193
-0.060568437 -0.083595783 0.28057253
-0.060028162 -0.08346431 0.28054088
-0.059295479 -0.083302766 0.28048098
-0.058483206 -0.08311706 0.28046626
-0.057829261 -0.082972988 0.28048843
-0.057361163 -0.082884699 0.28051603
-0.056806203 -0.082769066 0.28056645
-0.056213237 -0.082638316 0.28060666
-0.055572502 -0.082496256 0.28062591
-0.055014595 -0.082392484 0.28066343
-0.054420378 -0.082268469 0.28069702
-0.053780738 -0.082148306 0.28075144
-0.053100571 -0.082010105 0.28080621
-0.052555528 -0.081907921 0.28083697
-0.051829308 -0.081750587 0.28087947
-0.051103387 -0.081591547 0.28090078
-0.050480776 -0.081481971 0.28094774
-0.049851641 -0.081382379 0.28104934
-0.049245827 -0.081267484 0.28115168
-0.04862456 -0.081189342 0.28125322
-0.039011493 -0.080218732 0.28233671
-0.038539641 -0.080237851 0.28251484
-0.038100075 -0.080115005 0.28254738
-0.03769213 -0.079914562 0.28251943
-0.037301939 -0.079698734 0.28246972
-0.036973756 -0.079618625 0.28249037
-0.036727253 -0.079626434 0.28254116
-0.03646503 -0.079667985 0.28261387
-0.036257062 -0.07986775 0.28277627
-0.035992458 -0.080192648 0.28304538
-0.035682246 -0.080914401 0.28347707
-0.035265639 -0.081205815 0.28364292
-0.034947943 -0.081423454 0.28379086
0.030006804 -0.087621212 0.30309093
0.030048274 -0.087883554 0.30329403
0.030108102 -0.088162191 0.30347255
0.030172879 -0.0885102 0.30370137
-0.099724837 -0.080600381 0.27259517
-0.099560149 -0.081121214 0.272834
-0.099240996 -0.081989251 0.27328584
-0.098945618 -0.082790479 0.27370688
-0.098835088 -0.08311975 0.27385244
-0.098739102 -0.083328843 0.27398616
-0.060814451 -0.083650671 0.28058058
-0.060420327 -0.083556801 0.28056347
-0.059782986 -0.083398908 0.28052932
-0.05905468 -0.083238795 0.28048024
-0.058200937 -0.083049588 0.28046468
-0.057641286 -0.082927406 0.28049883
-0.057272185 -0.08285702 0.28053272
-0.056718238 -0.082742862 0.28058812
-0.056083474 -0.082600921 0.28059673
-0.055482697 -0.082470797 0.28064162
-0.054831691 -0.08234679 0.28065649
-0.054282278 -0.082238711 0.28070843
-0.053598296 -0.082099296 0.28075966
-0.053058177 -0.082001574 0.28081799
-0.052519176 -0.081900477 0.28086385
-0.051803075 -0.081740402 0.28092512
-0.051176008 -0.081608102 0.2809608
-0.050463438 -0.081477836 0.28100091
-0.049781669 -0.081352919 0.28107372
-0.049102589 -0.081223115 0.28118542
-0.048486132 -0.081153937 0.28128603
-0.047847223 -0.081066005 0.28138006
-0.047254387 -0.081005372 0.28146118
-0.046503082 -0.080898821 0.28152275
-0.045744617 -0.08079318 0.28156817
-0.040189773 -0.079909995 0.28172404
-0.03977114 -0.079900809 0.28186685
-0.039255995 -0.079911552 0.28206259
-0.038805019 -0.07983055 0.28218573
-0.038358256 -0.079860866 0.28234756
-0.038000487 -0.079818338 0.28242072
-0.037618663 -0.07972654 0.28244919
-0.037282493 -0.079536125 0.28238019
-0.03695035 -0.079462871 0.28240639
-0.036670532 -0.079535417 0.28250962
-0.036424942 -0.079566039 0.28257006
-0.036203049 -0.079607971 0.28262952
-0.036008522 -0.079790473 0.28277844
-0.035689797 -0.08004114 0.28300247
-0.035375059 -0.080439307 0.28325346
-0.035108719 -0.080539279 0.2833153
0.029947869 -0.087348707 0.30291039
0.030006804 -0.087621219 0.30309099
0.030048277 -0.087883554 0.30329406
-0.099955939 -0.079947561 0.27230012
-0.099893034 -0.080193587 0.27240211
-0.09976913 -0.08048825 0.27254722
-0.099576801 -0.081002571 0.27279261
-0.099288963 -0.081756182 0.27319181
-0.05886336 -0.083189555 0.28047121
-0.058106229 -0.08302781 0.28046677
-0.057591647 -0.082921557 0.28049657
-0.057087988 -0.082810611 0.28055203
-0.056630008 -0.082716301 0.28060883
-0.055995729 -0.082575105 0.28061986
-0.055342879 -0.082443915 0.28065079
-0.054692484 -0.082310945 0.28067559
-0.054143257 -0.082206495 0.28072199
-0.053555842 -0.082087114 0.28077021
-0.053058174 -0.082001582 0.28081802
-0.052386452 -0.081859656 0.28088167
-0.051764376 -0.081725687 0.28093949
-0.051105183 -0.081586473 0.28100362
-0.050358418 -0.081448898 0.28105909
-0.049644243 -0.081310473 0.2811352
-0.049007017 -0.081194229 0.28122854
-0.048429649 -0.081127189 0.28130955
-0.047793712 -0.08104378 0.28140026
-0.047190666 -0.080986448 0.28147107
-0.046441905 -0.080880202 0.28152823
-0.045813859 -0.080790482 0.28156158
-0.045110505 -0.08067096 0.2815682
-0.044639464 -0.080616027 0.28156632
-0.044066884 -0.080541857 0.2815522
-0.043581951 -0.080516972 0.28157446
-0.043070473 -0.080480799 0.28159821
-0.042491838 -0.080382191 0.28159711
-0.041869003 -0.08028695 0.28160536
-0.041123863 -0.080092713 0.28159109
-0.040498462 -0.079929151 0.28164464
-0.04007851 -0.079826973 0.28172067
-0.039594758 -0.079737745 0.28184912
-0.039159272 -0.07977239 0.28203893
-0.038723916 -0.079741545 0.28217795
-0.038290087 -0.079729371 0.28229582
-0.037928395 -0.07962507 0.28232697
-0.037542213 -0.079545982 0.28235218
-0.037165616 -0.079451717 0.28235734
-0.036908571 -0.079397075 0.28237316
-0.036643256 -0.07940314 0.28242636
-0.036376208 -0.079414837 0.28248885
-0.036117781 -0.079418629 0.28253186
-0.035908297 -0.079424903 0.28256825
-0.035710495 -0.079491384 0.2826218
-0.035451457 -0.079593003 0.28271651
-0.035079729 -0.079662904 0.28280073
0.029975183 -0.087444022 0.30296433
0.029980419 -0.087534554 0.30302519
0.030029021 -0.087796517 0.30323264
-0.10011627 -0.079511248 0.27211812
-0.10001681 -0.079717614 0.27222016
-0.055801973 -0.082530633 0.28062302
-0.055246778 -0.082422875 0.28065968
-0.054650001 -0.082295008 0.28068715
-0.054100957 -0.082191043 0.28073272
-0.053468153 -0.082058258 0.28078389
-0.052877668 -0.081952348 0.28083092
-0.05229811 -0.081838459 0.28089383
-0.051723305 -0.081719346 0.28095371
-0.051020581 -0.081560902 0.2810187
-0.050281841 -0.081427068 0.28108197
-0.049569722 -0.081286028 0.28115058
-0.048971873 -0.081175409 0.28123161
-0.048407141 -0.08110927 0.28132123
-0.047774576 -0.081026509 0.28140694
-0.047119729 -0.080934227 0.28147817
-0.046513267 -0.080883503 0.28153187
-0.045758799 -0.080763049 0.28156066
-0.045162845 -0.080674112 0.28156465
-0.044586584 -0.080591135 0.2815572
-0.044094671 -0.080530278 0.28154987
-0.043536335 -0.080489285 0.28156289
-0.042966902 -0.080410361 0.28156316
-0.042476851 -0.080361441 0.28158927
-0.041807547 -0.080249935 0.28158537
-0.04103804 -0.080050826 0.28158379
-0.040420663 -0.079901084 0.2816548
-0.039904933 -0.079755224 0.28174949
-0.039524209 -0.079702504 0.28186843
-0.039068814 -0.079686552 0.28203058
-0.038633745 -0.079686403 0.28217652
-0.038232177 -0.079641789 0.28227171
-0.037863396 -0.079589508 0.28233191
-0.037498005 -0.079510838 0.2823523
-0.037147999 -0.079405852 0.28233865
-0.036833055 -0.079326987 0.28234181
-0.03658358 -0.07928165 0.28235343
-0.036302075 -0.079259008 0.28238618
-0.036014151 -0.079202473 0.2823965
-0.035731528 -0.079119407 0.28238848
-0.035457414 -0.079104617 0.2824198
-0.035198133 -0.079150192 0.28248435
-0.03490603 -0.079099588 0.28249067
0.029952854 -0.087439187 0.30297127
0.029975181 -0.087444022 0.30296433
0.030006804 -0.087621212 0.30309096
0.030029021 -0.087796502 0.30323267
-0.10054392 -0.078435577 0.27169228
-0.10040516 -0.078771129 0.27184632
-0.05464999 -0.082294986 0.28068712
-0.054012816 -0.082158737 0.28073102
-0.053374488 -0.082036525 0.28078526
-0.052744765 -0.081913151 0.28084564
-0.052120067 -0.081784286 0.28090653
-0.051500376 -0.081649408 0.28096589
-0.050834049 -0.08150541 0.28100961
-0.050094839 -0.081372537 0.28107426
-0.049480323 -0.081251897 0.28115237
-0.048889499 -0.081157997 0.28124192
-0.048283294 -0.08105959 0.28133896
-0.047698531 -0.080979101 0.28141296
-0.047152348 -0.080924131 0.28147352
-0.046513427 -0.080866188 0.28153309
-0.045844834 -0.080781512 0.28156149
-0.045259286 -0.080690905 0.28156799
-0.044639423 -0.080599703 0.28156599
-0.044101056 -0.08050181 0.28153896
-0.043527063 -0.080436975 0.28154203
-0.042994354 -0.08041171 0.2815665
-0.042503916 -0.080360286 0.281591
-0.041911785 -0.080302931 0.28161839
-0.041063897 -0.080144547 0.28164774
-0.040307496 -0.079885475 0.28169203
-0.039807174 -0.079743162 0.2817874
-0.039416861 -0.079720236 0.28192458
-0.038977273 -0.079678163 0.28206378
-0.038561303 -0.079656892 0.28218839
-0.038169339 -0.079598151 0.28226399
-0.037797924 -0.079542898 0.28232017
-0.037452076 -0.079413809 0.2823
-0.037081923 -0.079330772 0.28229943
-0.036764048 -0.079251729 0.28229889
-0.036514305 -0.079190724 0.28230134
