# .PCD v0.7 - Point Cloud Data file format
VERSION 0.7
FIELDS x y z
SIZE 4 4 4
TYPE F F F
COUNT 1 1 1
WIDTH 1372
HEIGHT 1
VIEWPOINT 0 0 0 1 0 0 0
POINTS 1372
DATA ascii
-0.19277649 0.02343775 0.31653526
-0.19264871 0.02354436 0.316558
-0.19254389 0.023613257 0.31657922
-0.19243534 0.023625676 0.31662735
-0.047301814 0.020986857 0.29881662
-0.047284525 0.021075357 0.29879171
-0.047273349 0.021114435 0.29877165
-0.047265068 0.021153906 0.29875237
-0.047244113 0.0210717 0.29877961
-0.047234625 0.020985778 0.29880428
-0.047234457 0.020942494 0.29881945
-0.19384184 0.022589646 0.31624725
-0.19369985 0.02278821 0.31626621
-0.19361027 0.022864388 0.3162882
-0.19349496 0.023130797 0.31626004
-0.19335696 0.023326632 0.31627619
-0.19324341 0.023438323 0.31630346
-0.19316259 0.023486665 0.31633309
-0.19306505 0.023523727 0.31636792
-0.19297937 0.02357742 0.31638566
-0.19290265 0.023646524 0.31641266
-0.19280924 0.023717562 0.31643632
-0.19270702 0.023836691 0.31645077
-0.19257571 0.023999857 0.31646234
-0.19248638 0.024086263 0.31648037
-0.19239107 0.02418006 0.31649822
-0.19229409 0.024236074 0.31652722
-0.19219628 0.024264138 0.31656817
-0.047310852 0.021575838 0.29861519
-0.047289602 0.021663656 0.29858792
-0.047287721 0.0217428 0.29854968
-0.047242042 0.02197624 0.29841217
-0.04722321 0.021850143 0.29847053
-0.047230333 0.021727294 0.29851738
-0.047226552 0.021683376 0.298527
-0.19369009 0.023252463 0.31611463
-0.19355457 0.023373198 0.31615961
-0.19344622 0.023611333 0.31613463
-0.19329539 0.023863899 0.31614044
-0.19316337 0.024024904 0.31616133
-0.19304544 0.024131706 0.31619158
-0.19295423 0.02416864 0.31623137
-0.19286683 0.024188424 0.31626523
-0.19281128 0.024169033 0.31629542
-0.19271837 0.024249693 0.31631678
-0.19259781 0.024369929 0.31633866
-0.19251406 0.024439313 0.31636158
-0.19242907 0.0245816 0.3163633
-0.1923399 0.024682339 0.31638047
-0.19225067 0.024759514 0.31640035
-0.19214743 0.024841614 0.31642795
-0.19205131 0.024869511 0.31646657
-0.19188862 0.024909463 0.31653494
-0.047326829 0.0221279 0.29844457
-0.047314636 0.02221361 0.29842108
-0.047282584 0.022457475 0.29829511
-0.047279701 0.022612851 0.29818451
-0.047265269 0.022735935 0.29810026
-0.047230266 0.022443675 0.2982606
-0.047219843 0.02235711 0.29828838
-0.19353232 0.023840819 0.31601158
-0.19340754 0.023958147 0.31605199
-0.19324338 0.024342496 0.31601015
-0.19311224 0.024512097 0.31602973
-0.19296709 0.024653599 0.31605825
-0.19285217 0.024753526 0.31608763
-0.19275261 0.024816308 0.31611785
-0.19269244 0.024838375 0.31614462
-0.19260131 0.024847606 0.31618106
-0.19251454 0.024914712 0.31620407
-0.19243096 0.024970772 0.31623366
-0.19235018 0.02508004 0.3162441
-0.19228853 0.025125304 0.31626344
-0.19219768 0.025254596 0.31627318
-0.19208717 0.025378112 0.31629267
-0.19200705 0.025438927 0.31631362
-0.19189765 0.025475396 0.31635591
-0.19175638 0.025497163 0.31642371
-0.19155543 0.025552841 0.31652057
-0.047334328 0.022684935 0.29827195
-0.047322057 0.022771087 0.29824832
-0.047310814 0.023058627 0.29809144
-0.047293495 0.023177939 0.29800037
-0.047279507 0.023303615 0.29791215
-0.047275301 0.023258368 0.29791665
-0.047255974 0.022999331 0.29802257
-0.19334078 0.024560899 0.31587425
-0.19322117 0.024731653 0.31588525
-0.1930899 0.024911596 0.3159028
-0.19293867 0.025099631 0.31592152
-0.19278318 0.025259579 0.31594509
-0.19269688 0.025302889 0.31597671
-0.1925939 0.02536544 0.31601158
-0.19249614 0.025436204 0.31603363
-0.19239223 0.025515864 0.31605667
-0.19233081 0.025562128 0.31607902
-0.19225541 0.025624229 0.31610402
-0.19221906 0.025612246 0.31613377
-0.19214058 0.025720056 0.31614074
-0.19204487 0.025832733 0.31615844
-0.19195992 0.025915604 0.31618232
-0.19187801 0.025954945 0.31621736
-0.19177185 0.025987433 0.31626022
-0.1916337 0.026037471 0.31631935
-0.19140802 0.02605924 0.31644318
-0.047351737 0.023245839 0.29808721
-0.0473276 0.02337392 0.29803562
-0.047317978 0.023539692 0.29794252
-0.047310963 0.023666879 0.29787311
-0.047304399 0.02383155 0.29775825
-0.04728293 0.023782713 0.29775062
-0.047271535 0.023693221 0.29775912
-0.19322683 0.025293751 0.31568524
-0.19307843 0.025388356 0.31574267
-0.19293307 0.025484949 0.31579325
-0.19278142 0.025637951 0.31581888
-0.19264863 0.025741657 0.31585211
-0.19250441 0.025870865 0.31587455
-0.19241676 0.025909262 0.31590146
-0.19233587 0.025955319 0.31593016
-0.1922297 0.026085323 0.315943
-0.19215576 0.026223747 0.31593913
-0.19209148 0.026268119 0.31596026
-0.19202983 0.026291197 0.31598991
-0.19196853 0.026334083 0.31601873
-0.19189394 0.026425179 0.31603509
-0.19181943 0.026474118 0.31606841
-0.1917537 0.026480125 0.31611004
-0.19164491 0.026522702 0.31616199
-0.19152158 0.026566997 0.31621143
-0.19131325 0.026577501 0.31633019
-0.047330737 0.023583736 0.29792136
-0.047327444 0.023542827 0.29794645
-0.047345001 0.023812013 0.29787552
-0.047327377 0.024022074 0.29777271
-0.047323901 0.024149796 0.29770377
-0.047297645 0.02423119 0.29764986
-0.047291547 0.024312703 0.29759166
-0.047278613 0.024224248 0.29760653
-0.19312644 0.026002495 0.31549752
-0.19293928 0.026102608 0.31557161
-0.19277357 0.026131431 0.31565502
-0.19261792 0.02620161 0.31571111
-0.19249099 0.026274921 0.31574938
-0.19237381 0.026346786 0.31577727
-0.19228166 0.026407044 0.3158021
-0.19220118 0.026450638 0.3158257
-0.19209273 0.026645707 0.31582114
-0.19201007 0.026760796 0.31583133
-0.19195811 0.026792854 0.31585199
-0.19188589 0.026860178 0.31587529
-0.19185151 0.02685775 0.31590396
-0.19177461 0.026933271 0.31593022
-0.19169529 0.026954303 0.31598085
-0.19162963 0.02697348 0.31602079
-0.19153163 0.027030146 0.31605697
-0.19140853 0.027102189 0.31610116
-0.19120397 0.027128493 0.31620541
-0.19097237 0.02710624 0.31636339
-0.19073913 0.027147729 0.31649464
-0.19048922 0.027244888 0.3166323
-0.047320534 0.024108907 0.29772943
-0.047332458 0.024196604 0.29769436
-0.047330346 0.024463998 0.29761183
-0.047312994 0.024675336 0.29750681
-0.047308158 0.024671612 0.29749188
-0.047304004 0.024668256 0.29748192
-0.047300518 0.024581647 0.29751632
-0.19299273 0.026671855 0.31534034
-0.19280426 0.026711399 0.31543952
-0.19264928 0.026748616 0.31551406
-0.19250412 0.026727667 0.31559363
-0.19239192 0.026751567 0.31564513
-0.19225053 0.026818905 0.3156831
-0.19218168 0.026824659 0.3157177
-0.19206922 0.026934575 0.31573537
-0.19197397 0.027090799 0.31574243
-0.19189486 0.027248669 0.31573918
-0.1918333 0.027315095 0.31575602
-0.19178899 0.027337141 0.31577948
-0.19174458 0.027346693 0.31580466
-0.19168128 0.027401371 0.31582668
-0.19160184 0.027461728 0.31585911
-0.19152255 0.027507437 0.31589916
-0.19143286 0.027555075 0.31593958
-0.19130084 0.027610432 0.31599966
-0.19109714 0.02765115 0.31610075
-0.19087094 0.027672121 0.3162396
-0.19064113 0.027740648 0.31637004
-0.19037428 0.027833724 0.31652367
-0.19008808 0.027959647 0.31667784
-0.047355339 0.024639644 0.29755324
-0.047338676 0.024815602 0.29748228
-0.0473339 0.0250766 0.29738307
-0.047320958 0.025073824 0.29736942
-0.047292747 0.025158338 0.29733244
-0.047287431 0.025113232 0.29734373
-0.047285505 0.025068047 0.29735827
-0.19289255 0.027231725 0.31521189
-0.19269441 0.027281933 0.31531364
-0.19254091 0.027275767 0.31539795
-0.19238861 0.027304336 0.31546858
-0.19228713 0.027302522 0.31552523
-0.1921353 0.027315879 0.31559113
-0.19204518 0.027341824 0.3156276
-0.1919439 0.027417848 0.3156524
-0.19186065 0.027576655 0.31565371
-0.19179748 0.027689012 0.31566074
-0.19175203 0.027738608 0.31567088
-0.1917174 0.027742822 0.31569237
-0.19166096 0.027808532 0.3157059
-0.19158927 0.027884794 0.31572139
-0.191507 0.027954414 0.31574789
-0.19141278 0.028013516 0.31578788
-0.19131532 0.02803456 0.31584319
-0.19119158 0.028087217 0.31590292
-0.19100639 0.028156234 0.31598711
-0.19077487 0.028231543 0.31611598
-0.19053234 0.028338248 0.3162508
-0.19022109 0.028450498 0.31643471
-0.18991327 0.028605582 0.31658262
-0.047364365 0.025387481 0.29730031
-0.047338039 0.025608415 0.2972362
-0.047330528 0.025604583 0.29721826
-0.047323573 0.025601119 0.29720452
-0.047321621 0.025559243 0.29722223
-0.047304455 0.025431763 0.29727024
-0.047291629 0.025297094 0.29730162
-0.19282621 0.027729303 0.31508678
-0.19262026 0.027754001 0.31520185
-0.19244932 0.027793726 0.31529
-0.19231355 0.02781697 0.3153553
-0.19217306 0.027875893 0.31541428
-0.19203126 0.027870364 0.31548703
-0.19192366 0.027913053 0.31551763
-0.19183792 0.027998457 0.31553504
-0.19176784 0.028132165 0.31554294
-0.1917177 0.028178615 0.31555948
-0.19167259 0.028192054 0.31557944
-0.19163637 0.0281667 0.31561098
-0.19157952 0.028230317 0.3156226
-0.19150519 0.028314713 0.31563553
-0.19141316 0.028432669 0.3156431
-0.19132334 0.02848918 0.31567404
-0.1912258 0.028524706 0.31572309
-0.1911047 0.028591968 0.31577906
-0.19090846 0.028673118 0.31587499
-0.19066884 0.028741762 0.3160159
-0.19041759 0.028846724 0.31616354
-0.19010693 0.029057054 0.31631896
-0.18969886 0.029266844 0.31649953
-0.047368445 0.026138393 0.29711559
-0.047342695 0.026181335 0.29709256
-0.047333546 0.026135843 0.2970939
-0.047325451 0.026094591 0.29710948
-0.047325451 0.026094591 0.29710948
-0.047307651 0.026005749 0.29711685
-0.047305454 0.025960082 0.29712737
-0.19274206 0.028150504 0.31502074
-0.19255209 0.028176147 0.31512806
-0.19236399 0.028177494 0.31523782
-0.19218731 0.028235463 0.31531033
-0.19201906 0.028341401 0.31536558
-0.1919228 0.02837367 0.31540218
-0.1917868 0.028468797 0.31542662
-0.19173336 0.028534129 0.31544006
-0.19169044 0.028610008 0.3154434
-0.1916371 0.02868834 0.31545117
-0.19159716 0.028687395 0.31547639
-0.1915454 0.028703962 0.31549865
-0.19148281 0.02874185 0.31552094
-0.19142242 0.028817661 0.31552404
-0.19134504 0.028889304 0.31553903
-0.19125243 0.028959997 0.3155604
-0.19115137 0.029003298 0.31560403
-0.1910277 0.02908163 0.31566101
-0.19080573 0.029180387 0.31577551
-0.19056423 0.029254599 0.315918
-0.19032395 0.029403822 0.31604102
-0.18994126 0.029651159 0.31621376
-0.18954466 0.029844696 0.3163859
-0.047375832 0.026710881 0.2969797
-0.047359083 0.026713889 0.2969822
-0.047341671 0.0267097 0.29697129
-0.047329053 0.026665911 0.29696903
-0.047324657 0.026712688 0.29697227
-0.047319368 0.026667276 0.29698011
-0.047317222 0.026621677 0.29699004
-0.19272779 0.028575927 0.31492385
-0.19248015 0.028622655 0.31505516
-0.19224328 0.028692866 0.31516314
-0.19206162 0.028752865 0.31524098
-0.19186041 0.028833916 0.31531215
-0.1917485 0.028916055 0.31534398
-0.1916706 0.028940208 0.31536093
-0.19161412 0.029045241 0.31536096
-0.19157363 0.029089373 0.31537011
-0.19153014 0.02918195 0.31536263
-0.19149891 0.029211186 0.31537011
-0.19144672 0.029259039 0.315384
-0.19138014 0.029292706 0.3154082
-0.19133814 0.02933941 0.31541196
-0.19127177 0.029390397 0.31542727
-0.19119056 0.029446552 0.31544951
-0.19108954 0.029455297 0.31549963
-0.19096592 0.029535566 0.31555805
-0.1907431 0.029630769 0.31567553
-0.1905148 0.029713379 0.31580019
-0.19025922 0.029858667 0.3159329
-0.18990144 0.030105844 0.3160831
-0.18957159 0.030233379 0.31623077
-0.047373839 0.027329922 0.29683185
-0.047358871 0.027413791 0.29679912
-0.047346827 0.027413631 0.29679653
-0.047346819 0.027413631 0.2967965
-0.047342028 0.027326219 0.29682031
-0.04733761 0.027281061 0.29683259
-0.19261844 0.02908989 0.31483936
-0.19239976 0.02911734 0.31496042
-0.19213882 0.029168665 0.31509253
-0.19192424 0.029240921 0.31517801
-0.19172119 0.029303227 0.3152467
-0.19159099 0.029385855 0.31527889
-0.19152573 0.029444253 0.31528029
-0.19147862 0.029503316 0.31528589
-0.19144233 0.029532658 0.31529251
-0.19141194 0.029595507 0.31528741
-0.19139646 0.029596575 0.31530243
-0.19135293 0.029639851 0.31530946
-0.19131319 0.029679548 0.31531364
-0.19127217 0.029732194 0.31532219
-0.19121504 0.029781245 0.31534058
-0.19114506 0.029862851 0.3153528
-0.19104846 0.02992752 0.31538534
-0.19091742 0.029986447 0.3154566
-0.19072856 0.030054428 0.31556672
-0.19049513 0.030141009 0.31568843
-0.19025527 0.030236846 0.31581569
-0.18993729 0.03040964 0.31595719
-0.047374818 0.027902909 0.296662
-0.047374818 0.027902909 0.296662
-0.047360379 0.027987028 0.29663107
-0.047368087 0.028028386 0.29659444
-0.047357541 0.028029723 0.2966159
-0.047348667 0.027987026 0.29663104
-0.047330834 0.027948201 0.29669616
-0.19248013 0.029616084 0.31474227
-0.1922245 0.029659199 0.31487888
-0.19197994 0.029714093 0.31499794
-0.19174421 0.029768942 0.31509057
-0.19155484 0.029820446 0.31515321
-0.19143625 0.029836498 0.31518769
-0.19139747 0.029848244 0.31520122
-0.19137478 0.029864099 0.31520706
-0.19133851 0.029898159 0.31522343
-0.19132432 0.029913595 0.31522501
-0.19130373 0.029913776 0.31524223
-0.19127512 0.029925287 0.3152529
-0.19124559 0.029971644 0.3152605
-0.19121665 0.030030074 0.31525829
-0.19116502 0.030103061 0.31526345
-0.19110078 0.03017696 0.31527716
-0.19100755 0.030281413 0.31530583
-0.19087858 0.030351629 0.31537548
-0.19068761 0.030421307 0.31548375
-0.19045764 0.030457482 0.31562331
-0.1902184 0.030513674 0.31575727
-0.18994638 0.03066447 0.31587014
-0.04736666 0.02838135 0.29654738
-0.047358874 0.028518392 0.29649097
-0.047370825 0.028561605 0.2964409
-0.047343288 0.028733941 0.29638517
-0.047343291 0.028733943 0.29638517
-0.047304273 0.028692609 0.29647383
-0.19235618 0.030089881 0.31463823
-0.1920785 0.030197904 0.31475365
-0.19181508 0.030327478 0.31485644
-0.19156529 0.030369386 0.31496957
-0.19147012 0.030327044 0.31501964
-0.19135058 0.030278897 0.31507537
-0.1912889 0.03022157 0.3151207
-0.19128664 0.030177303 0.31513754
-0.19127004 0.030177873 0.31514567
-0.19125058 0.030178169 0.315166
-0.19123492 0.030192373 0.31516972
-0.19119975 0.030208863 0.31520241
-0.19118075 0.03022108 0.31520921
-0.19114232 0.030292565 0.31520736
-0.19109726 0.03036323 0.31521872
-0.19103934 0.030446887 0.31522831
-0.19096011 0.030539647 0.31525493
-0.190837 0.030654866 0.31530422
-0.19065876 0.030725569 0.31540751
-0.19041711 0.030783311 0.31555051
-0.19018401 0.030822461 0.31568414
-0.18992837 0.030918702 0.31580189
-0.047334418 0.028995229 0.29636607
-0.047321562 0.029085912 0.29633555
-0.047309067 0.029258579 0.29624909
-0.047295995 0.029387578 0.29621053
-0.047289912 0.02934424 0.29622456
-0.047280226 0.029217264 0.29629302
-0.19218522 0.030650256 0.31452239
-0.19192103 0.030755714 0.31464517
-0.19169474 0.030770518 0.31477135
-0.19149089 0.030758195 0.31487602
-0.1913967 0.030755304 0.3149111
-0.19132328 0.030639974 0.31497404
-0.19125558 0.030483771 0.3150461
-0.19122924 0.030437298 0.31507516
-0.19121455 0.030393619 0.31509995
-0.19118427 0.030407991 0.31511256
-0.19115882 0.030436639 0.31511724
-0.19113539 0.030467372 0.31513157
-0.19110154 0.030483501 0.31516668
-0.19107258 0.03052213 0.31517184
-0.19102722 0.030604085 0.31517535
-0.19097145 0.030700486 0.31519139
-0.19089001 0.03079037 0.31522295
-0.19077894 0.030920502 0.31525946
-0.19059187 0.031001637 0.31535485
-0.19037585 0.031055311 0.31547728
-0.19012541 0.031150643 0.31560689
-0.1898765 0.031243002 0.31571525
-0.047321845 0.029217031 0.29630196
-0.047318876 0.029344205 0.29622412
-0.047280114 0.029565617 0.29614654
-0.047264345 0.029743623 0.29608339
-0.047264341 0.029743627 0.29608336
-0.047267996 0.02970057 0.29610899
-0.1921014 0.031109177 0.31441388
-0.19188271 0.031112626 0.31454992
-0.19163804 0.031107634 0.31469083
-0.19147451 0.031067971 0.31477883
-0.19137642 0.030944517 0.31485876
-0.19132173 0.030817777 0.31492135
-0.19124414 0.030731888 0.31497437
-0.19117418 0.030663805 0.31502321
-0.19114976 0.030636963 0.31504974
-0.19112138 0.030665034 0.31505701
-0.19109425 0.030680398 0.31506884
-0.19106583 0.030738646 0.31506506
-0.19103341 0.030767266 0.31508857
-0.19099309 0.030778775 0.31513497
-0.19094872 0.030859128 0.31514162
-0.1908958 0.030949811 0.31515467
-0.19082884 0.031077225 0.31516495
-0.19071136 0.031168828 0.31522226
-0.19054303 0.03128396 0.31528234
-0.19030195 0.031408764 0.31538895
-0.19004309 0.03152775 0.3155022
-0.189803 0.031647112 0.31561264
-0.047315512 0.029654006 0.29616308
-0.047290284 0.029742559 0.29610872
-0.047282014 0.029871937 0.29603288
-0.047266074 0.029913828 0.29600447
-0.047256835 0.029870708 0.2960169
-0.04725619 0.029786371 0.29607165
-0.19205557 0.031468082 0.31432956
-0.19181795 0.031482816 0.31447455
-0.19158828 0.031460006 0.31460714
-0.19145499 0.031333759 0.31470993
-0.19136524 0.031212464 0.31478521
-0.19129469 0.031118834 0.31484035
-0.19122791 0.031025853 0.31489098
-0.19114845 0.03095736 0.31494474
-0.19109415 0.030905083 0.31498587
-0.1910699 0.030904982 0.31500188
-0.19103581 0.030948281 0.31501099
-0.19099721 0.03100767 0.31501639
-0.19096234 0.031063905 0.31501997
-0.19092403 0.031100508 0.31503806
-0.19087239 0.031150341 0.31507781
-0.19081926 0.031214703 0.31512162
-0.19075041 0.031304572 0.31514367
-0.19064958 0.031429753 0.31516379
-0.19046567 0.031530462 0.31524143
-0.19020727 0.031693235 0.31533775
-0.18997207 0.03179159 0.31544593
-0.047318399 0.030095968 0.29605532
-0.047293033 0.030096341 0.29602447
-0.047281861 0.030179998 0.29594928
-0.047241904 0.030314846 0.29587173
-0.047245305 0.030271342 0.29589549
-0.04724241 0.030187558 0.29596132
-0.19198076 0.031824164 0.31426874
-0.19174893 0.031826559 0.31441519
-0.19158447 0.031750347 0.31452924
-0.19145058 0.031612504 0.31463638
-0.19134164 0.031491317 0.31471974
-0.19128303 0.031390626 0.31477183
-0.19119777 0.031315342 0.31482154
-0.19114003 0.031263791 0.31485721
-0.19106333 0.031217026 0.31490409
-0.1910246 0.031211697 0.31492823
-0.19097924 0.031231813 0.31495291
-0.19093238 0.031303868 0.3149617
-0.19089386 0.031358838 0.31497377
-0.19085541 0.031394877 0.31499323
-0.19080713 0.031457212 0.31501144
-0.19074997 0.0315006 0.31505597
-0.19067161 0.031561673 0.31510976
-0.19057307 0.031676449 0.31512511
-0.19038993 0.031806536 0.31517863
-0.19015262 0.031981032 0.31525734
-0.18991999 0.032041363 0.31539166
-0.047321998 0.030624017 0.29590362
-0.047311481 0.030671785 0.29583877
-0.047265701 0.030845128 0.2957167
-0.047255456 0.030801978 0.29572567
-0.047254559 0.030582195 0.29583848
-0.047245443 0.0305437 0.29588255
-0.19193234 0.032138415 0.3142086
-0.19171004 0.032107074 0.31436118
-0.19157369 0.032006919 0.31446654
-0.19145446 0.031881023 0.31456727
-0.19132873 0.031794675 0.31465393
-0.19127099 0.031707458 0.31469953
-0.19119473 0.031638116 0.31474486
-0.19111334 0.031607922 0.31478438
-0.19103812 0.03153066 0.31483123
-0.1909806 0.031544212 0.31485704
-0.19093026 0.031537097 0.31488967
-0.19088906 0.031596173 0.31490201
-0.19083506 0.03165146 0.31492552
-0.1907869 0.031716119 0.31494242
-0.19073308 0.031745639 0.31497166
-0.19065849 0.031806283 0.31499818
-0.19059712 0.031815868 0.3150683
-0.19049087 0.031925321 0.31508335
-0.19029485 0.032052241 0.31515038
-0.19006531 0.032184742 0.31523669
-0.04730086 0.031612419 0.29554337
-0.047279399 0.031615701 0.29552427
-0.047268663 0.031615563 0.29551294
-0.047256619 0.031523418 0.29552954
-0.047250405 0.031386167 0.29556546
-0.047239669 0.031390097 0.29557425
-0.19188024 0.032410499 0.31416556
-0.19168948 0.032362454 0.31430772
-0.19157805 0.032280955 0.31439245
-0.19147228 0.03217297 0.31448665
-0.19135399 0.0320778 0.31457505
-0.19125082 0.032019574 0.3146382
-0.19118722 0.031971332 0.31467307
-0.19111405 0.031910229 0.3147122
-0.19103952 0.031871565 0.31475151
-0.1909716 0.031827942 0.31479368
-0.19090419 0.031835303 0.31482834
-0.19086005 0.031880181 0.3148438
-0.1907925 0.031905655 0.31488103
-0.19070944 0.031978142 0.31491214
-0.1906371 0.032018028 0.31494182
-0.19057013 0.03206807 0.31495953
-0.19049725 0.032126222 0.31498793
-0.19040099 0.032185458 0.31504086
-0.19021204 0.032278605 0.315119
-0.18997207 0.032381561 0.31522989
-0.0472738 0.032289241 0.29535666
-0.047235541 0.03233403 0.29532185
-0.047235541 0.03233403 0.29532185
-0.047227636 0.03228974 0.29532695
-0.04721456 0.032151677 0.29535475
-0.047203984 0.032146446 0.29534578
-0.19181219 0.032742925 0.31411269
-0.19167995 0.032665797 0.31422833
-0.19156538 0.032584172 0.31432199
-0.19146281 0.032487113 0.31441161
-0.19136715 0.032377649 0.31449634
-0.1912761 0.032325018 0.31456223
-0.19118068 0.032276876 0.31461978
-0.19112316 0.032237351 0.31464943
-0.19103733 0.032185901 0.31469622
-0.19097838 0.032180622 0.31472534
-0.19091047 0.032174043 0.31475717
-0.19082564 0.032175887 0.31479752
-0.19074567 0.032198895 0.31482992
-0.1906573 0.032255117 0.31485739
-0.19056559 0.0323059 0.31488124
-0.19048943 0.03236879 0.31489399
-0.19041021 0.032389734 0.31493899
-0.19029647 0.032450847 0.31500295
-0.19012363 0.032533854 0.31508192
-0.047213964 0.033104308 0.29511434
-0.047194086 0.0331477 0.29509985
-0.047169518 0.033193197 0.2950888
-0.04715902 0.033148248 0.29509392
-0.04715215 0.033103541 0.29510555
-0.047141857 0.033102218 0.29509836
-0.19178139 0.033070005 0.31402323
-0.1916692 0.033000533 0.31413138
-0.1915731 0.032901153 0.31422925
-0.19146296 0.032808848 0.31432304
-0.19137226 0.032690927 0.31441596
-0.19128014 0.032656386 0.31448388
-0.19118001 0.032596756 0.3145586
-0.19111498 0.032544736 0.31459904
-0.19104391 0.032499917 0.31464145
-0.19096018 0.032486353 0.31467324
-0.19090329 0.03248876 0.31470087
-0.19080752 0.032490179 0.31473628
-0.19069667 0.032538872 0.31476301
-0.19060969 0.03258111 0.3147825
-0.19052269 0.03264796 0.31479248
-0.19043408 0.032678928 0.31481752
-0.19035485 0.032740477 0.31482962
-0.19022462 0.032783207 0.31491476
-0.19007184 0.032865688 0.31500238
-0.047197655 0.033786751 0.29493946
-0.047175292 0.03387684 0.29491022
-0.047158092 0.033876199 0.29491106
-0.047147833 0.033830784 0.29491857
-0.047147829 0.033830788 0.2949186
-0.04714163 0.033786952 0.29493397
-0.19177824 0.033387683 0.31389758
-0.19167669 0.033293225 0.31402379
-0.19155167 0.033240411 0.3141278
-0.19145223 0.033151258 0.31422341
-0.19138569 0.033046655 0.31430572
-0.19127972 0.032972157 0.31439874
-0.19118696 0.032898977 0.31447998
-0.19110864 0.032850008 0.31453821
-0.19102536 0.032837667 0.31457782
-0.19096318 0.032817341 0.31460604
-0.19088846 0.032833774 0.31463271
-0.19076583 0.032862958 0.31466192
-0.19067308 0.032868531 0.31468514
-0.19056475 0.032938778 0.31469825
-0.19046557 0.03297263 0.31471902
-0.19042026 0.033009041 0.31472248
-0.19030866 0.033083037 0.31474811
-0.19019964 0.033139583 0.3148177
-0.19000714 0.033209778 0.3149235
-0.047215123 0.034240957 0.29483443
-0.047192853 0.034197152 0.29485008
-0.047173567 0.034468316 0.29475516
-0.047160689 0.034467671 0.29474753
-0.047150753 0.034422323 0.29475841
-0.04715075 0.034422323 0.29475844
-0.047145132 0.034378793 0.29477671
-0.19175227 0.033752371 0.31377479
-0.19164981 0.033703573 0.31388682
-0.19152929 0.033642963 0.31399891
-0.19144693 0.033519369 0.31410423
-0.19135737 0.033424061 0.31419563
-0.19126661 0.033349417 0.31428388
-0.19118851 0.033295069 0.31435511
-0.19110771 0.033247318 0.3144224
-0.19102407 0.033181697 0.3144848
-0.19091226 0.033165973 0.31453407
-0.19084613 0.033168089 0.31455743
-0.19074935 0.033194702 0.31457862
-0.19064586 0.033215899 0.31460041
-0.19054313 0.033289339 0.31460682
-0.19043972 0.033344634 0.31461954
-0.1903778 0.033370733 0.31463727
-0.19027607 0.033416539 0.31467482
-0.19015266 0.033493556 0.31471804
-0.047220763 0.034698069 0.29471555
-0.04719739 0.034835793 0.29466987
-0.047175255 0.034883179 0.29465145
-0.047183625 0.035013322 0.29458836
-0.047175694 0.035058077 0.29457316
-0.04715262 0.034926575 0.29462484
-0.047150105 0.034882642 0.29464409
-0.19166556 0.034914877 0.31323302
-0.19160327 0.035067666 0.3131507
-0.19153534 0.034871444 0.31330723
-0.19132622 0.034833562 0.31362441
-0.19120851 0.034418363 0.31391615
-0.19115436 0.034109153 0.3141
-0.19108202 0.033942986 0.31420454
-0.19100399 0.033914495 0.31425828
-0.19089229 0.033923402 0.31430736
-0.1908118 0.033902746 0.31434572
-0.19071983 0.033853903 0.31439319
-0.19060126 0.03384091 0.31443831
-0.19051878 0.033834107 0.31446677
-0.19042251 0.033834763 0.31449962
-0.19034995 0.033846624 0.31452727
-0.19023445 0.033858158 0.31459072
-0.19009262 0.033886451 0.31466499
-0.047222745 0.035347778 0.29456767
-0.047208056 0.035205852 0.29458126
-0.047201123 0.035380479 0.29449412
-0.047185045 0.035560869 0.29443046
-0.047167037 0.035472382 0.29446217
-0.047167461 0.035428211 0.29448059
-0.047167584 0.035160411 0.29457945
-0.19107629 0.034725901 0.31393057
-0.19097123 0.034714416 0.31399518
-0.19087432 0.034791499 0.31402895
-0.19077654 0.034731142 0.31409645
-0.19068007 0.034702502 0.31414965
-0.19060461 0.034709811 0.31418228
-0.19049451 0.034628548 0.31425399
-0.19040342 0.03456771 0.31432006
-0.19031124 0.034551002 0.31437826
-0.19018954 0.034509055 0.3144635
-0.047231656 0.035891872 0.29438338
-0.047232393 0.036107242 0.29427478
-0.047212418 0.036238614 0.29422903
-0.047177646 0.036062442 0.29429102
-0.047179509 0.03575265 0.29440871
-0.047171161 0.035625797 0.29450089
-0.19036518 0.035457935 0.31410074
-0.047256485 0.036829133 0.29407376
-0.047246803 0.037037835 0.29398972
-0.047228739 0.037035037 0.29399469
-0.047203686 0.036869109 0.2940599
-0.047191914 0.036388949 0.29422414
-0.047187198 0.036236767 0.29437646
-0.047182392 0.036389813 0.29442984
-0.047277369 0.037774686 0.2937879
-0.047277365 0.037774682 0.2937879
-0.047245078 0.037732504 0.29381523
-0.047232326 0.037692852 0.29383034
-0.047187023 0.037453085 0.29394376
-0.04714407 0.037150748 0.29412475
-0.047131091 0.037005611 0.29426032
-0.13487302 0.031456783 0.22619101
-0.13466056 0.031517826 0.22633752
-0.13448855 0.031561058 0.22643669
-0.13431023 0.031590275 0.22653601
-0.13411622 0.031628288 0.22663461
-0.13392685 0.031680446 0.22672711
-0.13270789 0.031941429 0.22748813
-0.13254531 0.031985454 0.22759093
-0.13236727 0.032029659 0.22770339
-0.04734965 0.038687985 0.29349971
-0.047344171 0.038681097 0.2934885
-0.047292989 0.038697429 0.29352483
-0.047257386 0.038540948 0.29361555
-0.047219612 0.038425013 0.29367241
-0.047153156 0.038212132 0.29382882
-0.047097649 0.038176347 0.29392993
-0.13575171 0.031066598 0.2253255
-0.13561599 0.031099591 0.22543561
-0.1354689 0.031169023 0.22559935
-0.13535045 0.031233476 0.22572786
-0.13516493 0.031330328 0.22591823
-0.13484956 0.031495862 0.2262017
-0.13459937 0.031536892 0.22637179
-0.1344291 0.031584397 0.2264744
-0.13423587 0.031623278 0.22657628
-0.13404134 0.03165973 0.22667354
-0.13385297 0.031710658 0.22676775
-0.13366863 0.031759925 0.2268682
-0.13350189 0.031797677 0.2269721
-0.13336623 0.031825636 0.22706154
-0.13321398 0.031852692 0.22716297
-0.13309565 0.031879835 0.22724341
-0.13295946 0.031909123 0.22733141
-0.13277513 0.031940892 0.22744876
-0.13259482 0.031982422 0.22756195
-0.13243128 0.032023996 0.22766441
-0.13226764 0.032065228 0.22776631
-0.13207434 0.032108501 0.22788951
-0.13189493 0.032144766 0.22800277
-0.13171305 0.032175653 0.22811303
-0.13151309 0.032207556 0.22822805
-0.13126861 0.032260302 0.2283712
-0.13094577 0.032334298 0.22860338
-0.13063926 0.03239955 0.22881268
-0.13038264 0.032456383 0.2289959
-0.13010328 0.032528568 0.22918139
-0.12984855 0.032593187 0.22935675
-0.12968305 0.032625243 0.22946866
-0.12945512 0.032683447 0.22962706
-0.12918632 0.032755505 0.22981426
-0.047412079 0.039562296 0.29322249
-0.047350269 0.03950353 0.29326916
-0.047302239 0.03938245 0.293356
-0.04726626 0.039271101 0.2934477
-0.047179773 0.039103385 0.29357603
-0.047106955 0.03916534 0.29365489
-0.13568513 0.031084334 0.22538029
-0.13558352 0.031149758 0.22550045
-0.13540062 0.031227292 0.22568673
-0.13521372 0.031323288 0.22587825
-0.13502872 0.031445179 0.22606522
-0.13475998 0.031524602 0.22626577
-0.13450857 0.03157346 0.22642329
-0.13431691 0.031613428 0.22652917
-0.13416111 0.031659696 0.22661559
-0.13396701 0.03169683 0.22670838
-0.13377984 0.031746417 0.22680461
-0.13361092 0.031784162 0.22690423
-0.13344485 0.031821385 0.22700998
-0.13330843 0.031846333 0.22710013
-0.13314404 0.031882107 0.22721092
-0.13299233 0.03190998 0.22731088
-0.13285726 0.031938698 0.22740012
-0.13267697 0.0319805 0.227514
-0.13249601 0.032020606 0.22762598
-0.1322999 0.032063074 0.22774702
-0.13215147 0.032102529 0.22783872
-0.13200328 0.032137979 0.22793202
-0.13180764 0.032170955 0.22805545
-0.13162491 0.032200985 0.22816409
-0.13144153 0.032233685 0.22826934
-0.13119496 0.032285389 0.22841835
-0.13090226 0.032347225 0.22862507
-0.13056794 0.032424737 0.22886343
-0.13029885 0.032489061 0.22904599
-0.13004872 0.032552935 0.22921716
-0.12977967 0.032615978 0.2294071
-0.12958848 0.032663379 0.2295389
-0.129362 0.032719601 0.22969627
-0.12909228 0.032793961 0.22988234
-0.12881611 0.032869563 0.23008205
-0.1284827 0.032957815 0.23032288
-0.12814865 0.033036251 0.23056406
-0.12781006 0.033114724 0.23079239
-0.12750071 0.033194229 0.23099297
-0.1272219 0.033267397 0.23117486
-0.12698878 0.033328444 0.2313294
-0.12670852 0.033383191 0.23151003
-0.12640177 0.033444993 0.23169793
-0.12603042 0.033532657 0.23193081
-0.12567897 0.033638693 0.23215844
-0.125347 0.033718646 0.2323603
-0.12505996 0.033778612 0.23253162
-0.12480409 0.033828389 0.23268835
-0.12455451 0.033885621 0.23285317
-0.12425352 0.033947654 0.23305112
-0.047491767 0.040719807 0.29284468
-0.047388557 0.040651381 0.29293162
-0.047341257 0.040290046 0.29308051
-0.04727586 0.040131874 0.29319575
-0.047222301 0.040036313 0.29330206
-0.047146089 0.039998014 0.29336789
-0.13563678 0.031143092 0.22546139
-0.13550246 0.031219402 0.22560775
-0.13529046 0.031335294 0.22582728
-0.13507493 0.031448249 0.2260247
-0.13489623 0.031499203 0.2261633
-0.13469999 0.031558469 0.22629988
-0.13447879 0.031592257 0.22643763
-0.13425416 0.031637464 0.22655894
-0.13411494 0.03168831 0.22663131
-0.13390821 0.031733569 0.22673371
-0.13375197 0.031761572 0.22682287
-0.13356791 0.031802379 0.22693323
-0.13341729 0.031835739 0.22702952
-0.13325243 0.031871744 0.22713903
-0.13308758 0.031906713 0.22724947
-0.13293509 0.031932779 0.22734934
-0.13277072 0.031970035 0.22745635
-0.13258986 0.032010652 0.22756906
-0.1323937 0.032054555 0.22768964
-0.13222869 0.032090716 0.22779162
-0.13204888 0.032127529 0.22790475
-0.13191552 0.032158867 0.22798868
-0.1317189 0.03219289 0.2281092
-0.13153601 0.032225955 0.22821565
-0.13136722 0.032254726 0.22831088
-0.13110429 0.032308701 0.2284807
-0.13079782 0.032374289 0.22869004
-0.13049766 0.032454535 0.22890426
-0.13022819 0.032516781 0.22909237
-0.12997921 0.032579266 0.22926922
-0.12974249 0.032637969 0.22943436
-0.12950557 0.032698244 0.22960061
-0.12927791 0.032750562 0.22975551
-0.12898229 0.032833721 0.22996302
-0.12873229 0.032897763 0.2301414
-0.12838584 0.032990813 0.23039503
-0.12806572 0.033067405 0.23062281
-0.12775551 0.033142872 0.23082937
-0.12745965 0.0332161 0.23102064
-0.12719649 0.033288639 0.23119289
-0.12691918 0.033361714 0.23138042
-0.12665449 0.033419956 0.23155686
-0.12634841 0.033489536 0.23175225
-0.12597787 0.033573873 0.23198418
-0.12562254 0.033674538 0.2322094
-0.12529032 0.033751033 0.23240578
-0.12497258 0.033823214 0.23259497
-0.12471488 0.033869654 0.23275501
-0.12446141 0.033921219 0.23292053
-0.12422692 0.033971805 0.23307765
-0.12389657 0.034051597 0.23329785
-0.12356474 0.034134246 0.23352829
-0.047546592 0.04161302 0.2925325
-0.047477923 0.041619506 0.29258791
-0.047382973 0.041476462 0.29270974
-0.047315028 0.041241456 0.29285601
-0.047245264 0.041173186 0.29294625
-0.047176752 0.0410964 0.2930333
-0.13572624 0.03113506 0.2253983
-0.13555288 0.031211274 0.22556761
-0.1353827 0.031308264 0.2257507
-0.13520752 0.031417374 0.22591437
-0.135002 0.031496141 0.22607525
-0.13482173 0.031544209 0.22620991
-0.13463971 0.031588946 0.22633818
-0.13440257 0.031619124 0.22648397
-0.1342109 0.03166144 0.22658886
-0.13407071 0.031709608 0.22665878
-0.13387927 0.031745065 0.2267534
-0.13370878 0.031782623 0.22684999
-0.13352579 0.031824235 0.22696203
-0.13337499 0.031855814 0.22705911
-0.13320988 0.031891201 0.22716855
-0.13304465 0.031925563 0.22727866
-0.13286602 0.031968605 0.22739695
-0.13270022 0.032003444 0.22750217
-0.13251902 0.032042954 0.22761421
-0.13233757 0.03208103 0.22772522
-0.13217117 0.032113347 0.22782731
-0.13199094 0.032149427 0.22793971
-0.1318258 0.032179188 0.22804345
-0.13165967 0.032211609 0.22814305
-0.13147667 0.032244172 0.2282493
-0.13129306 0.032275762 0.22835431
-0.13101472 0.03233302 0.22853766
-0.13071127 0.032407768 0.22874497
-0.13042566 0.032480434 0.22895057
-0.13015792 0.03254097 0.22913805
-0.12993868 0.032596845 0.22929823
-0.12970364 0.032657146 0.22946349
-0.12942155 0.032729059 0.22966053
-0.12919866 0.032784365 0.22981749
-0.1288971 0.03285994 0.2300217
-0.1286201 0.032935265 0.23022231
-0.12830152 0.033019591 0.23045474
-0.12799576 0.033093166 0.23067197
-0.12769772 0.033158045 0.23086984
-0.12741698 0.033230498 0.23105046
-0.12712362 0.03331003 0.23124382
-0.12686205 0.03338284 0.23141974
-0.12659957 0.033449803 0.23159842
-0.12626261 0.033528108 0.23182113
-0.12593791 0.033606023 0.2320253
-0.12555186 0.033710275 0.2322607
-0.12523426 0.033787742 0.23245052
-0.12495878 0.033838522 0.23261301
-0.12467239 0.033899564 0.23279238
-0.12441606 0.033957545 0.23295972
-0.12413353 0.034023825 0.23315164
-0.12387749 0.03407868 0.2333212
-0.12350166 0.03416561 0.23358199
-0.12317153 0.034241084 0.2338196
-0.12277725 0.034332372 0.23410776
-0.1223648 0.034433067 0.23441266
-0.12197584 0.034548886 0.23471518
-0.12157677 0.034680679 0.23503135
-0.12120681 0.034798034 0.23532359
-0.12086213 0.034895331 0.2355783
-0.047486883 0.04211225 0.2924816
-0.047417462 0.042144325 0.29253283
-0.047341455 0.042268012 0.29255241
-0.047187421 0.042330302 0.29267752
-0.047068916 0.042406343 0.29273689
-0.046907172 0.042593993 0.29276165
-0.13567168 0.031190818 0.22548091
-0.13548166 0.031296879 0.22567703
-0.13529965 0.031387594 0.22584346
-0.13516684 0.031453572 0.22594714
-0.1349722 0.031517841 0.22609428
-0.13479094 0.031564567 0.22622679
-0.13457651 0.03160581 0.22637585
-0.13437192 0.031641968 0.22649892
-0.1341989 0.031696562 0.22659056
-0.13400997 0.031743065 0.22668833
-0.13382132 0.031775624 0.22679023
-0.13368019 0.031796321 0.22686979
-0.13351212 0.031832799 0.22697192
-0.13334627 0.031868692 0.22707921
-0.13318101 0.031903692 0.2271886
-0.13300245 0.031947739 0.22730772
-0.13282338 0.031989928 0.22742501
-0.13264327 0.03203031 0.22753972
-0.13247585 0.032061886 0.22764172
-0.13229388 0.032099266 0.2277517
-0.13214175 0.032123473 0.22784495
-0.13196149 0.032159273 0.22795728
-0.1317808 0.032193884 0.2280685
-0.13161461 0.032225013 0.22816844
-0.13143183 0.032257307 0.22827516
-0.13121717 0.032298751 0.22840729
-0.13092697 0.032371365 0.22860308
-0.13065338 0.03243288 0.22878771
-0.13035244 0.032497309 0.22899525
-0.13010171 0.032558806 0.22917704
-0.12986405 0.032619286 0.22934461
-0.12962951 0.03268237 0.22951254
-0.12937775 0.032750193 0.22968827
-0.12908153 0.032823637 0.22989616
-0.12877005 0.032899808 0.23011597
-0.12847917 0.032982163 0.23032594
-0.12821724 0.033043109 0.23051827
-0.12792414 0.033110857 0.23072322
-0.12761328 0.033191267 0.23092739
-0.12733243 0.033263482 0.23110895
-0.12706795 0.033334639 0.23128188
-0.12677656 0.033413626 0.23147981
-0.12651345 0.033479549 0.23165934
-0.12620726 0.0335586 0.23186524
-0.12586841 0.03364253 0.23207778
-0.12552227 0.033728153 0.23228253
-0.12521842 0.033796966 0.23246469
-0.12489875 0.033865523 0.2326574
-0.12461066 0.033927791 0.23284163
-0.12432772 0.033995241 0.23302919
-0.12407111 0.03404548 0.23319875
-0.1237549 0.034120396 0.23341742
-0.12344083 0.034200922 0.23363134
-0.12308062 0.034279026 0.23389395
-0.12263983 0.034382217 0.23421457
-0.12225258 0.034497093 0.23451434
-0.12183153 0.034619179 0.23484114
-0.12143563 0.034752604 0.23515707
-0.12108808 0.034849811 0.23541528
-0.1207528 0.034940861 0.23566808
-0.12045998 0.035021458 0.23587044
-0.12022848 0.035074435 0.2360363
-0.047292158 0.042772695 0.29247344
-0.047214817 0.042870123 0.29249024
-0.047101494 0.042914148 0.29255807
-0.047029383 0.043071751 0.29252344
-0.046968393 0.043193001 0.29249892
-0.046870682 0.043162119 0.29256448
-0.13543172 0.03133459 0.22573359
-0.13527381 0.031419795 0.22586806
-0.13513812 0.031478368 0.225968
-0.13495705 0.031527821 0.22610448
-0.13475955 0.031584818 0.22624457
-0.13454472 0.031627961 0.22639142
-0.13435745 0.0316552 0.22650898
-0.13416755 0.031705517 0.22660895
-0.13399516 0.031750925 0.22669774
-0.13380671 0.031783249 0.22679995
-0.13365197 0.031812541 0.22688939
-0.13348405 0.031848587 0.22699212
-0.13331802 0.031883989 0.22709936
-0.13315244 0.031918496 0.2272085
-0.1329737 0.031961989 0.22732718
-0.13279447 0.032003678 0.22744416
-0.13261434 0.032043628 0.22755876
-0.13244693 0.032073803 0.227661
-0.13226444 0.032110702 0.22776997
-0.13209809 0.032142133 0.22787106
-0.13191721 0.032177258 0.22798227
-0.13173638 0.032211356 0.22809325
-0.13155474 0.032244328 0.22820245
-0.1313871 0.032272991 0.22829989
-0.13114087 0.03232247 0.22845882
-0.13089752 0.032380845 0.22862026
-0.13059656 0.032453656 0.22882919
-0.13032626 0.032509483 0.22901256
-0.13009049 0.03256892 0.22918573
-0.12980869 0.032644004 0.2293859
-0.12954262 0.032713234 0.22957349
-0.12924652 0.032786779 0.22978221
-0.12899253 0.03284917 0.22995697
-0.1287124 0.032920815 0.23015565
-0.12840778 0.03300295 0.23037814
-0.12813234 0.033071086 0.23057894
-0.12785342 0.033138663 0.230772
-0.12754221 0.033218622 0.23097533
-0.12727633 0.033288583 0.2311472
-0.12699656 0.033360828 0.23133154
-0.12673216 0.033425551 0.23151048
-0.12645757 0.033501916 0.2317009
-0.12616725 0.033584371 0.23189947
-0.12581259 0.033675093 0.23212081
-0.12544702 0.033751503 0.23233198
-0.12514266 0.033821419 0.23251542
-0.12482692 0.033893891 0.2327112
-0.12452513 0.033964202 0.23290721
-0.12425414 0.034026619 0.23308714
-0.12398235 0.034083992 0.2332707
-0.12368079 0.034153685 0.23347852
-0.12334649 0.034231916 0.23370181
-0.12291179 0.034326721 0.23402303
-0.12249272 0.034432448 0.23434427
-0.12207482 0.034561116 0.23466422
-0.12166484 0.034701172 0.23498955
-0.12131888 0.034804523 0.23525003
-0.12101483 0.034894135 0.2354715
-0.12070549 0.034968074 0.23570007
-0.12039705 0.035060316 0.23591584
-0.12005916 0.035146959 0.23615968
-0.11974882 0.035223506 0.23637733
-0.1193445 0.035326321 0.23666424
-0.11896691 0.035417691 0.23692513
-0.11858888 0.035519775 0.23718682
-0.11826788 0.035594508 0.23740137
-0.1146799 0.036599483 0.23985524
-0.11423935 0.036706723 0.24016805
-0.11394409 0.036791693 0.24037406
-0.047200955 0.043261282 0.2923404
-0.04709322 0.043364864 0.29235235
-0.047008846 0.043564424 0.29232022
-0.046951491 0.043578308 0.29235411
-0.046898209 0.043568768 0.29238787
-0.046818793 0.043802273 0.29233575
-0.13524464 0.031449609 0.22589228
-0.13510668 0.03149385 0.22598936
-0.13490829 0.03155499 0.22613072
-0.13474189 0.031596739 0.22624958
-0.13455831 0.031638563 0.22637407
-0.13433903 0.031690333 0.22650374
-0.13413541 0.03172636 0.22661982
-0.13398023 0.031760097 0.22670679
-0.13380671 0.031783242 0.22679995
-0.13363747 0.031819958 0.2268994
-0.13346964 0.031855814 0.22700249
-0.13330354 0.031890988 0.22710966
-0.13312446 0.031935662 0.22722875
-0.13294539 0.031978503 0.22734673
-0.13276596 0.03201963 0.22746335
-0.1326002 0.032052938 0.2275676
-0.13241883 0.032090914 0.22767912
-0.13225047 0.032118548 0.22777925
-0.13206826 0.032154094 0.2278883
-0.1318869 0.032188755 0.2279986
-0.13172001 0.032224935 0.22809829
-0.131539 0.032257721 0.22820868
-0.13135742 0.032291956 0.22832191
-0.13108212 0.03235421 0.22850183
-0.1308237 0.032412667 0.22867708
-0.13055371 0.03247226 0.22886001
-0.13025522 0.032539576 0.22907124
-0.13002867 0.032588661 0.22922571
-0.12978137 0.032662325 0.22940759
-0.12946877 0.032743003 0.22962423
-0.12915802 0.032824084 0.22984006
-0.1288766 0.032889597 0.23004019
-0.12859786 0.03296366 0.23023862
-0.12832221 0.033032972 0.23044039
-0.12803315 0.033104733 0.23065028
-0.12775262 0.033175889 0.23083957
-0.12748468 0.033239447 0.23101392
-0.12719023 0.033318192 0.231207
-0.12692589 0.03338759 0.23138225
-0.12666278 0.033454891 0.23156103
-0.1263884 0.033533849 0.23175117
-0.12609567 0.033611722 0.23194923
-0.12574005 0.033703156 0.23216873
-0.12542151 0.033772659 0.23235765
-0.12510096 0.033840071 0.23254673
-0.12477007 0.033919923 0.2327566
-0.12448145 0.033983279 0.23294172
-0.1241968 0.034055561 0.23313403
-0.12391094 0.034122743 0.23332568
-0.12361919 0.034174461 0.23351996
-0.12325511 0.034268368 0.2337722
-0.12279291 0.034371622 0.23411764
-0.12239119 0.034481458 0.23442389
-0.12187845 0.034660026 0.23482969
-0.12150295 0.034765661 0.23511572
-0.12119973 0.034850426 0.23534305
-0.12096822 0.034921199 0.23550428
-0.12063038 0.035013095 0.2357524
-0.12031993 0.035098452 0.23597126
-0.11997858 0.035188507 0.23620862
-0.11962614 0.035264816 0.2364682
-0.11923484 0.035366032 0.23673999
-0.11890538 0.035448063 0.23697121
-0.11849459 0.035561312 0.23725305
-0.11817125 0.035634812 0.2374628
-0.11781485 0.035723411 0.23769133
-0.11745924 0.03581633 0.23791847
-0.11712436 0.035911784 0.23814084
-0.1167395 0.036005743 0.23840211
-0.11637618 0.036115278 0.23866163
-0.11594699 0.036253743 0.23896717
-0.11546457 0.036404371 0.23930541
-0.11502489 0.036526453 0.23961306
-0.1146303 0.036626611 0.23988625
-0.1142384 0.036722902 0.24016494
-0.11387967 0.036821086 0.24041963
-0.11359785 0.036895242 0.24062091
-0.11319686 0.036996726 0.24090034
-0.11266934 0.037133664 0.24124852
-0.11210845 0.0372914 0.24163362
-0.11172724 0.037380576 0.24192053
-0.047189604 0.043908574 0.29203784
-0.047059834 0.043902289 0.29212746
-0.046975382 0.044078682 0.29210639
-0.046890687 0.044197958 0.29211417
-0.046817511 0.044176593 0.2921758
-0.046736129 0.044148061 0.29223964
-0.13455273 0.031656194 0.22636431
-0.1343368 0.031701475 0.22649717
-0.13415179 0.031737011 0.22660856
-0.13396487 0.031770479 0.22671479
-0.13379236 0.031792242 0.2268099
-0.13362323 0.031828701 0.22690962
-0.13345547 0.031864326 0.22701299
-0.13328929 0.031899251 0.22712022
-0.1331102 0.031943638 0.22723922
-0.13293096 0.031986173 0.22735685
-0.13275152 0.032027047 0.22747338
-0.13258584 0.032059085 0.22757782
-0.13240422 0.032096803 0.2276888
-0.13223669 0.032135922 0.22778873
-0.13205357 0.032170787 0.22789617
-0.13191675 0.032196902 0.22797768
-0.13174985 0.03222223 0.22807895
-0.13153845 0.032265801 0.22821197
-0.13131064 0.032314509 0.22835574
-0.13105337 0.032373074 0.22852457
-0.13078097 0.032432403 0.22870854
-0.13050887 0.032482952 0.22889192
-0.13022819 0.03255558 0.22909559
-0.12997423 0.032617316 0.22926892
-0.12972233 0.032689851 0.22944535
-0.12942539 0.032763358 0.22965257
-0.12912829 0.032836452 0.22985898
-0.12881745 0.032913558 0.23007843
-0.12851132 0.032995358 0.23029932
-0.12823604 0.033063617 0.23050158
-0.12797496 0.033127557 0.23068877
-0.12769413 0.033196911 0.23087756
-0.12741315 0.033268519 0.2310614
-0.12713245 0.033340402 0.23124485
-0.12684003 0.033418782 0.23144215
-0.12656511 0.033495698 0.23163193
-0.12628913 0.033570226 0.23182209
-0.12602624 0.033644952 0.23199739
-0.1256815 0.033725675 0.23220713
-0.12536424 0.033794411 0.23239829
-0.12504371 0.033862107 0.23258859
-0.12475486 0.033924147 0.23276801
-0.1244408 0.034006368 0.2329783
-0.12415097 0.034072608 0.23316748
-0.12387998 0.034138273 0.2333498
-0.12353053 0.034213979 0.23358692
-0.12316851 0.034304764 0.23384157
-0.12273254 0.03440753 0.23415996
-0.12227403 0.034536026 0.23451556
-0.12183456 0.034682374 0.23486482
-0.1214586 0.03479033 0.23514891
-0.12113566 0.034876887 0.23538744
-0.12085753 0.03495355 0.23558727
-0.1205363 0.035049498 0.23581743
-0.12024255 0.035134766 0.23601983
-0.11993209 0.03521131 0.23623729
-0.11951522 0.035307504 0.23654407
-0.11917233 0.035395727 0.23678447
-0.11882818 0.03548608 0.23702608
-0.11838713 0.035611112 0.23733032
-0.11806135 0.035685677 0.23753619
-0.11768883 0.035782494 0.23777074
-0.11736778 0.035861723 0.23797792
-0.1169951 0.035960518 0.23821914
-0.11659611 0.036062431 0.23849589
-0.1162679 0.036171343 0.23873736
-0.11583887 0.036308903 0.23904452
-0.11541608 0.036422804 0.23933841
-0.11494453 0.036565315 0.23966461
-0.11459821 0.036643237 0.2399082
-0.11423788 0.036742099 0.24016194
-0.11387926 0.036837757 0.24041724
-0.11351608 0.036924716 0.24067949
-0.11313266 0.037025314 0.24094702
-0.11261779 0.037155002 0.24128553
-0.11219934 0.037274469 0.24158479
-0.11174165 0.037396066 0.24191442
-0.11157465 0.037437048 0.2420432
-0.11143929 0.037474178 0.24214181
-0.11126776 0.037500434 0.24226463
-0.11095896 0.037569702 0.24248461
-0.11074626 0.037608739 0.24262962
-0.11049853 0.037659533 0.24279574
-0.11012108 0.03769562 0.24300705
-0.10979072 0.037761353 0.24321069
-0.1093803 0.037857812 0.24346611
-0.10898828 0.037968516 0.2437173
-0.047245178 0.044506498 0.29172796
-0.047159292 0.044573501 0.29175144
-0.047068451 0.044570304 0.29181513
-0.046961337 0.044572275 0.29188943
-0.046846706 0.044580191 0.29196993
-0.046722174 0.044569522 0.29206446
-0.046638109 0.044489402 0.2921586
-0.13311005 0.031955745 0.22723889
-0.13293035 0.031997822 0.22735578
-0.13275097 0.032038372 0.22747236
-0.13257155 0.032077465 0.22758798
-0.13242005 0.032108657 0.22768128
-0.13223708 0.032144509 0.22778943
-0.13209888 0.032167811 0.22786871
-0.13200819 0.032193065 0.22792202
-0.13178115 0.032234725 0.22807162
-0.13152201 0.03228724 0.22824021
-0.13123491 0.032346629 0.22842216
-0.13099337 0.032402091 0.22857167
-0.13073757 0.032455791 0.22874378
-0.13045225 0.032511078 0.22894104
-0.13019659 0.032573357 0.22911471
-0.12995991 0.032633048 0.22928256
-0.12966254 0.03271345 0.22948627
-0.1293653 0.032786902 0.22969225
-0.12906836 0.032860052 0.22989833
-0.12875973 0.032941833 0.23011623
-0.12848255 0.033009466 0.23031813
-0.12817749 0.033086676 0.23054017
-0.12788658 0.033159301 0.23074622
-0.12762146 0.03322608 0.23092425
-0.12734161 0.033296291 0.23110923
-0.12706202 0.033368472 0.23129432
-0.12675777 0.033454061 0.23150249
-0.12648268 0.033530328 0.23169209
-0.126204 0.033606201 0.23188137
-0.12592682 0.033684511 0.23206635
-0.12562616 0.033747844 0.23224744
-0.12529205 0.033819623 0.23244427
-0.12497126 0.033885244 0.23263671
-0.124668 0.033953678 0.23282751
-0.12438315 0.034033138 0.23302452
-0.12407991 0.034103137 0.23322296
-0.12377839 0.034177072 0.23342392
-0.12345497 0.034249034 0.23363478
-0.1230635 0.034341462 0.23391502
-0.12264418 0.034448203 0.23422799
-0.12221552 0.034573544 0.23456168
-0.12181663 0.034695745 0.23487419
-0.12142687 0.034812614 0.2351702
-0.12110407 0.034894213 0.23540924
-0.12076651 0.034996305 0.2356489
-0.12048717 0.035068545 0.23584698
-0.12014605 0.035166442 0.23608427
-0.11983926 0.035249185 0.23629975
-0.11943818 0.035339333 0.23659739
-0.11909708 0.035429038 0.23683921
-0.11872005 0.035526678 0.23710556
-0.11834089 0.035631858 0.23736276
-0.11793838 0.03573573 0.23762184
-0.11756759 0.035832722 0.23785768
-0.11717992 0.035927586 0.23810805
-0.11676292 0.036039803 0.23838873
-0.11641203 0.036137834 0.23863395
-0.11605012 0.036260337 0.23889452
-0.11566226 0.036369678 0.23916587
-0.11527085 0.036476463 0.23943667
-0.11487869 0.036585432 0.2397095
-0.11455059 0.036672913 0.23993877
-0.11420607 0.036761034 0.24018337
-0.113864 0.036855042 0.24042946
-0.11348514 0.036943495 0.24070282
-0.11305122 0.037055839 0.24100783
-0.11262801 0.037175372 0.24129491
-0.11222019 0.037286028 0.241578
-0.11186639 0.037377305 0.241836
-0.11161095 0.0374378 0.24202061
-0.11139286 0.037501018 0.2421802
-0.11113397 0.037546847 0.24236242
-0.11085537 0.037604712 0.24255604
-0.11062904 0.037656654 0.24271174
-0.11040239 0.037701111 0.24286726
-0.10999094 0.037773989 0.24311994
-0.10966332 0.03783451 0.24331631
-0.10929746 0.037940655 0.24355523
-0.10888869 0.038057331 0.24381588
-0.1084844 0.038162544 0.24406061
-0.10808744 0.038262948 0.24429195
-0.1076763 0.038375571 0.24453814
-0.10719685 0.03850073 0.24483053
-0.10673622 0.038619947 0.24512169
-0.047255155 0.045202855 0.29140413
-0.047150146 0.045214768 0.29147017
-0.047032118 0.045199074 0.29156312
-0.04694207 0.045182824 0.29163519
-0.046819858 0.045152519 0.29173639
-0.046693508 0.045046069 0.2918812
-0.046559907 0.045058485 0.29196617
-0.19059671 0.049363207 0.30915776
