# .PCD v0.7 - Point Cloud Data file format
VERSION 0.7
FIELDS x y z
SIZE 4 4 4
TYPE F F F
COUNT 1 1 1
WIDTH 1400
HEIGHT 1
VIEWPOINT 0 0 0 1 0 0 0
POINTS 1400
DATA ascii
0.17008725 -0.12347747 0.26925531
0.17083886 -0.12362383 0.26957446
0.17138888 -0.12362383 0.26957446
0.17173533 -0.12347747 0.26925531
0.17201243 -0.12328233 0.26882979
0.17242436 -0.12318476 0.26861703
0.17297243 -0.12318476 0.26861703
0.17365792 -0.12328233 0.26882979
-0.15699328 -0.12181102 0.26680851
-0.15644892 -0.12181102 0.26680851
-0.15590455 -0.12181102 0.26680851
-0.15548405 -0.12190816 0.26702127
-0.15500098 -0.12195673 0.26712766
-0.15451747 -0.12200531 0.26723406
-0.15403353 -0.12205386 0.26734042
-0.15367129 -0.12219957 0.26765957
-0.15349036 -0.12249099 0.26829788
-0.15324616 -0.12273383 0.26882979
-0.15281852 -0.12283097 0.26904255
-0.15220937 -0.12278239 0.26893616
-0.15154067 -0.12268526 0.2687234
-0.15093262 -0.1226367 0.26861703
-0.15038456 -0.1226367 0.26861703
-0.14983651 -0.1226367 0.26861703
-0.14928845 -0.1226367 0.26861703
-0.14891708 -0.12278239 0.26893616
-0.14866184 -0.12302525 0.2694681
-0.14834592 -0.12321952 0.26989362
-0.14785351 -0.1232681 0.27000001
-0.14707047 -0.12307382 0.26957446
-0.14628917 -0.12287954 0.26914895
-0.1455096 -0.12268526 0.2687234
-0.14484654 -0.12258813 0.26851064
-0.14435588 -0.1226367 0.26861703
-0.14392172 -0.12273383 0.26882979
-0.14331648 -0.12268526 0.2687234
-0.14265516 -0.12258813 0.26851064
-0.14227623 -0.12273383 0.26882979
-0.14223249 -0.12317095 0.26978722
0.15492986 -0.12763929 0.27957445
0.15532279 -0.12749361 0.27925533
0.15571439 -0.12734789 0.27893618
0.15610468 -0.12720218 0.27861702
0.15643385 -0.1270079 0.27819148
0.1567613 -0.12681364 0.27776596
0.15714727 -0.12666792 0.27744681
0.15765287 -0.12661934 0.27734041
0.16178104 -0.12414233 0.2719149
0.16233584 -0.12414233 0.2719149
0.16269945 -0.12399662 0.27159575
0.16306174 -0.12385092 0.27127659
0.16342273 -0.12370521 0.27095744
0.16397558 -0.12370521 0.27095744
0.1647222 -0.12385092 0.27127659
0.16547014 -0.12399662 0.27159575
0.16608933 -0.1240452 0.27170214
0.16683941 -0.1241909 0.27202126
0.16752535 -0.12428804 0.27223405
0.16827784 -0.12443376 0.27255321
0.16870213 -0.12433661 0.27234042
0.16899334 -0.12414233 0.2719149
0.16901746 -0.12375379 0.27106383
0.16897155 -0.12331665 0.27010638
0.16912206 -0.12302525 0.2694681
0.16967186 -0.12302525 0.2694681
0.17049046 -0.12321952 0.26989362
0.17137821 -0.12346236 0.27042553
0.17206523 -0.1235595 0.27063829
0.17241389 -0.1234138 0.27031916
0.17269312 -0.12321952 0.26989362
0.17297065 -0.12302525 0.2694681
0.17338343 -0.12292811 0.26925531
0.17393279 -0.12292811 0.26925531
-0.15590455 -0.12126665 0.26680851
-0.15542212 -0.121315 0.2669149
-0.15493925 -0.12136335 0.26702127
-0.15445596 -0.1214117 0.26712766
-0.15397224 -0.12146007 0.26723406
-0.15367129 -0.12165347 0.26765957
-0.15349036 -0.12194358 0.26829788
-0.1533068 -0.12223368 0.26893616
-0.15293936 -0.12237874 0.26925531
-0.1523298 -0.1223304 0.26914895
-0.15178065 -0.1223304 0.26914895
-0.1512315 -0.1223304 0.26914895
-0.15062279 -0.12228204 0.26904255
-0.14995518 -0.12218533 0.26882979
-0.14934756 -0.12213698 0.2687234
-0.14891708 -0.12223368 0.26893616
-0.14872052 -0.1225238 0.26957446
-0.1484044 -0.12271721 0.27000001
-0.14797002 -0.12281391 0.27021277
-0.14736065 -0.12276556 0.27010638
-0.14663608 -0.1226205 0.26978722
-0.14602804 -0.12257215 0.26968086
-0.14559259 -0.12266885 0.26989362
-0.14515625 -0.12276556 0.27010638
-0.14460516 -0.12276556 0.27010638
-0.14388384 -0.1226205 0.26978722
-0.14333339 -0.1226205 0.26978722
-0.14312075 -0.12291061 0.27042553
-0.14318594 -0.12344249 0.27159575
-0.14324637 -0.12397436 0.27276596
0.15482934 -0.1274557 0.28042552
0.15528359 -0.12735899 0.28021276
0.15561864 -0.12716559 0.27978724
0.15583315 -0.12687548 0.27914894
0.15610468 -0.12663372 0.27861702
0.15619458 -0.1262469 0.27776596
0.15640107 -0.12595679 0.27712765
0.15678573 -0.12581173 0.2768085
0.15722956 -0.12571503 0.27659574
0.16190763 -0.12368424 0.27212766
0.16246286 -0.12368424 0.27212766
0.16295435 -0.12363589 0.27202126
0.16338147 -0.12353919 0.27180851
0.16374356 -0.12339413 0.27148935
0.16429748 -0.12339413 0.27148935
0.16498061 -0.12349084 0.27170214
0.16572939 -0.12363589 0.27202126
0.1664795 -0.12378094 0.27234042
0.1672309 -0.12392601 0.27265957
0.16798361 -0.12407106 0.27297872
0.16867194 -0.12416776 0.27319148
0.16909753 -0.12407106 0.27297872
0.16919169 -0.1237326 0.27223405
0.16915011 -0.12329743 0.27127659
0.16910467 -0.12286227 0.27031916
0.16925558 -0.12257215 0.26968086
0.16980582 -0.12257215 0.26968086
0.17075928 -0.12286227 0.27031916
0.1717153 -0.12315237 0.27095744
0.1725387 -0.12334578 0.27138299
0.17309241 -0.12334578 0.27138299
0.17337382 -0.12315237 0.27095744
0.17358522 -0.12291061 0.27042553
0.17379446 -0.12266885 0.26989362
-0.15542212 -0.12077042 0.2669149
-0.15493925 -0.12081854 0.26702127
-0.15439445 -0.12081854 0.26702127
-0.15403353 -0.12096295 0.26734042
-0.15373239 -0.12115549 0.26776597
-0.15355121 -0.12144429 0.26840425
-0.15336744 -0.12173311 0.26904255
-0.1529998 -0.12187751 0.2693617
-0.15257064 -0.12197378 0.26957446
-0.15208061 -0.12202192 0.26968086
-0.15159014 -0.12207004 0.26978722
-0.15098014 -0.12202192 0.26968086
-0.15019254 -0.12182938 0.26925531
-0.1494658 -0.12168497 0.26893616
-0.14891708 -0.12168497 0.26893616
-0.14854445 -0.12182938 0.26925531
-0.14828745 -0.12207004 0.26978722
-0.14785351 -0.12216633 0.27000001
-0.14730263 -0.12216633 0.27000001
-0.14675175 -0.12216633 0.27000001
-0.14637367 -0.12231074 0.27031916
-0.14616646 -0.12259953 0.27095744
-0.14584231 -0.12279208 0.27138299
-0.14534555 -0.1228402 0.27148935
-0.14467816 -0.12274394 0.27127659
-0.14418119 -0.12279208 0.27138299
-0.14390899 -0.12303276 0.2719149
-0.14391506 -0.1235141 0.27297872
-0.14380504 -0.12389918 0.27382979
0.15500554 -0.12702794 0.28074467
0.15546045 -0.12693167 0.28053191
0.15610088 -0.12515068 0.27659574
0.15636395 -0.12491001 0.27606383
0.15674578 -0.1247656 0.27574468
0.1622874 -0.12341783 0.27276596
0.16278042 -0.12336969 0.27265957
0.16333672 -0.12336969 0.27265957
0.16376515 -0.12327342 0.27244681
0.16406436 -0.12308088 0.27202126
0.164555 -0.12303276 0.2719149
0.16517438 -0.12308088 0.27202126
0.16592383 -0.12322529 0.27234042
0.16660957 -0.12332156 0.27255321
0.16729616 -0.12341783 0.27276596
0.16798361 -0.1235141 0.27297872
0.16854057 -0.1235141 0.27297872
0.16896574 -0.12341783 0.27276596
0.16912556 -0.12312902 0.27212766
0.16921645 -0.12279208 0.27138299
0.1693043 -0.12245513 0.27063829
0.16958943 -0.1222626 0.27021277
0.17007375 -0.12221445 0.27010638
0.17089367 -0.122407 0.27053192
0.17185014 -0.1226958 0.2711702
0.17267397 -0.12288835 0.27159575
0.1733638 -0.12298461 0.27180851
0.17378224 -0.12288835 0.27159575
0.17399496 -0.12264767 0.27106383
-0.15487753 -0.12022582 0.2669149
-0.15439445 -0.12027373 0.26702127
-0.15403353 -0.12041749 0.26734042
-0.15379345 -0.12065708 0.26787233
-0.15355121 -0.12089667 0.26840425
-0.15336744 -0.12118418 0.26904255
-0.1529998 -0.12132793 0.2693617
-0.15263085 -0.12147169 0.26968086
-0.15226059 -0.12161544 0.27000001
-0.15182926 -0.12171128 0.27021277
-0.15121837 -0.12166335 0.27010638
-0.15037057 -0.12142377 0.26957446
-0.14952493 -0.12118418 0.26904255
-0.14885819 -0.12108834 0.26882979
-0.14836837 -0.12113626 0.26893616
-0.14799508 -0.12128001 0.26925531
-0.14756224 -0.12137585 0.2694681
-0.14712851 -0.12147169 0.26968086
-0.14675175 -0.12161544 0.27000001
-0.14654648 -0.12190294 0.27063829
-0.1464534 -0.12228628 0.27148935
-0.14618532 -0.12252587 0.27202126
-0.14574423 -0.12262172 0.27223405
-0.14524552 -0.12266963 0.27234042
-0.14474638 -0.12271755 0.27244681
-0.14435941 -0.1228613 0.27276596
-0.14408332 -0.12310089 0.27329788
-0.14374916 -0.12329256 0.27372339
-0.14330199 -0.1233884 0.27393618
0.15606266 -0.12410717 0.27553192
0.15644342 -0.12396341 0.27521276
0.15676218 -0.12377175 0.27478725
0.16266716 -0.1231488 0.27340424
0.163225 -0.1231488 0.27340424
0.1637191 -0.12310089 0.27329788
0.16408488 -0.12295714 0.27297872
0.16432102 -0.12271755 0.27244681
0.16474815 -0.12262172 0.27223405
0.16530359 -0.12262172 0.27223405
0.16598865 -0.12271755 0.27244681
0.16660957 -0.12276547 0.27255321
0.16716567 -0.12276547 0.27255321
0.16772175 -0.12276547 0.27255321
0.16821216 -0.12271755 0.27244681
0.16870213 -0.12266963 0.27234042
0.16905944 -0.12252587 0.27202126
0.16948178 -0.12243004 0.27180851
0.1698367 -0.12228628 0.27148935
0.17019032 -0.12214253 0.2711702
0.17047566 -0.12195086 0.27074468
0.17096086 -0.12190294 0.27063829
0.17164791 -0.12199879 0.27085108
0.17247105 -0.12219045 0.27127659
0.1732281 -0.1223342 0.27159575
0.17391838 -0.12243004 0.27180851
-0.15439445 -0.11972893 0.26702127
-0.15403353 -0.11987203 0.26734042
-0.15367129 -0.12001514 0.26765957
-0.15342949 -0.12025364 0.26819149
-0.15306424 -0.12039674 0.26851064
-0.15269767 -0.12053984 0.26882979
-0.1523298 -0.12068295 0.26914895
-0.15196063 -0.12082606 0.2694681
-0.15159014 -0.12096915 0.26978722
-0.15109926 -0.12101685 0.26989362
-0.1504299 -0.12092146 0.26968086
-0.14958405 -0.12068295 0.26914895
-0.14879927 -0.12049214 0.2687234
-0.148251 -0.12049214 0.2687234
-0.14781965 -0.12058754 0.26893616
-0.14744571 -0.12073065 0.26925531
-0.14707047 -0.12087375 0.26957446
-0.14680956 -0.12111225 0.27010638
-0.14671929 -0.12149386 0.27095744
-0.14668295 -0.12192317 0.2719149
-0.14647119 -0.12220938 0.27255321
-0.14608595 -0.12235247 0.27287233
-0.14558594 -0.12240017 0.27297872
-0.1450855 -0.12244788 0.27308512
-0.14452833 -0.12244788 0.27308512
-0.14397115 -0.12244788 0.27308512
-0.14341398 -0.12244788 0.27308512
-0.14274548 -0.12235247 0.27287233
0.1558819 -0.12340189 0.27521276
0.15632248 -0.12330649 0.27500001
0.15658011 -0.12306799 0.27446809
0.15677467 -0.12278178 0.27382979
0.15696661 -0.12249558 0.27319148
0.16267703 -0.12302028 0.2743617
0.16311023 -0.12292489 0.27414894
0.16373308 -0.12297258 0.27425531
0.1641652 -0.12287718 0.27404255
0.16446856 -0.12268639 0.27361703
0.16470601 -0.12244788 0.27308512
0.16507004 -0.12230477 0.27276596
0.16549738 -0.12220938 0.27255321
0.16703515 -0.12211397 0.27234042
0.16752535 -0.12206627 0.27223405
0.16808081 -0.12206627 0.27223405
0.16863625 -0.12206627 0.27223405
0.16932391 -0.12216167 0.27244681
0.1700788 -0.12230477 0.27276596
0.17076841 -0.12240017 0.27297872
0.17105831 -0.12220938 0.27255321
0.17107853 -0.12182777 0.27170214
0.17102806 -0.12139846 0.27074468
0.17137821 -0.12125535 0.27042553
0.17213288 -0.12139846 0.27074468
0.17309241 -0.12168467 0.27138299
-0.15391093 -0.11923161 0.26712766
-0.15354915 -0.11937407 0.26744682
-0.1531252 -0.11946902 0.26765957
-0.15276101 -0.11961148 0.26797873
-0.15227467 -0.11965895 0.26808509
-0.15178791 -0.11970644 0.26819149
-0.1514207 -0.1198489 0.26851064
-0.15117173 -0.12008631 0.26904255
-0.15080146 -0.12022877 0.2693617
-0.15025188 -0.12022877 0.2693617
-0.14952493 -0.12008631 0.26904255
-0.14885819 -0.11999135 0.26882979
-0.14830969 -0.11999135 0.26882979
-0.14787814 -0.12008631 0.26904255
-0.14750397 -0.12022877 0.2693617
-0.14724459 -0.12046619 0.26989362
-0.14704086 -0.12075109 0.27053192
-0.14700732 -0.12117843 0.27148935
-0.1469125 -0.12155831 0.27234042
-0.14664268 -0.12179572 0.27287233
-0.14631377 -0.12198567 0.27329788
-0.14581288 -0.12203314 0.27340424
-0.14525504 -0.12203314 0.27340424
-0.14452833 -0.1218907 0.27308512
-0.14385897 -0.12179572 0.27287233
-0.14319049 -0.12170076 0.27265957
-0.14246722 -0.12155831 0.27234042
-0.14191157 -0.12155831 0.27234042
0.1560024 -0.12293533 0.27542552
0.15638293 -0.12279288 0.27510637
0.15658011 -0.12250799 0.27446809
0.15677467 -0.12222309 0.27382979
0.15708886 -0.12203314 0.27340424
0.16274585 -0.12293533 0.27542552
0.16324474 -0.12288786 0.27531916
0.16374317 -0.12284037 0.27521276
0.16430469 -0.12284037 0.27521276
0.16467503 -0.12269792 0.27489361
0.16498011 -0.12250799 0.27446809
0.16521931 -0.12227057 0.27393618
0.16564944 -0.1221756 0.27372339
0.16772175 -0.12165328 0.27255321
0.16834351 -0.12170076 0.27265957
0.16903162 -0.12179572 0.27287233
0.16991895 -0.12203314 0.27340424
0.17094113 -0.12236553 0.27414894
0.17176667 -0.12255546 0.27457446
0.17199305 -0.12231804 0.27404255
0.17154741 -0.1216058 0.27244681
0.17096086 -0.12079857 0.27063829
0.1709737 -0.1204187 0.26978722
0.17165944 -0.12051367 0.27000001
-0.15294261 -0.11878112 0.26734042
-0.1524578 -0.11882839 0.26744682
-0.15185168 -0.11878112 0.26734042
-0.15130623 -0.11878112 0.26734042
-0.15094075 -0.11892292 0.26765957
-0.15063374 -0.11911198 0.26808509
-0.150325 -0.11930105 0.26851064
-0.14989583 -0.11939558 0.2687234
-0.14934756 -0.11939558 0.2687234
-0.14874038 -0.11934832 0.26861703
-0.14830969 -0.11944285 0.26882979
-0.14793661 -0.11958466 0.26914895
-0.14762048 -0.11977372 0.26957446
-0.14736065 -0.12001005 0.27010638
-0.14727214 -0.12038818 0.27095744
-0.14723775 -0.12081359 0.2719149
-0.14708467 -0.12114445 0.27265957
-0.14687137 -0.12142805 0.27329788
-0.14648463 -0.12156986 0.27361703
-0.14592637 -0.12156986 0.27361703
-0.14531158 -0.12152258 0.27351063
-0.14458463 -0.12138078 0.27319148
-0.14385897 -0.12123898 0.27287233
-0.14319049 -0.12114445 0.27265957
-0.14257853 -0.12109719 0.27255321
-0.14202245 -0.12109719 0.27255321
-0.14141113 -0.12104992 0.27244681
0.15618317 -0.12251518 0.27574468
0.15656435 -0.12237338 0.27542552
0.15682286 -0.12213705 0.27489361
0.15701829 -0.12185345 0.27425531
0.15745561 -0.12175892 0.27404255
0.16281033 -0.12284604 0.27648935
0.16312303 -0.12265699 0.27606383
0.16374937 -0.12270425 0.27617022
0.16443942 -0.12279879 0.27638298
0.16500333 -0.12279879 0.27638298
0.16531231 -0.12260971 0.27595744
0.16549169 -0.12232612 0.27531916
0.16579677 -0.12213705 0.27489361
0.16648638 -0.12223158 0.27510637
0.16824546 -0.12147531 0.27340424
0.16873762 -0.12142805 0.27329788
0.16942702 -0.12152258 0.27351063
0.17044789 -0.12185345 0.27425531
0.17160445 -0.12227885 0.27521276
0.17249873 -0.12251518 0.27574468
0.17252719 -0.12213705 0.27489361
0.17188235 -0.12128625 0.27297872
0.17102806 -0.12029365 0.27074468
0.17090629 -0.11982099 0.26968086
-0.15112559 -0.11809451 0.26702127
-0.15064079 -0.11814156 0.26712766
-0.15033486 -0.11832976 0.26755318
-0.14996764 -0.11847091 0.26787233
-0.14953978 -0.118565 0.26808509
-0.14899281 -0.118565 0.26808509
-0.14850473 -0.11861206 0.26819149
-0.14813362 -0.11875321 0.26851064
-0.14781965 -0.1189414 0.26893616
-0.14756224 -0.11917666 0.2694681
-0.14747675 -0.11955306 0.27031916
-0.14738777 -0.11992944 0.2711702
-0.14729534 -0.12030584 0.27202126
-0.14714205 -0.1206352 0.27276596
-0.14687137 -0.12087044 0.27329788
-0.14642768 -0.12096453 0.27351063
-0.14592637 -0.12101159 0.27361703
-0.14525504 -0.12091748 0.27340424
-0.14458463 -0.12082338 0.27319148
-0.14391506 -0.12072929 0.27297872
-0.14341398 -0.12077634 0.27308512
-0.14285679 -0.12077634 0.27308512
-0.14224418 -0.12072929 0.27297872
-0.14157678 -0.1206352 0.27276596
-0.14091025 -0.1205411 0.27255321
0.15642421 -0.12214078 0.27617022
0.15686671 -0.12204667 0.27595744
0.15712631 -0.12181143 0.27542552
0.15744464 -0.12162323 0.27500001
0.15788348 -0.12152914 0.27478725
0.16317511 -0.12341111 0.27904254
0.16330746 -0.12308177 0.27829787
0.16331148 -0.12265832 0.27734041
0.16356304 -0.12242307 0.2768085
0.16412781 -0.12242307 0.2768085
0.16488248 -0.12256422 0.27712765
0.16544791 -0.12256422 0.27712765
0.16575842 -0.12237603 0.27670214
0.16600326 -0.12214078 0.27617022
0.16643839 -0.12204667 0.27595744
0.16719458 -0.12218782 0.27627659
0.16801666 -0.12237603 0.27670214
0.16827486 -0.12134093 0.2743617
0.16850732 -0.12110569 0.27382979
0.16893467 -0.12101159 0.27361703
0.16969064 -0.12115274 0.27393618
0.17071235 -0.12148208 0.27468085
0.1718698 -0.12190554 0.27563831
0.17276494 -0.12214078 0.27617022
0.17279427 -0.12176438 0.27531916
0.17201631 -0.12082338 0.27319148
0.17122968 -0.1198824 0.27106383
-0.15052082 -0.11750288 0.2669149
-0.15015554 -0.11764338 0.26723406
-0.14978898 -0.11778386 0.26755318
-0.14930242 -0.1178307 0.26765957
-0.14875631 -0.1178307 0.26765957
-0.14821021 -0.1178307 0.26765957
-0.14778148 -0.11792436 0.26787233
-0.14752729 -0.11815853 0.26840425
-0.14738747 -0.11848636 0.26914895
-0.14736065 -0.11890785 0.27010638
-0.14732996 -0.11932934 0.27106383
-0.14718014 -0.11965717 0.27180851
-0.14696988 -0.11993816 0.27244681
-0.14664268 -0.12012549 0.27287233
-0.1462568 -0.12026599 0.27319148
-0.14575616 -0.12031282 0.27329788
-0.14514202 -0.12026599 0.27319148
-0.14452833 -0.12021916 0.27308512
-0.14397115 -0.12021916 0.27308512
-0.1435257 -0.12031282 0.27329788
-0.14307939 -0.12040649 0.27351063
-0.1424659 -0.12035965 0.27340424
-0.14174244 -0.12021916 0.27308512
-0.14102025 -0.12007867 0.27276596
-0.14046372 -0.12007867 0.27276596
-0.14001632 -0.12017233 0.27297872
0.15666522 -0.12176463 0.27659574
0.15710862 -0.12167097 0.27638298
0.15749046 -0.12153047 0.27606383
0.15793189 -0.12143681 0.27585107
0.15861697 -0.12153047 0.27606383
0.15954828 -0.12181147 0.27670214
0.16197467 -0.12279496 0.27893618
0.16266777 -0.12288862 0.27914894
0.16336174 -0.12298228 0.2793617
0.16374443 -0.12284178 0.27904254
0.16387528 -0.12251396 0.27829787
0.16400307 -0.12218613 0.2775532
0.16444319 -0.12209246 0.27734041
0.16500907 -0.12209246 0.27734041
0.16557492 -0.12209246 0.27734041
0.16594961 -0.12195197 0.27702129
0.16632298 -0.12181147 0.27670214
0.16695169 -0.12185829 0.2768085
0.16777399 -0.12204563 0.27723405
0.16853343 -0.12218613 0.2775532
0.16903491 -0.12213929 0.27744681
0.16888565 -0.12162413 0.27627659
0.16866636 -0.12106215 0.27500001
0.16876918 -0.12073431 0.27425531
0.16906603 -0.12054699 0.27382979
0.16975652 -0.12064065 0.27404255
0.17077848 -0.12096848 0.27478725
0.17180346 -0.12129631 0.27553192
0.17269838 -0.12153047 0.27606383
0.1729278 -0.12129631 0.27553192
0.17235123 -0.12050015 0.27372339
-0.15015554 -0.11709814 0.26723406
-0.14972942 -0.11719136 0.26744682
-0.14924307 -0.11723797 0.26755318
-0.14863807 -0.11719136 0.26744682
-0.14803348 -0.11714474 0.26734042
-0.1476054 -0.11723797 0.26755318
-0.14735188 -0.11747105 0.26808509
-0.14727095 -0.11784397 0.26893616
-0.14724459 -0.11826351 0.26989362
-0.14715649 -0.11863644 0.27074468
-0.14700732 -0.11896274 0.27148935
-0.14668295 -0.11914922 0.2719149
-0.14635684 -0.11933567 0.27234042
-0.146029 -0.11952214 0.27276596
-0.14558594 -0.11961537 0.27297872
-0.14502898 -0.11961537 0.27297872
-0.14447202 -0.11961537 0.27297872
-0.14397115 -0.11966199 0.27308512
-0.14358155 -0.11980182 0.27340424
-0.14313504 -0.11989506 0.27361703
-0.14252134 -0.11984845 0.27351063
-0.14179763 -0.11970859 0.27319148
-0.14118525 -0.11966199 0.27308512
-0.14068285 -0.11970859 0.27319148
-0.14023457 -0.11980182 0.27340424
-0.1398398 -0.11994167 0.27372339
-0.13938959 -0.12003491 0.27393618
0.14651734 -0.13527817 0.30872339
0.14704582 -0.13518494 0.30851063
0.14767528 -0.13518494 0.30851063
0.1482536 -0.13513833 0.30840427
0.15672548 -0.12124691 0.27670214
0.15722956 -0.12120029 0.27659574
0.15779391 -0.12120029 0.27659574
0.15848005 -0.12129352 0.2768085
0.15928933 -0.12147999 0.27723405
0.16022304 -0.12175968 0.27787235
0.16128245 -0.12213261 0.27872342
0.16209821 -0.12231907 0.27914894
0.16285375 -0.12245891 0.27946809
0.16367278 -0.12264537 0.27989361
0.16418144 -0.12259876 0.27978724
0.16437642 -0.12231907 0.27914894
0.16444309 -0.12194614 0.27829787
0.16463244 -0.12166645 0.27765957
0.16507237 -0.12157322 0.27744681
0.16551141 -0.12147999 0.27723405
0.16601333 -0.12143337 0.27712765
0.16664271 -0.12147999 0.27723405
0.167465 -0.12166645 0.27765957
0.16835341 -0.12189952 0.27819148
0.16905022 -0.12199276 0.27840427
0.1694238 -0.12185291 0.27808511
0.16947094 -0.12147999 0.27723405
0.16938409 -0.12101384 0.27617022
0.16935837 -0.12059429 0.27521276
0.16946013 -0.12026799 0.27446809
0.17084458 -0.12045445 0.27489361
0.17180346 -0.12073414 0.27553192
0.17256528 -0.12087399 0.27585107
0.17306133 -0.12082737 0.27574468
-0.14997622 -0.1164137 0.2669149
-0.14961031 -0.1165529 0.26723406
-0.14924307 -0.11669208 0.26755318
-0.14863807 -0.11664569 0.26744682
-0.14797458 -0.1165529 0.26723406
-0.14754672 -0.11664569 0.26744682
-0.1472934 -0.11687768 0.26797873
-0.1472127 -0.11724887 0.26882979
-0.14718655 -0.11766645 0.26978722
-0.14698303 -0.11794484 0.27042553
-0.14671929 -0.11817683 0.27095744
-0.14633863 -0.11831602 0.27127659
-0.14601383 -0.11850163 0.27170214
-0.14568727 -0.11868721 0.27212766
-0.14535901 -0.11887281 0.27255321
-0.14491594 -0.11896561 0.27276596
-0.14441571 -0.119012 0.27287233
-0.14402722 -0.1191512 0.27319148
-0.14358155 -0.11924399 0.27340424
-0.14313504 -0.1193368 0.27361703
-0.14252134 -0.1192904 0.27351063
-0.14185286 -0.1191976 0.27329788
-0.14135024 -0.11924399 0.27340424
-0.14090198 -0.1193368 0.27361703
-0.14045285 -0.11942959 0.27382979
-0.14000285 -0.11952239 0.27404255
-0.13955197 -0.11961518 0.27425531
-0.13910025 -0.11970799 0.27446809
-0.13859394 -0.11975437 0.27457446
0.14687076 -0.13497308 0.30946809
0.14750217 -0.13497308 0.30946809
0.14813359 -0.13497308 0.30946809
0.14861158 -0.13483387 0.30914894
0.14898555 -0.13460189 0.30861703
0.15634105 -0.12082155 0.27702129
0.15684599 -0.12077515 0.27691489
0.15741098 -0.12077515 0.27691489
0.15815805 -0.12091434 0.27723405
0.15902823 -0.12114634 0.27776596
0.15990058 -0.12137832 0.27829787
0.16071376 -0.12156393 0.27872342
0.16152866 -0.12174951 0.27914894
0.16234531 -0.1219351 0.27957445
0.16322571 -0.1221671 0.2801064
0.16392162 -0.1222599 0.28031915
0.16443114 -0.1222135 0.28021276
0.16468965 -0.1219815 0.27968085
0.16482025 -0.12165672 0.27893618
0.16494782 -0.12133192 0.27819148
0.16526225 -0.12114634 0.27776596
0.16570196 -0.12105354 0.2775532
0.16620451 -0.12100714 0.27744681
0.16696243 -0.12114634 0.27776596
0.16784997 -0.12137832 0.27829787
0.16880408 -0.12165672 0.27893618
0.16956699 -0.12179592 0.27925533
0.17007193 -0.12174951 0.27914894
0.17025129 -0.12147112 0.27851063
0.17016706 -0.12100714 0.27744681
0.17034034 -0.12072875 0.2768085
-0.14955778 -0.11554583 0.2661702
-0.1493125 -0.11577673 0.26670212
-0.14906506 -0.11600766 0.26723406
-0.14863807 -0.11610001 0.26744682
-0.14797458 -0.11600766 0.26723406
-0.14754672 -0.11610001 0.26744682
-0.1472934 -0.11633092 0.26797873
-0.14715444 -0.11665418 0.2687234
-0.14707047 -0.11702363 0.26957446
-0.14692521 -0.11734691 0.27031916
-0.14660409 -0.11753163 0.27074468
-0.14610907 -0.11757782 0.27085108
-0.1456708 -0.11767018 0.27106383
-0.1452886 -0.11780872 0.27138299
-0.14501858 -0.11803963 0.2719149
-0.14468986 -0.11822435 0.27234042
-0.14435941 -0.11840908 0.27276596
-0.14397115 -0.11854763 0.27308512
-0.14358155 -0.11868616 0.27340424
-0.14307939 -0.11873235 0.27351063
-0.14252134 -0.11873235 0.27351063
-0.14190806 -0.11868616 0.27340424
-0.14140524 -0.11873235 0.27351063
-0.14101155 -0.11887089 0.27382979
-0.14061655 -0.11900944 0.27414894
-0.14022025 -0.11914799 0.27446809
-0.13971438 -0.11919416 0.27457446
-0.13926199 -0.11928653 0.27478725
-0.13870135 -0.11928653 0.27478725
-0.13808721 -0.11924034 0.27468085
-0.13763329 -0.1193327 0.27489361
0.14628962 -0.13438784 0.30957446
0.1470727 -0.13452639 0.30989361
0.14790782 -0.13471112 0.31031916
0.14864281 -0.13480347 0.31053191
0.14912297 -0.13466492 0.31021276
0.14934504 -0.13429548 0.3093617
0.15391397 -0.12422793 0.28617021
0.15409581 -0.12390467 0.28542554
0.15392871 -0.12330431 0.28404257
0.15392955 -0.12284249 0.28297871
0.15652114 -0.12039487 0.27734041
0.15696649 -0.12030251 0.27712765
0.1575924 -0.1203487 0.27723405
0.15852219 -0.12062579 0.27787235
0.1595764 -0.12099525 0.27872342
0.16057295 -0.12131851 0.27946809
0.16132717 -0.12145706 0.27978724
0.1620827 -0.1215956 0.2801064
0.16277775 -0.12168796 0.28031915
0.16347367 -0.12178032 0.28053191
0.16410826 -0.12182651 0.28063831
0.16455598 -0.12173413 0.28042552
0.16481492 -0.12150323 0.27989361
0.1650717 -0.12127233 0.2793617
0.16538937 -0.1210876 0.27893618
0.16583191 -0.12099525 0.27872342
0.16633707 -0.12094906 0.27861702
0.16690554 -0.12094906 0.27861702
0.167474 -0.12094906 0.27861702
0.16829911 -0.12113377 0.27904254
0.16925474 -0.12141087 0.27968085
0.17014834 -0.12164177 0.28021276
0.17078489 -0.12168796 0.28031915
0.1710967 -0.12150323 0.27989361
0.17121103 -0.12117996 0.27914894
-0.14860138 -0.11426733 0.26446807
-0.14871693 -0.11477294 0.26563829
-0.14864966 -0.11514065 0.26648936
-0.14834246 -0.11532452 0.2669149
-0.14779787 -0.11532452 0.2669149
-0.14737065 -0.11541644 0.26712766
-0.14711799 -0.11564627 0.26765957
-0.14692143 -0.11592206 0.26829788
-0.14538495 -0.1168873 0.27053192
-0.14500384 -0.1170252 0.27085108
-0.14467816 -0.11720905 0.27127659
-0.14446379 -0.11748484 0.2719149
-0.14424682 -0.11776063 0.27255321
-0.14391506 -0.11794448 0.27297872
-0.1435257 -0.11808237 0.27329788
-0.14302373 -0.11812833 0.27340424
-0.1424659 -0.11812833 0.27340424
-0.14190806 -0.11812833 0.27340424
-0.14146025 -0.11822027 0.27361703
-0.14106634 -0.11835817 0.27393618
-0.1406711 -0.11849605 0.27425531
-0.14027458 -0.11863394 0.27457446
-0.13982265 -0.11872588 0.27478725
-0.13936982 -0.11881781 0.27500001
-0.13886243 -0.11886376 0.27510637
-0.13819416 -0.11877184 0.27489361
-0.13768657 -0.11881781 0.27500001
-0.13744377 -0.1190936 0.27563831
-0.13740967 -0.11955324 0.27670214
-0.13673986 -0.1194613 0.27648935
0.14623936 -0.13371025 0.30946809
0.14702223 -0.13384815 0.30978724
0.14795852 -0.13412392 0.31042552
0.14879557 -0.13430779 0.31085107
0.14937866 -0.13426182 0.31074467
0.14970455 -0.13398604 0.3101064
0.15391397 -0.12364406 0.28617021
0.15398094 -0.12323038 0.28521276
0.15381339 -0.12263284 0.28382978
0.15392955 -0.12226512 0.28297871
0.15410033 -0.12194338 0.28223404
0.15467617 -0.12194338 0.28223404
0.15685262 -0.12051848 0.27893618
0.15712154 -0.12028866 0.27840427
0.15750881 -0.12015077 0.27808511
0.15807618 -0.12015077 0.27808511
0.15894702 -0.12038059 0.27861702
0.16006364 -0.12079426 0.27957445
0.16112305 -0.12116197 0.28042552
0.16194057 -0.12134584 0.28085107
0.16257517 -0.12139181 0.28095746
0.1631484 -0.12139181 0.28095746
0.16365965 -0.12134584 0.28085107
0.16404605 -0.12120795 0.28053191
0.16443114 -0.12107005 0.28021276
0.16475229 -0.1208862 0.27978724
0.1651974 -0.12079426 0.27957445
0.16583091 -0.12084023 0.27968085
0.16665474 -0.12102409 0.2801064
0.16735326 -0.12111602 0.28031915
0.16786146 -0.12107005 0.28021276
0.16824134 -0.12093215 0.27989361
0.16874826 -0.1208862 0.27978724
0.16964102 -0.12111602 0.28031915
0.17060053 -0.12139181 0.28095746
0.17143303 -0.12157566 0.28138298
0.17181204 -0.12143777 0.28106382
-0.14776115 -0.11267555 0.26202127
-0.1478243 -0.11313301 0.2630851
-0.14800224 -0.11368199 0.26436171
-0.14799692 -0.11409371 0.26531914
-0.14781033 -0.1143682 0.26595744
-0.14744441 -0.11450544 0.2662766
-0.14701851 -0.11459693 0.26648936
-0.14676714 -0.11482567 0.26702127
-0.14450794 -0.11651832 0.27095744
-0.14435075 -0.11683856 0.27170214
-0.14419051 -0.11715879 0.27244681
-0.14385897 -0.11734176 0.27287233
-0.1433581 -0.11738752 0.27297872
-0.14285679 -0.11743327 0.27308512
-0.14229961 -0.11743327 0.27308512
-0.14179763 -0.11747901 0.27319148
-0.14129525 -0.11752476 0.27329788
-0.14090198 -0.11766201 0.27361703
-0.14050743 -0.11779925 0.27393618
-0.14011154 -0.11793648 0.27425531
-0.13976851 -0.11811948 0.27468085
-0.13936982 -0.11825672 0.27500001
-0.13891613 -0.11834821 0.27521276
-0.13830112 -0.11830246 0.27510637
-0.13758004 -0.11816522 0.27478725
-0.13680719 -0.11798223 0.2743617
-0.13608892 -0.11784499 0.27404255
-0.13552979 -0.11784499 0.27404255
-0.13533743 -0.11816522 0.27478725
-0.13535073 -0.11866844 0.27595744
0.14570804 -0.13317032 0.30968085
0.14608854 -0.13294159 0.30914894
0.14661832 -0.1328501 0.30893618
0.14735006 -0.13294159 0.30914894
0.14808266 -0.13303308 0.3093617
0.148765 -0.13307884 0.30946809
0.15374233 -0.12292293 0.28585106
0.15398094 -0.12264845 0.28521276
0.15387106 -0.12209949 0.28393617
0.15398742 -0.12173351 0.28308511
0.15433265 -0.12155052 0.28265956
0.15502599 -0.12164202 0.28287235
0.15589574 -0.12187076 0.28340426
0.1576544 -0.12100155 0.28138298
0.15792941 -0.12077282 0.28085107
0.15814219 -0.12049833 0.28021276
0.1584729 -0.12031535 0.27978724
0.15892279 -0.12022384 0.27957445
0.15961461 -0.12031535 0.27978724
0.16061181 -0.12063558 0.28053191
0.16161203 -0.1209558 0.28127658
0.16249265 -0.12118455 0.28180853
0.16306762 -0.12118455 0.28180853
0.16345727 -0.1210473 0.28148937
0.16378362 -0.12086431 0.28106382
0.16404605 -0.12063558 0.28053191
0.16430628 -0.12040684 0.28
0.16475229 -0.12031535 0.27978724
0.16538599 -0.12036109 0.27989361
0.16627245 -0.12058982 0.28042552
0.16735096 -0.1209558 0.28127658
0.16830593 -0.12123029 0.28191489
0.16875367 -0.1211388 0.28170213
0.16894475 -0.12086431 0.28106382
0.1691974 -0.12063558 0.28053191
0.1700273 -0.12081857 0.28095746
0.17111732 -0.12118455 0.28180853
0.17195155 -0.12136753 0.28223404
0.17239733 -0.12127604 0.28202128
-0.14746119 -0.11191329 0.26148936
-0.14734609 -0.112232 0.26223403
-0.14734709 -0.11264177 0.26319149
-0.14734417 -0.11305156 0.26414895
-0.14715996 -0.11332472 0.26478723
-0.14685535 -0.11350685 0.26521277
-0.14649031 -0.11364345 0.26553193
-0.14274548 -0.11678502 0.27287233
-0.14224418 -0.11683056 0.27297872
-0.14174244 -0.11687609 0.27308512
-0.14118525 -0.11687609 0.27308512
-0.14068285 -0.11692161 0.27319148
-0.14018002 -0.11696715 0.27329788
-0.1398398 -0.11714926 0.27372339
-0.13949785 -0.11733139 0.27414894
-0.13915415 -0.11751351 0.27457446
-0.13880874 -0.11769563 0.27500001
-0.13835461 -0.11778669 0.27521276
-0.13779309 -0.11778669 0.27521276
-0.13717851 -0.11774115 0.27510637
-0.13661721 -0.11774115 0.27510637
-0.13616115 -0.11783223 0.27531916
-0.13591377 -0.1181054 0.27595744
-0.13582034 -0.11851517 0.27691489
-0.13556713 -0.11878836 0.2775532
-0.1352078 -0.11897048 0.27797872
0.14590827 -0.1327206 0.3101064
0.14603825 -0.1322653 0.30904254
0.1462649 -0.13190106 0.30819148
0.14664017 -0.13167341 0.30765957
0.14716606 -0.13158235 0.30744681
0.14753765 -0.1313547 0.3069149
0.15374233 -0.12233971 0.28585106
0.15398094 -0.12206653 0.28521276
0.15398635 -0.12161123 0.28414893
0.15416104 -0.12129252 0.28340426
0.15468118 -0.12124699 0.28329787
0.15549241 -0.12142912 0.28372341
0.15636389 -0.12165676 0.28425533
0.15712006 -0.12179335 0.28457448
0.15758277 -0.12170228 0.28436169
0.15780795 -0.12142912 0.28372341
0.1580305 -0.12115593 0.28308511
0.15848888 -0.12106487 0.28287235
0.15900619 -0.12101933 0.28276595
0.15952308 -0.1209738 0.28265956
0.15985878 -0.12079169 0.28223404
0.16013226 -0.12056404 0.28170213
0.16058564 -0.12047298 0.28148937
0.16128178 -0.12056404 0.28170213
0.16210103 -0.12074615 0.28212765
0.16286069 -0.12088274 0.2824468
0.16343696 -0.12088274 0.2824468
0.16376616 -0.12070063 0.28202128
0.16403161 -0.12047298 0.28148937
0.16487758 -0.11983555 0.28
0.16570029 -0.12001766 0.28042552
0.166714 -0.12033638 0.28117022
0.16785732 -0.12074615 0.28212765
0.16881402 -0.12101933 0.28276595
0.16932721 -0.1209738 0.28265956
0.16926448 -0.1205185 0.28159574
0.16964653 -0.12038191 0.28127658
0.17047796 -0.12056404 0.28170213
0.17150488 -0.12088274 0.2824468
0.17234042 -0.12106487 0.28287235
-0.14769366 -0.11115321 0.26095745
-0.1474012 -0.11133445 0.26138297
-0.14728633 -0.11165165 0.26212767
-0.14716841 -0.11196885 0.26287234
-0.14698812 -0.11224072 0.26351064
-0.14668697 -0.11242197 0.26393616
-0.14632517 -0.11255791 0.26425532
-0.14584471 -0.11260323 0.26436171
-0.13996175 -0.11622828 0.27287233
-0.13951372 -0.11631891 0.27308512
-0.13911892 -0.11645484 0.27340424
-0.13888459 -0.11672673 0.27404255
-0.13859394 -0.11695329 0.27457446
-0.13824765 -0.11713455 0.27500001
-0.13784635 -0.11727048 0.27531916
-0.1373907 -0.11736111 0.27553192
-0.13693419 -0.11745173 0.27574468
-0.13663465 -0.1176783 0.27627659
-0.13633293 -0.11790486 0.2768085
-0.13613342 -0.11822207 0.2775532
-0.13577496 -0.11840331 0.27797872
-0.13531128 -0.11849394 0.27819148
-0.13464063 -0.11840331 0.27797872
-0.13397086 -0.11831269 0.27776596
-0.13325085 -0.11817674 0.27744681
-0.13263388 -0.11813143 0.27734041
-0.13206802 -0.11813143 0.27734041
-0.13170394 -0.11831269 0.27776596
-0.13143855 -0.11858457 0.27840427
0.14602311 -0.13276759 0.31170213
0.14615853 -0.13231446 0.31063831
0.14608854 -0.13168007 0.30914894
0.14611344 -0.13113631 0.30787235
0.14623453 -0.13068318 0.3068085
0.14645313 -0.13032067 0.30595744
0.14671941 -0.13000348 0.30521277
0.15374233 -0.12175649 0.28585106
0.15398094 -0.12148461 0.28521276
0.15410165 -0.1211221 0.28436169
0.1543925 -0.12089553 0.28382978
0.15508778 -0.12098617 0.28404257
0.15601712 -0.12125804 0.28468084
0.15689056 -0.12148461 0.28521276
0.15753122 -0.12152992 0.28531915
0.15787753 -0.12134866 0.2848936
0.15816295 -0.1211221 0.28436169
0.158565 -0.12098617 0.28404257
0.15920413 -0.12103148 0.28414893
0.15996334 -0.12116741 0.28446808
0.16060379 -0.12121274 0.28457448
0.16106389 -0.1211221 0.28436169
0.16134171 -0.12089553 0.28382978
0.16167806 -0.12071428 0.28340426
0.16207358 -0.12057835 0.28308511
0.16259003 -0.12053303 0.28297871
0.16316739 -0.12053303 0.28297871
0.16368321 -0.12048772 0.28287235
0.16407503 -0.12035178 0.2825532
0.16620317 -0.11980802 0.28127658
0.16715553 -0.1200799 0.28191489
0.16817379 -0.12039708 0.28265956
0.16900456 -0.12057835 0.28308511
0.16996735 -0.12003459 0.28180853
0.17086424 -0.12026116 0.28234044
0.17176329 -0.12048772 0.28287235
-0.14781408 -0.11071096 0.26117021
-0.14758117 -0.11093644 0.26170212
-0.14746566 -0.11125212 0.26244682
-0.14734709 -0.11156779 0.26319149
-0.14698812 -0.11170308 0.26351064
-0.14650959 -0.11174817 0.26361701
-0.14597173 -0.11174817 0.26361701
-0.14549257 -0.11179327 0.2637234
-0.1389024 -0.11571663 0.27297872
-0.13866892 -0.11598721 0.27361703
-0.13848655 -0.11630288 0.2743617
-0.13824765 -0.11657346 0.27500001
-0.13784635 -0.11670875 0.27531916
-0.1374968 -0.11688913 0.27574468
-0.13714552 -0.11706952 0.27617022
-0.13684511 -0.117295 0.27670214
-0.13659491 -0.11756556 0.27734041
-0.13628995 -0.11779106 0.27787235
-0.13593085 -0.11797144 0.27829787
-0.13541478 -0.11801654 0.27840427
-0.13474369 -0.11792634 0.27819148
-0.13407347 -0.11783615 0.27797872
-0.13340412 -0.11774596 0.27776596
-0.1328374 -0.11774596 0.27776596
-0.13227066 -0.11774596 0.27776596
-0.13185526 -0.11788125 0.27808511
-0.131539 -0.11810673 0.27861702
-0.13122058 -0.11833221 0.27914894
-0.13089998 -0.11855768 0.27968085
0.14612278 -0.1322218 0.31191489
0.14630871 -0.13181596 0.31095746
0.14628962 -0.13122968 0.30957446
0.14631538 -0.13068855 0.30829787
0.14643736 -0.13023758 0.30723405
0.14650406 -0.12974152 0.30606383
0.14666827 -0.12933566 0.30510637
0.1534441 -0.12139874 0.28638297
0.15385675 -0.12126345 0.28606382
0.15409581 -0.12099288 0.28542554
0.15410165 -0.12054191 0.28436169
0.15456611 -0.12045173 0.28414893
0.15532012 -0.12058701 0.28446808
0.15630864 -0.12090268 0.28521276
0.15718316 -0.12112816 0.28574467
0.15788364 -0.12121836 0.28595746
0.15834917 -0.12112816 0.28574467
0.1586955 -0.12094778 0.28531915
0.15915887 -0.12085759 0.28510639
0.15974058 -0.12085759 0.28510639
0.16044192 -0.12094778 0.28531915
0.16120417 -0.12108307 0.2856383
0.16178697 -0.12108307 0.2856383
0.16224882 -0.12099288 0.28542554
0.16252771 -0.12076739 0.2848936
0.16280445 -0.12054191 0.28436169
0.16301791 -0.12027135 0.28372341
0.16341276 -0.12013605 0.28340426
0.16386789 -0.12004586 0.2831915
0.16689464 -0.11973018 0.2824468
0.16759707 -0.11982037 0.28265956
0.16836368 -0.11995567 0.28297871
-0.14799471 -0.11031273 0.26148936
-0.14782116 -0.11058201 0.26212767
-0.1478243 -0.11098591 0.2630851
-0.14764488 -0.11125519 0.2637234
-0.14716615 -0.11130007 0.2638298
-0.14650959 -0.11121031 0.26361701
-0.14579502 -0.11107568 0.26329789
-0.13789961 -0.11619189 0.27542552
-0.13754985 -0.11637141 0.27585107
-0.13719834 -0.11655091 0.27627659
-0.13689771 -0.11677531 0.2768085
-0.13659491 -0.11699971 0.27734041
-0.13634212 -0.11726899 0.27797872
-0.13598281 -0.11744851 0.27840427
-0.13546652 -0.11749338 0.27851063
-0.13489828 -0.11749338 0.27851063
-0.13427871 -0.11744851 0.27840427
-0.13371068 -0.11744851 0.27840427
-0.13314265 -0.11744851 0.27840427
-0.13257462 -0.11744851 0.27840427
-0.13215792 -0.11758315 0.27872342
-0.13179013 -0.11776266 0.27914894
-0.1314206 -0.11794217 0.27957445
-0.13099955 -0.1180768 0.27989361
-0.13052765 -0.11816657 0.2801064
-0.13005485 -0.11825633 0.28031915
0.14568487 -0.13176493 0.31234044
0.14607294 -0.13154052 0.3118085
0.14625864 -0.13113661 0.31085107
0.14669178 -0.1309571 0.31042552
0.1471232 -0.13077758 0.31
0.14755286 -0.13059807 0.30957446
0.14747159 -0.12996976 0.30808511
0.14738423 -0.12934145 0.30659574
0.1537291 -0.12103882 0.28691489
0.15414284 -0.12090418 0.28659573
0.15438299 -0.12063492 0.28595746
0.15549438 -0.12014125 0.28478724
0.15636694 -0.12036564 0.28531915
0.15718316 -0.12054515 0.28574467
0.15800111 -0.12072468 0.28617021
0.1587029 -0.12081443 0.28638297
0.15922804 -0.12076956 0.28627661
0.15963396 -0.12063492 0.28595746
0.16003859 -0.12050028 0.2856383
0.16062139 -0.12050028 0.2856383
0.16132425 -0.12059004 0.28585106
0.16202798 -0.12067979 0.28606382
0.16261165 -0.12067979 0.28606382
0.16301323 -0.12054515 0.28574467
0.16323081 -0.12027588 0.28510639
0.16338463 -0.11996172 0.28436169
0.16359679 -0.11969246 0.28372341
0.163991 -0.11955782 0.28340426
0.16702037 -0.11924366 0.28265956
0.16778632 -0.1193783 0.28297871
0.16849028 -0.11946806 0.2831915
-0.14817534 -0.1099132 0.26180851
-0.14800113 -0.11018118 0.26244682
-0.14812317 -0.11067244 0.26361701
-0.14794266 -0.11094042 0.26425532
-0.14734417 -0.11089577 0.26414895
-0.14645047 -0.11062779 0.26351064
-0.14567719 -0.11044914 0.2630851
-0.13719834 -0.11598723 0.27627659
-0.13689771 -0.11621054 0.2768085
-0.13659491 -0.11643384 0.27734041
-0.13623777 -0.1166125 0.27776596
-0.13593085 -0.11683581 0.27829787
-0.13546652 -0.11692513 0.27851063
-0.13489828 -0.11692513 0.27851063
-0.13438134 -0.11696979 0.27861702
-0.13391505 -0.11705912 0.27882978
-0.1334479 -0.11714844 0.27904254
-0.13292924 -0.1171931 0.27914894
-0.13246056 -0.11728243 0.2793617
-0.13204125 -0.11741641 0.27968085
-0.13162065 -0.1175504 0.28
-0.13119873 -0.11768439 0.28031915
-0.13072594 -0.11777371 0.28053191
-0.13030164 -0.1179077 0.28085107
-0.12987603 -0.11804169 0.28117022
0.14499818 -0.131083 0.31223404
0.14538714 -0.13085969 0.31170213
0.14572407 -0.13059171 0.31106383
0.14610848 -0.1303684 0.31053191
0.14699341 -0.13059171 0.31106383
0.14803199 -0.13094901 0.31191489
0.1487698 -0.13103832 0.31212765
0.14874464 -0.13045771 0.31074467
0.1541281 -0.12076607 0.28765959
0.15471502 -0.12076607 0.28765959
0.15590097 -0.11987282 0.28553191
0.15648355 -0.11987282 0.28553191
0.15718316 -0.11996214 0.28574467
0.15811858 -0.12023012 0.28638297
0.15899765 -0.12045342 0.28691489
0.15964223 -0.12049809 0.28702128
0.16004968 -0.12036411 0.28670213
0.16033661 -0.1201408 0.28617021
0.16080086 -0.12005147 0.28595746
0.16144432 -0.12009613 0.28606382
0.16208825 -0.1201408 0.28617021
0.1627326 -0.12018546 0.28627661
0.16313462 -0.12005147 0.28595746
0.16335262 -0.1197835 0.28531915
0.1635069 -0.11947087 0.28457448
0.16683179 -0.11853297 0.28234044
0.16772324 -0.11875628 0.28287235
0.16849028 -0.11889026 0.2831915
-0.14805493 -0.10929014 0.26159576
-0.14812112 -0.10973459 0.26265958
-0.14830251 -0.11026792 0.26393616
-0.14806178 -0.11049014 0.26446807
-0.14734417 -0.11035682 0.26414895
-0.14633223 -0.11000126 0.26329789
-0.14555939 -0.10982347 0.26287234
-0.13618559 -0.11600132 0.27765957
-0.13582693 -0.11617911 0.27808511
-0.13536303 -0.11626799 0.27829787
-0.13484675 -0.11631244 0.27840427
-0.13438134 -0.11640133 0.27861702
-0.13401723 -0.1165791 0.27904254
-0.13360053 -0.11671244 0.2793617
-0.13313186 -0.11680133 0.27957445
-0.13266234 -0.11689023 0.27978724
-0.13214169 -0.11693466 0.27989361
-0.13172065 -0.117068 0.28021276
-0.1313481 -0.11724579 0.28063831
-0.13092424 -0.11737912 0.28095746
-0.13054842 -0.1175569 0.28138298
-0.13017087 -0.11773469 0.28180853
-0.12984051 -0.11795691 0.28234044
0.14431193 -0.13040149 0.31212765
0.14470176 -0.13017926 0.31159574
0.1450398 -0.1299126 0.31095746
0.14532538 -0.12960148 0.31021276
0.14585821 -0.12951259 0.31
0.1471945 -0.13013482 0.31148937
0.14858736 -0.1308015 0.31308511
0.15003744 -0.13151261 0.31478724
0.15458411 -0.12053472 0.28851065
0.1553444 -0.12066804 0.28882977
0.15616344 -0.12084582 0.28925532
0.15677226 -0.11995693 0.28712767
0.15694997 -0.11964581 0.28638297
0.15753427 -0.11964581 0.28638297
0.15841226 -0.11986803 0.28691489
0.15935138 -0.1201347 0.28755319
0.16005641 -0.12022359 0.28776595
0.16046539 -0.12009025 0.2874468
0.16081345 -0.11991248 0.28702128
0.1612196 -0.11977915 0.28670213
0.16174452 -0.1197347 0.28659573
0.16226903 -0.11969025 0.28648937
0.16594252 -0.11773469 0.28180853
0.16670606 -0.11786801 0.28212765
0.16759707 -0.11809023 0.28265956
0.16855356 -0.11835691 0.28329787
0.16963968 -0.11871246 0.28414893
-0.14780313 -0.10818144 0.26021278
-0.14799471 -0.10871217 0.26148936
-0.1481811 -0.1092429 0.26276594
-0.14830251 -0.10972941 0.26393616
-0.14794266 -0.1098621 0.26425532
-0.14722548 -0.10972941 0.26393616
-0.14633223 -0.10946405 0.26329789
-0.14555939 -0.10928714 0.26287234
-0.13479522 -0.11570018 0.27829787
-0.13443264 -0.1158771 0.27872342
-0.13406834 -0.11605401 0.27914894
-0.13360053 -0.11614246 0.2793617
-0.13313186 -0.11623091 0.27957445
-0.13266234 -0.11631937 0.27978724
-0.13214169 -0.11636359 0.27989361
-0.13172065 -0.11649628 0.28021276
-0.1313481 -0.11667319 0.28063831
-0.13107294 -0.11693855 0.28127658
-0.13074584 -0.11715971 0.28180853
-0.13041657 -0.11738084 0.28234044
-0.12998725 -0.11751352 0.28265956
-0.12955667 -0.1176462 0.28297871
-0.1290278 -0.11769044 0.28308511
-0.12840194 -0.1176462 0.28297871
-0.12758429 -0.11742506 0.2824468
-0.12676884 -0.11720393 0.28191489
0.14352819 -0.12963197 0.3118085
0.14391844 -0.12941082 0.31127658
0.14425714 -0.12914546 0.31063831
0.14454359 -0.12883586 0.30989361
0.14497653 -0.12865895 0.30946809
0.14565799 -0.12870318 0.30957446
0.14699341 -0.12932236 0.31106383
0.14848639 -0.13007425 0.31287235
0.15486911 -0.1201672 0.28904256
0.15557328 -0.12025566 0.28925532
0.15639317 -0.12043256 0.28968084
0.15721482 -0.12060948 0.29010639
0.15740167 -0.12029988 0.28936172
0.15752737 -0.11994606 0.28851065
0.15776619 -0.1196807 0.28787234
0.15835355 -0.1196807 0.28787234
0.15917583 -0.11985759 0.28829786
0.16005883 -0.12007874 0.28882977
0.16070729 -0.12012297 0.28893617
0.16117805 -0.12003452 0.28872341
0.16158831 -0.11990183 0.28840426
0.16205712 -0.11981338 0.2881915
0.16246499 -0.1196807 0.28787234
0.16638102 -0.1174693 0.2825532
0.16702037 -0.11751352 0.28265956
0.16784939 -0.11769044 0.28308511
0.16893333 -0.11804426 0.28393617
0.17027478 -0.11857499 0.28521276
0.17155772 -0.1190615 0.28638297
-0.14768226 -0.1075625 0.25999999
-0.1478743 -0.10809063 0.2612766
-0.1481811 -0.10870678 0.26276594
-0.14812317 -0.10905886 0.26361701
-0.14770444 -0.10914689 0.2638298
-0.14704746 -0.10905886 0.26361701
-0.14627311 -0.10888283 0.26319149
-0.14567719 -0.10883881 0.2630851
-0.13401723 -0.11544044 0.27904254
-0.13354966 -0.11552846 0.27925533
-0.13303055 -0.11557247 0.2793617
-0.132511 -0.11561649 0.27946809
-0.13199103 -0.11566049 0.27957445
-0.13157062 -0.11579252 0.27989361
-0.1312983 -0.11605659 0.28053191
-0.13107294 -0.11636467 0.28127658
-0.13084456 -0.11667275 0.28202128
-0.13051485 -0.1168928 0.2825532
-0.13013403 -0.11706883 0.28297871
-0.12965408 -0.11715687 0.2831915
-0.12912476 -0.11720087 0.28329787
-0.12845021 -0.11711285 0.28308511
-0.12772846 -0.11698082 0.28276595
-0.12700802 -0.11684878 0.2824468
-0.12657461 -0.11698082 0.28276595
-0.12661391 -0.11755296 0.28414893
-0.1269307 -0.11838917 0.28617021
0.14287591 -0.13014007 0.31457448
0.14312945 -0.12978798 0.31372342
0.14313577 -0.12921584 0.31234044
0.14323439 -0.12873171 0.31117022
0.14352496 -0.12842363 0.31042552
0.1437631 -0.12807155 0.30957446
0.14419626 -0.1278955 0.30914894
0.14477716 -0.1278515 0.30904254
0.14550783 -0.12793952 0.30925533
0.14669178 -0.12842363 0.31042552
0.1548121 -0.11953345 0.28893617
0.15551604 -0.11962147 0.28914893
0.15639317 -0.11984152 0.28968084
0.15721482 -0.12001757 0.29010639
0.1578646 -0.12006158 0.29021278
0.15828247 -0.11992955 0.28989363
0.15869904 -0.11979752 0.28957447
0.1594069 -0.11988553 0.28978723
0.16017437 -0.12001757 0.29010639
0.16088417 -0.12010559 0.29031914
0.16147651 -0.12010559 0.29031914
0.16195008 -0.12001757 0.29010639
0.16248238 -0.11997356 0.28999999
0.16295443 -0.11988553 0.28978723
0.16354568 -0.11988553 0.28978723
0.16719538 -0.11746494 0.28393617
0.16783756 -0.11750896 0.28404257
0.1686694 -0.11768499 0.28446808
0.16975616 -0.11803708 0.28531915
0.17116396 -0.11860922 0.28670213
0.1723862 -0.11904933 0.28776595
0.17348491 -0.11940142 0.28861701
-0.14778824 -0.10672546 0.25925532
-0.14762184 -0.10698823 0.25989363
-0.1478743 -0.10755755 0.2612766
-0.14800113 -0.10803928 0.26244682
-0.14788409 -0.10834584 0.26319149
-0.14740665 -0.10838963 0.26329789
-0.14686945 -0.10838963 0.26329789
-0.14627311 -0.10834584 0.26319149
-0.13287857 -0.1148711 0.27904254
-0.13235968 -0.1149149 0.27914894
-0.13184036 -0.1149587 0.27925533
-0.13147062 -0.11513387 0.27968085
-0.13119873 -0.11539663 0.28031915
-0.13102338 -0.11574698 0.28117022
-0.1307952 -0.11605354 0.28191489
-0.13051485 -0.1163163 0.2825532
-0.13013403 -0.11649147 0.28297871
-0.12965408 -0.11657907 0.2831915
-0.12917326 -0.11666665 0.28340426
-0.12859502 -0.11666665 0.28340426
-0.12796873 -0.11662286 0.28329787
-0.12739071 -0.11662286 0.28329787
-0.1270508 -0.11684182 0.28382978
-0.12699313 -0.11732356 0.285
-0.12702507 -0.11789288 0.28638297
-0.12681651 -0.11824322 0.28723404
-0.12618372 -0.11819944 0.28712767
0.1426343 -0.12927926 0.31404254
0.14283824 -0.12888512 0.31308511
0.14294076 -0.12840338 0.31191489
0.14294057 -0.12783407 0.31053191
0.14308229 -0.12739614 0.30946809
0.14341728 -0.12713337 0.30882978
0.14399776 -0.12708957 0.30872339
0.14462766 -0.12708957 0.30872339
0.14525755 -0.12708957 0.30872339
0.14593771 -0.12713337 0.30882978
0.14494568 -0.12205329 0.29648936
0.14607286 -0.12249122 0.29755318
0.15540162 -0.11894393 0.28893617
0.15627831 -0.11916289 0.28946808
0.15727249 -0.11946946 0.29021278
0.15815395 -0.11968843 0.29074469
0.15886332 -0.11977601 0.29095745
0.15951526 -0.1198198 0.29106382
0.16022617 -0.11990739 0.2912766
0.16099668 -0.12003878 0.29159576
0.16165057 -0.12008256 0.29170212
0.16218658 -0.12003878 0.29159576
0.16266273 -0.11995118 0.29138297
0.16319765 -0.11990739 0.2912766
0.16373211 -0.1198636 0.29117021
0.16813503 -0.11754253 0.28553191
0.16878046 -0.11758632 0.2856383
0.16967864 -0.11780529 0.28617021
0.17083219 -0.11819944 0.28712767
0.17218015 -0.11872496 0.28840426
0.17327841 -0.11907531 0.28925532
0.17406042 -0.1192067 0.28957447
0.17465124 -0.1192067 0.28957447
-0.14797017 -0.10632724 0.25957447
-0.14774269 -0.10654511 0.26010638
-0.14781408 -0.10698088 0.26117021
-0.14782116 -0.10737307 0.26212767
-0.14764497 -0.10763453 0.26276594
-0.14716841 -0.10767811 0.26287234
-0.14657272 -0.10763453 0.26276594
-0.14609572 -0.10767811 0.26287234
-0.1314206 -0.11451965 0.27957445
-0.13114893 -0.11478111 0.28021276
-0.13092424 -0.11508616 0.28095746
-0.13069649 -0.11539119 0.28170213
-0.1304657 -0.11569623 0.2824468
-0.13013403 -0.11591411 0.28297871
-0.12970278 -0.11604484 0.28329787
-0.12922174 -0.11613199 0.28351063
-0.12864329 -0.11613199 0.28351063
-0.1281129 -0.11617557 0.28361702
-0.12767775 -0.1163063 0.28393617
-0.12738416 -0.11656777 0.28457448
-0.12727757 -0.11700353 0.2856383
-0.12711944 -0.11739571 0.28659573
-0.12676954 -0.11761361 0.28712767
-0.1260902 -0.11752645 0.28691489
-0.12513253 -0.11717784 0.28606382
0.14229608 -0.12833348 0.31329787
0.14249851 -0.1279413 0.31234044
0.14259949 -0.12746195 0.31117022
0.14269572 -0.1269826 0.31
0.14293472 -0.12663399 0.30914894
0.14331847 -0.1264161 0.30861703
0.14389853 -0.12637253 0.30851063
0.14442831 -0.12628537 0.30829787
0.14495723 -0.12619822 0.30808511
0.14548528 -0.12611108 0.30787235
