# .PCD v0.7 - Point Cloud Data file format
VERSION 0.7
FIELDS x y z
SIZE 4 4 4
TYPE F F F
COUNT 1 1 1
WIDTH 1373
HEIGHT 1
VIEWPOINT 0 0 0 1 0 0 0
POINTS 1373
DATA ascii
0.046759404 0.028310612 0.30259928
0.046788409 0.028205385 0.30269933
0.068192273 0.022130759 0.23330258
0.068251982 0.022196082 0.23329595
0.068297729 0.022172686 0.23334733
0.06831421 0.022119971 0.23338249
0.06830249 0.021990303 0.23346584
0.068317212 0.021973556 0.23347698
0.068323612 0.021991199 0.23346557
0.068329975 0.022027878 0.23344298
0.068340823 0.022066031 0.23342063
0.068356968 0.022162957 0.2333674
0.068367429 0.022178799 0.23335452
0.16210194 0.025052672 0.27174374
0.16216616 0.025548996 0.27148792
0.16216654 0.025821313 0.27131665
0.16219944 0.025987776 0.27122581
0.16222613 0.026001245 0.27123156
0.16225447 0.026012335 0.27123722
0.16225931 0.026042497 0.27121782
0.20110232 0.031350307 0.31727305
0.2011105 0.031384502 0.31725681
0.20111617 0.031332899 0.31725615
0.20112395 0.031281702 0.31725398
0.20113556 0.031237911 0.31725666
0.20114368 0.03119362 0.31725886
0.20114936 0.031199366 0.31725118
-0.051114351 0.016560575 0.19167121
-0.050644327 0.016634902 0.19145952
-0.050321512 0.016771434 0.19135702
-0.050145701 0.017293293 0.19107082
-0.05006459 0.017689463 0.19084364
-0.049998038 0.018047757 0.19064102
-0.049946912 0.018278604 0.1905061
-0.049915966 0.018388826 0.19044387
-0.049901579 0.018419312 0.19042739
-0.049885776 0.018439706 0.19041537
-0.049868137 0.018498333 0.19038604
-0.049861811 0.018485731 0.19039251
-0.049865134 0.018432219 0.19042148
-0.049882367 0.018297797 0.19049285
-0.04993159 0.017959569 0.19069506
-0.049974222 0.017687179 0.1908626
-0.050008446 0.017518464 0.19098212
-0.049949061 0.017387787 0.19110313
-0.049853552 0.017332215 0.19119005
-0.04975725 0.01724365 0.19130374
0.046711821 0.029536296 0.30154073
0.046740815 0.029658448 0.30148709
0.046802621 0.029698007 0.30153126
0.046820153 0.029512163 0.30171263
0.046810068 0.02923486 0.301918
0.046799321 0.028889425 0.30216187
0.046871766 0.028710496 0.30243474
0.046897959 0.028747151 0.30245012
0.068266712 0.022475986 0.23314275
0.068364762 0.022521609 0.23316595
0.068363614 0.022433857 0.23321356
0.068352669 0.02231703 0.23327872
0.068348423 0.022261208 0.23330976
0.068366975 0.022284413 0.23330273
0.068380274 0.022340978 0.23326966
0.068381786 0.022359697 0.23325931
0.068399489 0.022414356 0.2332257
0.068409927 0.022468178 0.23319466
0.068417527 0.022522846 0.23316468
0.16208029 0.025048589 0.27173376
0.16220281 0.025901465 0.27128705
0.16221498 0.0261574 0.27113938
0.1622237 0.02637787 0.27101225
0.16224016 0.026443072 0.27097499
0.16226764 0.02645711 0.27098104
0.16228822 0.026370699 0.27103919
0.16231914 0.026349602 0.27106228
0.20107122 0.031974461 0.3172141
0.20107831 0.031965923 0.31720591
0.20108281 0.031914502 0.31720343
0.2010894 0.031863481 0.3171995
0.20108938 0.031863477 0.31719944
0.20109761 0.031819373 0.31720188
0.20110272 0.03177483 0.31720433
-0.050589867 0.016873132 0.19134158
-0.050229054 0.017118063 0.19117039
-0.050104123 0.01754239 0.19093747
-0.050019506 0.018026615 0.19066334
-0.049945153 0.018382462 0.19046225
-0.049881101 0.018581519 0.19034553
-0.049844965 0.01871286 0.19027266
-0.049833603 0.018741854 0.19025874
-0.049815621 0.018801332 0.19022787
-0.049807612 0.018821435 0.19021562
-0.049799815 0.018838897 0.19020915
-0.049802326 0.018764878 0.19024631
-0.049815387 0.018674148 0.19029966
-0.049851533 0.018487401 0.19040179
-0.049878642 0.018237934 0.19054137
-0.049901336 0.018001674 0.19069333
-0.049900148 0.017821232 0.19082636
-0.0498261 0.017751126 0.19093046
0.046808261 0.03018957 0.30117592
0.046846252 0.030258017 0.30117583
0.046857968 0.030298021 0.30115402
0.046873648 0.030264605 0.30118403
0.046866074 0.029916847 0.30146372
0.046898693 0.029657636 0.30170181
0.046907984 0.029429724 0.30188143
0.046947431 0.029376376 0.30201602
0.068392463 0.022792259 0.23300345
0.068404905 0.022727782 0.23305367
0.068400368 0.022652306 0.23309216
0.068399258 0.022593619 0.2331229
0.068399258 0.022593625 0.23312294
0.068417646 0.02265119 0.23308709
0.068434216 0.022706332 0.23305342
0.068441257 0.022742346 0.23303318
0.068445437 0.022759937 0.23302321
0.068458319 0.022815892 0.23299076
0.16210704 0.025270974 0.27160847
0.16221684 0.026256112 0.27108631
0.16224633 0.02654965 0.27092421
0.16226791 0.026650919 0.27087131
0.16229521 0.026755888 0.27081987
0.16230555 0.026791032 0.270803
0.16233709 0.026745511 0.27084956
0.16235277 0.026719835 0.27087268
0.20104611 0.032555912 0.3171744
0.20105277 0.032547999 0.31716558
0.20105609 0.032496743 0.31716126
0.2010618 0.032445915 0.31715587
0.2010618 0.032445915 0.31715587
0.20107022 0.032401569 0.31715861
0.20107551 0.03235678 0.31716132
-0.072610267 0.030922651 0.25233072
-0.072547331 0.03092989 0.25224754
-0.072610289 0.030922662 0.25233087
-0.05013977 0.017494023 0.19098027
-0.050058421 0.017911065 0.19074011
-0.049969845 0.018341705 0.19049552
-0.049883146 0.018641781 0.19031644
-0.049825124 0.018862706 0.19019853
-0.049794573 0.018984988 0.19013101
-0.049777791 0.019034611 0.19010451
-0.049765181 0.019073032 0.19008593
-0.04974778 0.019121006 0.19006084
-0.049728394 0.019131802 0.19003971
-0.049716923 0.019097902 0.19004938
-0.049725819 0.019015484 0.19009556
-0.049725775 0.019014204 0.19009803
-0.049738567 0.018926684 0.1901547
-0.049770992 0.018769102 0.19024858
-0.049793307 0.018467918 0.19044101
0.046886865 0.030931495 0.30073965
0.046910532 0.030919647 0.30076984
0.046935812 0.030947318 0.30077904
0.046961911 0.030936172 0.30081385
0.046964392 0.030821119 0.30088243
0.046942625 0.030523108 0.30109861
0.046999395 0.030317251 0.30134687
0.047028713 0.030236442 0.30142939
0.068446375 0.023001919 0.23290315
0.06844537 0.0229504 0.23292772
0.068453953 0.022971123 0.23291211
0.06845811 0.022989037 0.23290204
0.06847319 0.023050204 0.23286515
0.068487026 0.02310575 0.23283304
0.068493024 0.023100991 0.2328338
0.068510294 0.02315557 0.23279867
0.068532377 0.023271721 0.23273756
0.16226789 0.026650915 0.27087128
0.16229296 0.026818417 0.27079016
0.16230908 0.027083624 0.27066258
0.16234434 0.027220519 0.27059364
0.16236314 0.027227527 0.27059355
0.16238144 0.027171366 0.27063096
0.16239767 0.026992492 0.27073556
0.16245347 0.027051087 0.2707355
0.20103388 0.033142429 0.31715938
0.20104279 0.033137787 0.31714368
0.20104331 0.033086341 0.31713995
0.20104533 0.033035211 0.31713364
0.2010498 0.032984506 0.3171263
0.20104979 0.032984506 0.31712633
0.2010553 0.032939479 0.31712946
-0.072690643 0.030842777 0.25242847
-0.072671905 0.030870283 0.25239885
-0.072666287 0.030834367 0.25242212
-0.072695255 0.030773496 0.25247777
-0.072700761 0.030739654 0.25250059
-0.072693743 0.030704837 0.25252047
-0.050004385 0.018251561 0.19055688
-0.049916696 0.018588508 0.19036803
-0.049839556 0.018872825 0.19019863
-0.049780168 0.019104687 0.19007522
-0.049756244 0.019225635 0.1900046
-0.049737498 0.019265473 0.18998259
-0.049720757 0.01931496 0.18995596
-0.049696218 0.019335838 0.18993102
-0.049665187 0.019442884 0.18985955
-0.049650982 0.019422485 0.18986396
-0.049633425 0.019440988 0.18984672
-0.04962372 0.019476291 0.18983164
-0.049611118 0.019482814 0.18982409
-0.049618091 0.019379474 0.18988372
0.046958942 0.031440966 0.30045274
0.046981309 0.031521361 0.3004072
0.047000907 0.031579457 0.30038831
0.047030956 0.031524926 0.30044195
0.047057014 0.031549703 0.30046022
0.047064524 0.031409513 0.30056167
0.047051795 0.031287968 0.30065095
0.047046993 0.031163936 0.30072546
0.068479173 0.023187174 0.23279805
0.068486474 0.023206422 0.23278543
0.068514466 0.023325099 0.2327178
0.068532348 0.02340534 0.23267218
0.06854061 0.023443606 0.23264961
0.068561062 0.02350148 0.23261777
0.068581022 0.023578268 0.23257725
0.06859494 0.02365184 0.23253717
0.068618104 0.023765083 0.23248115
0.16228388 0.027131479 0.27062204
0.16231714 0.027338617 0.27052405
0.1623285 0.027468124 0.27045441
0.16235974 0.027608192 0.27038789
0.16239645 0.027620139 0.27038679
0.16246217 0.027638137 0.27040827
0.16249314 0.027561406 0.27047789
0.1625552 0.02768177 0.27044669
0.20103291 0.033734526 0.31714678
0.20104127 0.033678934 0.31713054
0.2010408 0.033627637 0.3171252
0.20104083 0.033627637 0.31712526
0.20104539 0.033526089 0.31710848
0.20104535 0.033526089 0.31710848
0.20105091 0.03348032 0.31711158
-0.072670743 0.030940004 0.25234944
-0.072656415 0.030969974 0.25232184
-0.072656415 0.030969974 0.25232184
-0.072673522 0.030905571 0.25237516
-0.072685122 0.030806392 0.25245214
-0.072685137 0.030806396 0.25245214
-0.072628982 0.030892592 0.25236192
-0.049942356 0.01858237 0.19038413
-0.04988886 0.018766928 0.19027896
-0.04981539 0.019063003 0.19011192
-0.0497526 0.019285936 0.18997535
-0.049722597 0.019439107 0.18989876
-0.049705453 0.019489581 0.18987009
-0.049694352 0.019517807 0.18985546
-0.049648184 0.019589255 0.18979181
-0.049613763 0.019669537 0.18973672
-0.049598124 0.019699505 0.18971461
-0.049579933 0.019736834 0.18968906
-0.049536064 0.019854803 0.18961327
-0.04946458 0.019921046 0.18954828
-0.049393091 0.020019926 0.18951297
0.047001917 0.031684477 0.30032644
0.04702498 0.031852849 0.30023479
0.047061 0.03201424 0.30013785
0.047082219 0.032093115 0.30008769
0.047122162 0.032295018 0.29998311
0.047165416 0.032407664 0.29990971
0.047171671 0.032279398 0.30003935
0.047201939 0.032161981 0.30012569
0.068520181 0.02339837 0.23268104
0.06853094 0.023462297 0.2326466
0.06855379 0.023567133 0.23258917
0.068585031 0.023704335 0.23251945
0.068613328 0.023819769 0.23245716
0.068628281 0.023860978 0.23243454
0.068643168 0.023916779 0.23240903
0.068662167 0.023989566 0.23237443
0.0686967 0.024104487 0.23231992
0.16237056 0.027806818 0.27031383
0.16241112 0.02794677 0.27025196
0.16244525 0.028088383 0.27018854
0.16247153 0.028126961 0.2701709
0.16252215 0.028199185 0.27016026
0.16259465 0.028201669 0.27020383
0.16264765 0.028296975 0.27018422
0.2010359 0.034229476 0.31713507
0.20104495 0.034175612 0.3171199
0.2010448 0.034124583 0.3171151
0.2010448 0.034124579 0.3171151
0.20104939 0.034023471 0.31709826
0.20104939 0.034023471 0.31709826
0.2010494 0.034023471 0.31709823
-0.072733685 0.030683175 0.25255457
-0.072633453 0.031100066 0.2522167
-0.072605021 0.031158078 0.25216046
-0.072632506 0.031064501 0.25224131
-0.072627492 0.031028213 0.25226474
-0.07260935 0.031056501 0.25223532
-0.072562993 0.0311458 0.25214797
-0.072526194 0.031238737 0.25206703
-0.049914673 0.018779323 0.19028583
-0.049858 0.018954931 0.19018173
-0.049788658 0.019270025 0.19000775
-0.049720529 0.01948732 0.18987523
-0.049698088 0.019609665 0.18980931
-0.04968062 0.01966312 0.18977942
-0.049656086 0.019770933 0.18972522
-0.049614593 0.019833723 0.18966803
-0.049580351 0.01991391 0.18960832
-0.049555693 0.019974865 0.18956958
-0.049534403 0.019991308 0.18955477
-0.049473703 0.020129949 0.18945819
-0.049393378 0.020233177 0.18939047
-0.049246553 0.020388659 0.18933985
0.04703258 0.031827036 0.30026725
0.047075998 0.031931248 0.300235
0.047105707 0.032234356 0.30003837
0.047150038 0.032541361 0.29984176
0.047216155 0.032819115 0.29968455
0.047260229 0.03297773 0.29959542
0.047260229 0.03297773 0.29959542
0.047283068 0.033011787 0.29957932
0.068567961 0.023657274 0.23254624
0.068594426 0.023758365 0.23249179
0.068616234 0.023860218 0.23243807
0.068638369 0.023967717 0.23238532
0.068661816 0.024066437 0.23233864
0.068685822 0.024174249 0.23228686
0.068709582 0.024250554 0.23225363
0.068721674 0.024288695 0.2322377
0.068759702 0.02440976 0.23219185
0.1624925 0.02845888 0.27004132
0.16252542 0.02856544 0.27000049
0.16257769 0.028679937 0.2699649
0.162641 0.028783236 0.26993778
0.16268203 0.02888513 0.26990739
0.16273633 0.028982725 0.26988363
0.20103718 0.034677994 0.31710488
0.20104089 0.034674387 0.31709644
0.20104177 0.034623709 0.31709337
0.20104384 0.034573287 0.31708708
0.20104845 0.03452329 0.31707978
0.20104842 0.03452329 0.31707981
0.20104842 0.034523286 0.31707978
-0.072601818 0.031191848 0.25213403
-0.072548382 0.031377587 0.25197625
-0.072548382 0.031377587 0.25197625
-0.0725272 0.031370312 0.25197208
-0.07248871 0.03149325 0.25186893
-0.072450608 0.031615581 0.25176564
-0.072403103 0.03170491 0.2516861
-0.049872436 0.019031376 0.19015193
-0.049811479 0.019229673 0.19003689
-0.049730934 0.019570772 0.18984136
-0.049680192 0.019756852 0.18973811
-0.049659152 0.019858312 0.18968043
-0.049633022 0.019938827 0.18963419
-0.049627181 0.019949879 0.18962882
-0.049563229 0.020127825 0.18950443
-0.049538646 0.020168681 0.18947335
-0.049514592 0.020175865 0.18946378
-0.049493443 0.020205675 0.18944266
-0.049442399 0.020304622 0.18938133
-0.049344152 0.020445116 0.18929407
-0.049201537 0.02053698 0.18927284
0.047092777 0.03213679 0.30014256
0.047116928 0.032301176 0.30004412
0.047141925 0.032595638 0.2998344
0.047209915 0.032956168 0.29962599
0.047241695 0.033117216 0.29953909
0.047306597 0.033381209 0.29935461
0.047331464 0.03350291 0.29928899
0.068624809 0.023997273 0.23237348
0.068639494 0.024061056 0.23234047
0.068677679 0.024170524 0.23228848
0.068691902 0.024253312 0.23224697
0.068714976 0.024334673 0.23221166
0.068725295 0.024395751 0.23218156
0.068765797 0.024481559 0.23215629
0.068790741 0.024575647 0.23211397
0.068835013 0.024671465 0.23208867
0.06890256 0.024797251 0.2320492
0.16261345 0.028839881 0.26991326
0.16267358 0.029016398 0.26985261
0.16269277 0.029088419 0.26983017
0.16275777 0.029370895 0.26970789
0.16279727 0.029474329 0.26967126
0.16285187 0.029609516 0.26962054
0.16290332 0.029746944 0.26956984
0.2010271 0.035027631 0.31708172
0.20103019 0.035075169 0.31705719
0.20103411 0.035025191 0.31705374
0.20104025 0.034975585 0.31704867
0.20104022 0.034975588 0.31704867
0.20104021 0.034975585 0.31704861
0.20104021 0.034975581 0.31704861
-0.072655208 0.031075846 0.25224575
-0.072456487 0.031683516 0.25172418
-0.072466083 0.031653691 0.25175011
-0.072453976 0.031716462 0.25170121
-0.072392471 0.031864118 0.2515758
-0.072379999 0.031894073 0.25154948
-0.072363988 0.031923298 0.25152093
-0.049805686 0.019435044 0.1899325
-0.049751412 0.019593935 0.18984659
-0.049668644 0.019883342 0.18967749
-0.049623035 0.020067384 0.18957117
-0.049587779 0.020192431 0.18950072
-0.049569212 0.020206574 0.18947901
-0.049526673 0.020298138 0.18941972
-0.049493 0.02037151 0.18937193
-0.049472712 0.020409761 0.18934348
-0.04946528 0.020418933 0.18934116
-0.049451362 0.02043001 0.18933319
-0.049387455 0.020497952 0.18928407
-0.049299043 0.020584658 0.18923947
-0.049124006 0.020745086 0.18919499
0.047163654 0.032840349 0.29970881
0.047228005 0.033173081 0.29952949
0.047281347 0.033378474 0.29942542
0.047325201 0.033571091 0.29929841
0.047339287 0.033684347 0.29922175
0.047392156 0.033919543 0.29906818
0.068649493 0.024371427 0.23217782
0.068701014 0.02435144 0.23220509
0.068722382 0.024410112 0.23217998
0.068744712 0.024487194 0.23214529
0.068776302 0.024583844 0.23209906
0.068791181 0.024616471 0.2320908
0.068819121 0.024682548 0.23207365
0.068866417 0.024786733 0.2320331
0.068937525 0.025022632 0.23193651
0.069008894 0.025185792 0.23188047
0.16278398 0.029397717 0.26971865
0.16282174 0.029615842 0.26962611
0.16285776 0.029858029 0.26950741
0.16291501 0.030103032 0.26938888
0.16295618 0.030175362 0.26936531
0.1630052 0.030313188 0.26930609
0.16304258 0.030312007 0.26932406
0.20100814 0.03537365 0.31704986
0.20100571 0.035375431 0.31703669
0.20100579 0.035426378 0.31700227
0.20101355 0.035377696 0.31699958
0.20101352 0.0353777 0.31699964
0.20101355 0.035377696 0.31699958
0.20101984 0.035327669 0.31701374
-0.072655208 0.031075846 0.25224578
-0.072440214 0.03184687 0.25160885
-0.072439365 0.031812359 0.25163007
-0.0723956 0.031964239 0.25151396
-0.072362117 0.032052699 0.25143829
-0.072314195 0.032205138 0.25131369
-0.072289601 0.032264508 0.25125971
-0.049771328 0.019778591 0.18974619
-0.049688086 0.019900765 0.18967523
-0.04962296 0.020144679 0.18954465
-0.049563114 0.020374231 0.18941253
-0.049493786 0.020506 0.18930817
-0.049462821 0.02056966 0.18926756
-0.049457118 0.020580623 0.1892622
-0.049439602 0.020620923 0.1892384
-0.049432699 0.020632649 0.18923467
-0.04941994 0.020630257 0.18923205
-0.049403504 0.020647505 0.18922149
-0.049309183 0.020750117 0.18917491
-0.049155667 0.020900838 0.18911527
-0.049014665 0.021035731 0.18907784
0.047288898 0.033571679 0.29930133
0.047329817 0.033776309 0.29918042
0.047357686 0.033970684 0.29905766
0.047386944 0.034010295 0.29902592
0.047395706 0.034013186 0.29903761
0.047419984 0.034093179 0.29899761
0.068711534 0.024730636 0.23202117
0.068741202 0.024768284 0.23200211
0.068802908 0.02482266 0.23199885
0.068838224 0.02488704 0.2319776
0.068864606 0.024962086 0.23194222
0.06889955 0.025025329 0.2319265
0.068957627 0.025138738 0.23188762
0.069035582 0.02532774 0.23181053
0.069127217 0.02552451 0.23171243
0.069213249 0.025722435 0.23160352
0.16290049 0.029922262 0.26949513
0.16292515 0.03017538 0.26937416
0.16296616 0.03035621 0.26928592
0.16301878 0.030603608 0.26916438
0.16304176 0.030708879 0.26910394
0.16305332 0.030708125 0.26911956
0.16308564 0.030814433 0.26907969
0.20096028 0.035863597 0.31698284
0.20097195 0.035768479 0.31698611
0.20097688 0.035720076 0.31698918
0.20098267 0.035671856 0.3169882
0.20099072 0.035624009 0.31698561
0.20099072 0.035624005 0.31698561
0.20099071 0.035624001 0.31698561
0.20099066 0.035624005 0.31698552
-0.072645552 0.03121719 0.25214124
-0.0724134 0.031937737 0.25153786
-0.072395585 0.031964239 0.25151396
-0.072377726 0.032024898 0.25146574
-0.072337486 0.032244548 0.25130346
-0.072275691 0.032423433 0.25115553
-0.072223522 0.032570112 0.25103113
-0.04975016 0.020066105 0.1895868
-0.049665976 0.020191103 0.18951258
-0.049579665 0.020505549 0.18933672
-0.049498286 0.020744108 0.18917452
-0.049444117 0.020766826 0.1891696
-0.049421597 0.020796454 0.18915537
-0.049418226 0.020798644 0.18915316
-0.049394704 0.020864617 0.18911709
-0.049383547 0.020887461 0.18910086
-0.049359761 0.020896574 0.18909091
-0.049302716 0.02092763 0.18907925
-0.049191352 0.021047534 0.1890419
-0.048978474 0.021289889 0.18896221
-0.048881739 0.021411458 0.18892288
0.047436796 0.034559265 0.29867834
0.047454774 0.03463326 0.29861864
0.047459129 0.034599286 0.2986514
0.047483597 0.034576986 0.29870692
0.04748169 0.034375753 0.29883724
0.068720601 0.025136715 0.2318431
0.068758108 0.025099579 0.2318828
0.06880749 0.02522652 0.23181207
0.068844795 0.025269063 0.23178712
0.068907976 0.025293851 0.23178689
0.068958223 0.025417581 0.23173854
0.069036707 0.025583247 0.2316792
0.069123238 0.025872199 0.2315228
0.069181651 0.026258202 0.23131557
0.069289386 0.02650225 0.23117651
0.16303445 0.030676605 0.26914379
0.16305247 0.030891793 0.26902339
0.16310479 0.031139709 0.26889297
0.16312909 0.031282593 0.26882201
0.16314162 0.031317279 0.26880506
0.16315971 0.031316824 0.26881605
0.16317943 0.03138952 0.26878718
0.20093691 0.036101386 0.316971
0.2009473 0.036007911 0.3169716
0.20094374 0.036012225 0.31695068
0.20094913 0.035964783 0.31694874
0.20095681 0.035917703 0.31694511
0.20095679 0.035917703 0.31694517
0.20095676 0.035917699 0.31694514
0.20095676 0.035917696 0.31694511
-0.072486676 0.031732854 0.25170711
-0.072379403 0.032127216 0.25140202
-0.072370425 0.032157183 0.25137788
-0.072349794 0.032216027 0.25132978
-0.072287589 0.032494716 0.25112519
-0.072208494 0.03276474 0.25093168
-0.07216955 0.032854911 0.25087458
-0.049735099 0.020380696 0.18940979
-0.049665436 0.020502117 0.18933283
-0.049568672 0.020790972 0.18917225
-0.049473535 0.021003436 0.18903606
-0.049430795 0.021019515 0.18902202
-0.049395114 0.021011306 0.18904704
-0.049375989 0.0210435 0.18902877
-0.049352966 0.021108007 0.18899879
-0.049294181 0.021185203 0.18895218
-0.049246054 0.021211606 0.18893856
-0.049156614 0.021286508 0.18893871
-0.048961822 0.02148921 0.1888721
-0.04884791 0.02167386 0.18880144
-0.048777644 0.021774633 0.18876991
0.047531553 0.035296831 0.29818749
0.047562148 0.035212193 0.29829544
0.047554277 0.035081703 0.29836321
0.047561534 0.03497592 0.29846936
0.047589898 0.035055958 0.29843616
0.068803623 0.025616171 0.23166743
0.068827108 0.025702113 0.23161784
0.068873517 0.025843548 0.2315478
0.068928204 0.02588081 0.23153323
0.069007076 0.02608604 0.23144232
0.069099784 0.02627817 0.23134609
0.069197901 0.026770676 0.23108459
0.069301941 0.027064981 0.2308965
0.069345921 0.027237738 0.23080418
0.16313919 0.031395778 0.26877499
0.16316038 0.031571973 0.26866534
0.16319115 0.031675592 0.26860622
0.16322784 0.031779319 0.26855451
0.16324612 0.031887982 0.26850897
0.16327602 0.032033905 0.26843539
0.20090167 0.036523767 0.31695282
0.20090833 0.036432687 0.31695241
0.20091891 0.036295399 0.31694159
0.20092176 0.036248498 0.31694087
0.20092173 0.036248498 0.31694087
0.20092584 0.036201809 0.31693661
0.20093235 0.036155485 0.31693062
0.20093237 0.036155477 0.31693056
0.20093264 0.036200229 0.31691879
-0.072744459 0.030872749 0.25247613
-0.072368726 0.032260276 0.2513147
-0.072330825 0.03248208 0.2511659
-0.072329126 0.032517079 0.25114837
-0.072299056 0.032604516 0.25108296
-0.072240703 0.032884747 0.25092033
-0.072144635 0.033144847 0.25076616
-0.072106533 0.033158671 0.25072199
-0.049750146 0.020664774 0.18928239
-0.049668901 0.020763749 0.18920995
-0.049567264 0.020998463 0.18907465
-0.049478497 0.021172062 0.18895528
-0.049433477 0.021283038 0.18889485
-0.049394652 0.021275483 0.18889868
-0.049355417 0.021345995 0.188871
-0.049252238 0.021472435 0.18880694
-0.049170803 0.021575293 0.1887743
-0.049067654 0.021657811 0.18877648
-0.048939954 0.021758268 0.18875507
-0.048833992 0.021902043 0.18871091
-0.04874501 0.022039061 0.18866552
-0.048679773 0.022169638 0.18857309
0.047635965 0.035921782 0.2977666
0.047648299 0.035848256 0.29782447
0.047648299 0.035848256 0.29782447
0.047666207 0.03582776 0.29787931
0.047702741 0.035774235 0.29798988
0.047689211 0.035578474 0.29814824
0.068853959 0.026182663 0.2314159
0.068897061 0.026237322 0.23138942
0.068950422 0.0264752 0.23126197
0.069015861 0.026587324 0.23120102
0.069115035 0.026814098 0.23107871
0.069200523 0.027101193 0.23092905
0.06929931 0.027384991 0.23077004
0.069380172 0.027637089 0.23061568
0.069419608 0.027877087 0.23049247
0.16317847 0.031651098 0.26866335
0.16323172 0.031932618 0.26850268
0.16325241 0.03207488 0.26842353
0.16330774 0.032381207 0.26822791
0.1633299 0.03245236 0.26819855
0.16338745 0.03269827 0.26806742
0.16341074 0.03284141 0.26799726
0.20089675 0.036759969 0.31694317
0.20089945 0.036667198 0.31694221
0.20090535 0.036575969 0.31693444
0.20090538 0.036575973 0.31693444
0.20090681 0.03652934 0.31693125
0.20090957 0.036482912 0.31692442
0.20091484 0.036436852 0.31691584
0.20091482 0.036436852 0.31691587
0.20091578 0.036481135 0.31690478
-0.072335392 0.032772936 0.25106409
-0.072328277 0.03280485 0.25104672
-0.072270244 0.032974873 0.25093079
-0.072226837 0.033089776 0.2508657
-0.072188444 0.033174708 0.2508176
-0.072124355 0.033340737 0.25070125
-0.072082013 0.033413853 0.25064081
-0.049781721 0.020938221 0.18918033
-0.049695119 0.021034578 0.18910585
-0.04958792 0.021204904 0.18899891
-0.049496669 0.021381706 0.18888225
-0.049443603 0.021519817 0.1887801
-0.049392574 0.021610415 0.18873636
-0.049297448 0.02173705 0.18864869
-0.049194377 0.021954268 0.18853712
-0.049052138 0.022080805 0.18848296
-0.048893895 0.022124782 0.18853238
-0.048802961 0.022216123 0.18853354
-0.048742574 0.022232659 0.18856044
-0.048673879 0.022367811 0.18848242
-0.048628196 0.022517042 0.18841885
0.047695935 0.036475785 0.29740167
0.047726069 0.036489643 0.2974185
0.047753565 0.036566999 0.29736638
0.047753565 0.036566995 0.29736638
0.047770374 0.036469888 0.29748783
0.047761373 0.036021423 0.29788449
0.047730602 0.035602309 0.29826114
0.068943627 0.026724443 0.23116428
0.069008589 0.02691848 0.23104841
0.069096401 0.02714519 0.23092788
0.069187626 0.027343627 0.23081408
0.069255553 0.027529923 0.23071213
0.069340393 0.027783135 0.23056935
0.069397375 0.027947364 0.23047319
0.06945321 0.028134979 0.23036313
0.069513939 0.028357437 0.23025177
0.16325977 0.031977754 0.26852
0.16329058 0.032188185 0.26839846
0.1633223 0.032364633 0.26829711
0.1633486 0.032713946 0.26809543
0.16340506 0.033044714 0.26788026
0.16341943 0.033212602 0.26778048
0.1634855 0.033478215 0.26761442
0.20089033 0.0369443 0.31694388
0.20089698 0.036854286 0.31693643
0.20089765 0.03680807 0.31693187
0.20089768 0.03680807 0.3169319
0.20090018 0.0367621 0.31692412
0.20090529 0.03671651 0.31691453
0.20090528 0.03671651 0.31691456
0.20090702 0.036760274 0.31690437
-0.072292037 0.033036701 0.25094405
-0.0722185 0.033192482 0.25083798
-0.072167687 0.033372536 0.25075376
-0.072143346 0.033423945 0.25072032
-0.072112225 0.033495039 0.25065872
-0.072096296 0.033513434 0.25063166
-0.072071649 0.033638645 0.25058025
-0.0497053 0.021307576 0.18901135
-0.049597975 0.021476362 0.18891159
-0.049508303 0.021695925 0.18876387
-0.049419545 0.021825893 0.18866777
-0.049338672 0.022082729 0.18849809
-0.049233466 0.022333305 0.18833196
-0.049072366 0.022559838 0.18822248
-0.048920855 0.022703949 0.18815812
-0.048832953 0.022683846 0.18824252
-0.048757382 0.022639636 0.18832545
-0.04869445 0.022579601 0.1883878
-0.048636299 0.022703491 0.1883312
-0.048586458 0.022780113 0.18832532
0.047815971 0.037242502 0.2968995
0.047822531 0.037282992 0.29687247
0.047859505 0.037338283 0.29686531
0.047863856 0.037301105 0.29690015
0.047842823 0.037072681 0.29708469
0.047815051 0.036459193 0.29758993
0.047749683 0.035844911 0.29809734
0.06910482 0.027417039 0.23080975
0.069178417 0.027596705 0.23069966
0.069273844 0.027826913 0.23057444
0.069332987 0.027974749 0.23048696
0.06938304 0.028128996 0.23040481
0.069425374 0.028207136 0.23035277
0.069486491 0.028376501 0.23025312
0.069521174 0.028509701 0.23018505
0.069579601 0.028661199 0.23010847
0.069602847 0.028777326 0.23005953
0.16334522 0.032447178 0.26830366
0.16338757 0.032764684 0.2681165
0.16343574 0.033174839 0.26786581
0.16349007 0.033539407 0.26763368
0.16350441 0.033850014 0.2673983
0.16354533 0.033978257 0.26730952
0.16358478 0.034132082 0.2672447
0.20088747 0.037129149 0.31693789
0.20088911 0.037083633 0.3169345
0.20089263 0.037038371 0.31692776
0.20089921 0.036993537 0.31691983
0.2008992 0.036993537 0.31691983
0.2008992 0.036993537 0.31691983
0.20089921 0.036993533 0.3169198
-0.072282799 0.033144251 0.25091532
-0.072184354 0.033420794 0.25076008
-0.072144821 0.033525646 0.25069261
-0.072092302 0.033656113 0.25060534
-0.072065249 0.033703726 0.25056666
-0.072064608 0.03373586 0.25055349
-0.072064616 0.033735856 0.25055346
-0.049644075 0.021798184 0.18879108
-0.049560942 0.021982728 0.18866777
-0.049453769 0.022178128 0.18853831
-0.049394645 0.022344301 0.18839292
-0.049285125 0.02267646 0.18816178
-0.049098246 0.023039719 0.18796287
-0.048947658 0.023280889 0.18783957
-0.048874363 0.023316516 0.1878403
-0.048806109 0.023213046 0.18797113
-0.048744045 0.023143658 0.18806629
-0.04867968 0.023001028 0.18822584
-0.048619367 0.023039997 0.18821596
-0.048566151 0.023033932 0.18825181
0.047906984 0.037822831 0.29653436
0.047915954 0.037825972 0.29653764
0.047940511 0.037866518 0.29651454
0.047940511 0.037866518 0.29651454
0.047927909 0.03771136 0.29663515
0.047886148 0.037111543 0.29706877
0.047813401 0.036494419 0.29764533
0.069362432 0.028264059 0.2303409
0.069407471 0.02837294 0.23027942
0.069466278 0.028578607 0.23016858
0.069506995 0.028688692 0.23010556
0.069545984 0.028774023 0.23005752
0.069580562 0.028858259 0.23001193
0.069600619 0.028876515 0.22999915
0.069650427 0.029007446 0.22994024
0.069698013 0.02916904 0.22987278
0.16342978 0.033090547 0.26796496
0.16348238 0.033294737 0.26784214
0.16351849 0.033656042 0.26759991
0.16352731 0.033976391 0.26737237
0.16357346 0.034448948 0.26704517
0.163608 0.034547482 0.26699138
0.16364683 0.034554373 0.26699626
0.20087367 0.037399665 0.31693399
0.20087636 0.037354946 0.31693178
0.20088184 0.037310604 0.31692755
0.2008905 0.037266698 0.31692207
0.2008905 0.037266698 0.31692204
0.20089471 0.037308756 0.31690833
0.2008947 0.037308749 0.31690836
-0.072297283 0.033087276 0.25095186
-0.072190315 0.033473853 0.25077027
-0.072126925 0.03365754 0.25065079
-0.072065942 0.033802979 0.25053617
-0.072052225 0.033864371 0.25050494
-0.072041966 0.03389452 0.25048864
-0.072041973 0.033894524 0.25048867
-0.049534544 0.022629976 0.18824625
-0.049478132 0.022681914 0.18823715
-0.049408309 0.022823259 0.18815471
-0.04929579 0.02309441 0.18796478
-0.049074881 0.023576368 0.18773012
-0.048899844 0.023957342 0.18753166
-0.04886432 0.02401395 0.18751398
-0.048822008 0.023925755 0.18756732
-0.048792951 0.023847595 0.1876426
-0.048733391 0.02357533 0.18788067
-0.048669014 0.023506982 0.18798086
-0.048605021 0.023486895 0.18802358
-0.048579816 0.02359413 0.18796396
0.047947563 0.038231418 0.29626504
0.047940046 0.038188409 0.29628903
0.047973722 0.038233057 0.29626834
0.047973722 0.038233057 0.29626831
0.047981065 0.038153756 0.29633126
0.047967214 0.037913632 0.29650572
0.047935244 0.037525419 0.2968199
0.069479316 0.028760323 0.23007976
0.069550663 0.028936328 0.22997572
0.069574952 0.029032301 0.22992799
0.069627836 0.029190902 0.22984606
0.069646515 0.029236551 0.22982283
0.069660053 0.029237101 0.22982892
0.069693439 0.029300887 0.22980137
0.069726937 0.02936573 0.22977929
0.069784477 0.029549791 0.22970061
0.069826894 0.029664584 0.22965409
0.16354775 0.033932094 0.26745093
0.16358808 0.034525134 0.26701754
0.1636132 0.03484584 0.26683065
0.16364327 0.035031512 0.26672596
0.16367383 0.035156116 0.26665488
0.16370018 0.03519408 0.2666457
0.163734 0.035214197 0.26664773
0.20086539 0.037668582 0.31691232
0.20087212 0.037624523 0.31690949
0.20088223 0.037580915 0.31690523
0.20088221 0.037580922 0.31690523
0.20088218 0.037580922 0.3169052
0.20088747 0.037622828 0.31689218
-0.072321378 0.033125702 0.25097537
-0.072205178 0.033458598 0.25079206
-0.072117761 0.033758637 0.25061825
-0.072044425 0.033962484 0.25046822
-0.072027519 0.034022469 0.25043285
-0.072012372 0.034083188 0.25039583
-0.072001323 0.034112904 0.25037596
-0.049435694 0.023242323 0.1879206
-0.049336355 0.023391958 0.18783209
-0.049187046 0.023723137 0.18766984
-0.048939485 0.024266049 0.18737864
-0.04880343 0.024622254 0.18721937
-0.048759207 0.024747722 0.18716739
-0.048738636 0.024771357 0.18715872
-0.048743937 0.024593329 0.18727076
-0.048740987 0.024501158 0.18733582
-0.04871875 0.024368739 0.1874191
-0.04866349 0.024179639 0.1875945
-0.048631947 0.024232334 0.18757476
-0.048631873 0.024610661 0.18729706
-0.048618883 0.024796832 0.18718439
0.047980089 0.038561944 0.29605332
0.048001155 0.038636249 0.29599518
0.048012972 0.038714841 0.29593769
0.048025914 0.038751982 0.29590857
0.048044316 0.038715895 0.29594764
0.048069701 0.038637508 0.29601106
0.0480658 0.03864181 0.29602173
0.069651872 0.029378638 0.22975118
0.069683865 0.029521581 0.22967772
0.069719195 0.029641468 0.22962229
0.069757655 0.029709922 0.22958806
0.069768876 0.029732816 0.22958042
0.069782898 0.029702736 0.22960383
0.069822833 0.029794324 0.22957031
0.069872066 0.029983956 0.22948088
0.069913961 0.030074265 0.22944596
0.163601 0.034862179 0.26683787
0.16365245 0.035167981 0.26666185
0.16369312 0.035474282 0.26648012
0.16371796 0.035567667 0.26643258
0.16373882 0.035630472 0.26639658
0.16376996 0.035696201 0.26636773
0.16381538 0.035799701 0.26631865
0.20085335 0.03798122 0.31689095
0.20086101 0.03793741 0.31688881
0.20087211 0.037894066 0.31688526
0.20087211 0.037894063 0.31688526
0.20087211 0.037894066 0.31688529
0.2008785 0.037935819 0.31687298
-0.072251029 0.033393655 0.25086328
-0.072190128 0.033629261 0.25072843
-0.072093695 0.033840306 0.2505644
-0.072042219 0.03402999 0.25043961
-0.072001606 0.034179844 0.25034872
-0.071976587 0.034269575 0.25028795
-0.071967386 0.034299474 0.25026688
-0.049365357 0.023621565 0.1877529
-0.049258284 0.023855092 0.18762559
-0.049068138 0.024243841 0.18741904
-0.048838478 0.024709519 0.18718384
-0.048700597 0.025167746 0.18696256
-0.048634518 0.025393851 0.18682408
-0.048615806 0.025387608 0.1868455
-0.048638169 0.025315678 0.18688864
-0.048656654 0.025104921 0.18700936
-0.048670541 0.024988461 0.18709147
-0.048653353 0.025000876 0.18709156
-0.048637617 0.02500107 0.18709302
-0.048606113 0.025131818 0.18701118
-0.048575573 0.025266938 0.18692926
-0.048542045 0.025416257 0.18683621
0.048048638 0.038971338 0.29580414
0.048063952 0.039088927 0.29571849
0.04808009 0.039164837 0.29565933
0.048107903 0.039278716 0.29557216
0.048123576 0.039320704 0.29555634
0.048135955 0.039323598 0.29556909
0.048145834 0.039366312 0.29555199
0.069770552 0.029947454 0.22946039
0.069807462 0.030067394 0.22939926
0.069843791 0.030114777 0.22938497
0.069853239 0.030112898 0.22939232
0.069880195 0.030110233 0.2294067
0.069911756 0.030277094 0.22932284
0.069969743 0.030492203 0.2292148
0.070005052 0.030611293 0.22915021
0.16374277 0.035841264 0.26630685
0.16376314 0.036040649 0.26618093
0.16378617 0.036102809 0.26614982
0.16381188 0.036162738 0.26611647
0.16382518 0.036138427 0.26613292
0.16386248 0.036265042 0.26606542
0.1639048 0.036433019 0.26598072
0.20084816 0.038249083 0.3168653
0.20085992 0.03820597 0.31686172
0.20085992 0.038205966 0.31686169
0.20085992 0.038205963 0.31686172
0.20086709 0.038247459 0.31684944
-0.072144888 0.033785883 0.25063515
-0.072113141 0.033896107 0.25056842
-0.072068006 0.034024231 0.25048018
-0.072019473 0.034189261 0.25036716
-0.071982071 0.034373779 0.25025484
-0.071929142 0.0344848 0.25014949
-0.071864508 0.034661647 0.25002727
-0.049170379 0.02416371 0.18749803
-0.049019597 0.024462769 0.18733662
-0.048795503 0.024948103 0.18707049
-0.048668887 0.025384044 0.18684997
-0.048582513 0.025728762 0.18664843
-0.048548628 0.0258474 0.18659535
-0.048547242 0.025833305 0.1866042
-0.048564214 0.025697621 0.18669067
-0.048573934 0.025559951 0.18677135
-0.048575513 0.025502443 0.18681638
-0.048569083 0.025512155 0.18680735
-0.048551265 0.025563216 0.18678285
-0.04853547 0.025576023 0.18677291
-0.048506822 0.025712656 0.18668851
-0.048461463 0.025888756 0.18658926
0.048076879 0.039285026 0.29558346
0.048159491 0.039728444 0.29531103
0.048187815 0.039879452 0.29519668
0.048242137 0.040109757 0.29504475
0.048303396 0.040261488 0.29495293
0.048373856 0.040451519 0.29483414
0.069875211 0.030427432 0.22921544
0.0699028 0.030498978 0.22918031
0.069936521 0.030522948 0.22918129
0.069956556 0.030546175 0.22917366
0.069976091 0.030593211 0.22915132
0.070011474 0.030786209 0.22905417
0.070052408 0.030954031 0.22895911
0.070097998 0.031197255 0.22882792
0.16381523 0.036436167 0.26598561
0.16384745 0.036568765 0.26589653
0.16386695 0.036660355 0.26584953
0.16389963 0.036753695 0.26579747
0.16389963 0.036753692 0.2657975
0.16391918 0.036791697 0.26577646
0.16395307 0.03693537 0.2656993
0.20083284 0.038559251 0.31683749
0.20084593 0.038516477 0.31683475
0.20084593 0.038516473 0.31683472
0.20084591 0.038516473 0.31683478
0.20085283 0.038557488 0.31682077
-0.072054937 0.034117788 0.25042659
-0.072028041 0.034159876 0.25038546
-0.072015516 0.034255888 0.25033322
-0.071982063 0.034373775 0.2502549
-0.071936384 0.034587193 0.25011688
-0.071817257 0.034968574 0.24986754
-0.071730345 0.035158411 0.24971186
-0.048880696 0.024906212 0.18711293
-0.048759315 0.025134919 0.18699217
-0.048651032 0.025503233 0.1867934
-0.048563804 0.025866726 0.18659174
-0.048510034 0.02612187 0.1864555
-0.048472896 0.026260125 0.18637651
-0.048474032 0.026221476 0.1864021
-0.048485357 0.02613258 0.18645781
-0.04850053 0.025983116 0.18654916
-0.048493773 0.025957381 0.1865662
-0.048482306 0.025996769 0.18654686
-0.048477054 0.026008718 0.1865381
-0.048470151 0.026037298 0.18652283
-0.04844559 0.026097044 0.18648386
-0.048411079 0.026234366 0.18639858
0.048157286 0.039850391 0.29523781
0.048220631 0.040203225 0.29501128
0.048314769 0.040632274 0.2947554
0.048450634 0.041183013 0.29440823
0.048570096 0.041458774 0.29423353
0.048674077 0.041847128 0.29401553
0.069985732 0.030935135 0.22895125
0.070004076 0.030983645 0.22892885
0.070024297 0.031008575 0.22892308
0.070044778 0.031031491 0.22891369
0.070075043 0.03120188 0.22882098
0.070112668 0.03137077 0.22872825
0.070165649 0.031585924 0.22860728
0.070189603 0.031756308 0.22851641
0.070223086 0.031874862 0.22845003
0.16391838 0.037170004 0.26557365
0.16392799 0.037221197 0.26553541
0.1639657 0.0373661 0.26544404
0.1639657 0.037366103 0.26544404
0.16398746 0.037407923 0.2654283
0.16400944 0.037483774 0.26538804
0.16403812 0.037415925 0.26543859
0.20082746 0.038824979 0.3168003
0.20082748 0.038824983 0.31680027
0.20082748 0.038824983 0.31680027
0.2008341 0.038865451 0.31678426
-0.071968019 0.034536805 0.250164
-0.071957044 0.034564648 0.25014371
-0.071949713 0.034594014 0.25012228
-0.071884401 0.034830134 0.24996606
-0.071783438 0.035152853 0.2497744
-0.071703836 0.035402518 0.24960756
-0.071667284 0.035650235 0.24946922
-0.071580283 0.035892554 0.2493152
-0.048624173 0.025759965 0.18663976
-0.048600152 0.025822125 0.18661442
-0.048545606 0.026051966 0.18649712
-0.048499025 0.026214076 0.18640906
-0.048449632 0.026431868 0.18629512
-0.048433114 0.026509032 0.18625325
-0.048421696 0.026519692 0.18624768
-0.048417058 0.026518721 0.18624972
-0.048416685 0.026507353 0.18625969
-0.048413754 0.026458219 0.1862904
-0.04840529 0.026457692 0.1862919
-0.048405282 0.026457686 0.18629189
-0.048388131 0.026506038 0.18626076
-0.048372082 0.026546661 0.18623851
-0.048327807 0.026642343 0.18618213
0.048253961 0.040455278 0.29488966
0.048324168 0.040951397 0.29457858
0.048437793 0.041553263 0.29424435
0.04860257 0.042103481 0.29392922
0.048712008 0.042377755 0.29377449
0.048848327 0.042907618 0.29349989
0.048932463 0.043188155 0.29333967
0.070070237 0.03139681 0.22870709
0.070090823 0.031470619 0.22866845
0.070121586 0.031542834 0.22863467
0.070130825 0.031590782 0.22860295
0.070162579 0.031761445 0.22850728
0.070211433 0.031953499 0.22840151
0.070257261 0.03216945 0.22828236
0.070276268 0.032266166 0.22822906
0.070285097 0.032288961 0.22821668
0.16397709 0.037592512 0.26532736
0.16399369 0.037763845 0.26521131
0.16400865 0.037852626 0.26516151
0.1640166 0.037876986 0.26514223
0.16404197 0.037888907 0.26513934
0.16405469 0.037757087 0.26523808
0.16406277 0.037755072 0.2652553
0.20080444 0.039131224 0.31675777
0.20080444 0.03913122 0.31675777
0.20080444 0.039131224 0.31675777
0.20081066 0.039171051 0.31673944
-0.071828239 0.035131987 0.24978562
-0.071795844 0.035219848 0.24974129
-0.071765035 0.035333972 0.24967161
-0.071702264 0.035599649 0.24951768
-0.071679942 0.035677578 0.24945675
-0.0716023 0.036019299 0.24927939
-0.071518272 0.0363166 0.24909835
-0.071491845 0.036493439 0.24903578
-0.048501391 0.026319316 0.18633962
-0.048487023 0.026410423 0.18629821
-0.048451666 0.026522808 0.18623962
-0.048432916 0.026614115 0.18619689
-0.048412539 0.026706021 0.18615209
-0.048384897 0.026779655 0.18611054
-0.048367951 0.026830114 0.18608488
-0.04836252 0.026842486 0.18607907
-0.048342749 0.026879149 0.1860595
-0.048342753 0.026879152 0.18605947
-0.048338626 0.026879814 0.18605918
-0.048337929 0.026854103 0.18607192
-0.048307192 0.026924515 0.18602851
-0.04826282 0.027036982 0.18596502
-0.04823954 0.027070813 0.18594317
0.048301239 0.041435771 0.2943812
0.048404638 0.041783608 0.29416692
0.048537247 0.042279027 0.29388645
0.048710603 0.042769015 0.29362416
0.048882969 0.043254092 0.29337344
0.04897996 0.043775089 0.29310197
0.049014118 0.04399002 0.2929143
0.07015235 0.03186157 0.22846033
0.070172489 0.031932306 0.22841738
0.070212312 0.032052625 0.2283524
0.07022123 0.032151353 0.2282948
0.070251197 0.03229652 0.22821468
0.070296504 0.03246301 0.22812267
0.07033921 0.032629058 0.22802988
0.070347764 0.032651082 0.22801585
0.070372239 0.032722045 0.22797465
0.16404386 0.03823835 0.26493457
0.16406874 0.038354792 0.26486003
0.16406874 0.038354795 0.26486003
0.16408136 0.038265266 0.2649115
0.16408701 0.038150299 0.2650044
0.16410822 0.038058244 0.26506928
0.16411459 0.038003463 0.26512149
0.20077585 0.039434727 0.31670573
0.20078219 0.03947391 0.31668571
0.20078219 0.03947391 0.31668565
-0.071694665 0.035869896 0.24942325
-0.071663693 0.036027908 0.24935098
-0.071626253 0.036165841 0.24925001
-0.07156685 0.036350656 0.24915791
-0.071516939 0.036563225 0.24902473
-0.071472213 0.036709994 0.24892606
-0.071450025 0.036799841 0.24886933
-0.071422301 0.036892284 0.24881609
-0.048441239 0.026706096 0.18613869
-0.048421185 0.02676006 0.18612255
-0.048401076 0.026836833 0.18608381
-0.048381977 0.026885321 0.18605769
-0.048361693 0.026962582 0.18601947
-0.048346154 0.027027488 0.18598786
-0.04832489 0.027101945 0.18594384
-0.048311308 0.027139753 0.18592417
-0.048291713 0.027189713 0.18589841
-0.048279908 0.027211431 0.18588269
-0.048276525 0.02722487 0.18587664
-0.048267718 0.027208615 0.18587884
-0.048231915 0.027292026 0.18582925
-0.048192978 0.027406944 0.18576726
-0.04816781 0.027464518 0.18572947
0.048396934 0.042283121 0.29396525
0.048486255 0.042533588 0.29381385
0.048622556 0.042938586 0.29358947
0.048823033 0.043410193 0.29335907
0.048967116 0.04388649 0.29311574
0.049036823 0.04426356 0.29285961
0.049101837 0.044549767 0.29265639
0.049161702 0.044760585 0.29252082
0.070212342 0.032201432 0.22827439
0.070224658 0.032225706 0.22825578
0.070273116 0.03236822 0.22817792
0.070308104 0.03256052 0.22807091
0.070343629 0.03277868 0.22795276
0.07037022 0.032872591 0.22789942
0.070403352 0.032990593 0.22783397
0.070415728 0.03303656 0.22780624
0.070431136 0.033059858 0.22779286
0.07044109 0.033082541 0.22777733
0.16408427 0.03864453 0.26468697
0.16410503 0.038787715 0.26459959
0.1641134 0.038787838 0.26460069
0.16412526 0.038763747 0.26460889
0.16412528 0.03858966 0.26473072
0.16414507 0.03852649 0.26477706
0.16415153 0.038487148 0.26480371
0.20073107 0.03981556 0.31662458
0.20075376 0.039813727 0.31660828
0.20075376 0.039813727 0.31660828
-0.071609534 0.036375444 0.24916662
-0.071548603 0.036507882 0.2490671
-0.071504302 0.036752459 0.24891593
-0.071449608 0.036921859 0.24879517
-0.07141266 0.037075091 0.24870269
-0.071412653 0.037075099 0.24870272
-0.071412653 0.037075095 0.24870272
-0.071397528 0.037105005 0.24868242
-0.048420385 0.026867729 0.18606374
-0.048395161 0.026955675 0.18602251
-0.048361719 0.027095139 0.18595052
-0.048353933 0.027106252 0.18594496
-0.048335515 0.027168475 0.18591167
-0.048310485 0.027218064 0.18588583
-0.04828313 0.027344596 0.18581858
-0.048257321 0.027432635 0.18577044
-0.048231952 0.02750669 0.18572943
-0.048215739 0.027542897 0.18570913
-0.048198208 0.02756406 0.18569538
-0.048193123 0.027564414 0.18569408
-0.048169937 0.027626429 0.18565817
-0.04813369 0.027722562 0.18559659
-0.048098192 0.027806785 0.18554781
0.048503608 0.042932313 0.29364061
0.048586812 0.043095335 0.29354417
0.048779983 0.043514412 0.29333216
0.048947364 0.044001892 0.29310697
0.049055882 0.044429645 0.29288411
0.049114097 0.04478823 0.29264009
0.049141388 0.04509867 0.29241863
0.049163997 0.045114845 0.29236183
0.07029552 0.032614715 0.22804631
0.070328094 0.032733247 0.22798021
0.070367061 0.032874465 0.22790107
0.070409745 0.033114459 0.22777008
0.07044889 0.033280246 0.2276796
0.070476584 0.033398557 0.22761387
0.070489526 0.033471975 0.22757822
0.070520371 0.033515114 0.22754896
0.070527598 0.033539083 0.22753362
0.16415764 0.039255857 0.26431683
0.16416365 0.039314523 0.26428068
0.16416405 0.03928623 0.26429373
0.1641656 0.039231103 0.2643213
0.16416264 0.039082561 0.26441881
0.16418004 0.039044484 0.26444438
0.16419804 0.039058957 0.2644245
0.20070133 0.04044548 0.31641978
-0.071494117 0.036784414 0.2488977
-0.071478546 0.036873646 0.24883957
-0.071410351 0.037108351 0.24868584
-0.07139615 0.03725059 0.24857865
-0.071356498 0.037360974 0.24849765
-0.071327254 0.037513696 0.24840595
-0.071308933 0.037519172 0.24841022
-0.071304522 0.037491746 0.24843441
-0.048396222 0.02698363 0.1860067
-0.048384711 0.027075643 0.18596506
-0.04834342 0.027240392 0.18588249
-0.048312526 0.027369671 0.18581726
-0.048284955 0.027441612 0.18577649
-0.048271727 0.027478332 0.18575743
-0.048231427 0.027626943 0.18567321
-0.048198823 0.027711235 0.18562558
-0.04817139 0.027797373 0.18557772
-0.048163671 0.027823076 0.18556502
-0.048139125 0.027884016 0.18553193
-0.048129544 0.027911136 0.18551733
-0.048108645 0.027930934 0.18550032
-0.048065484 0.028039128 0.18543918
-0.048049226 0.028105484 0.18540384
0.048778642 0.043766923 0.29320252
0.048938155 0.044057585 0.29306671
0.049048107 0.044491004 0.29286486
0.04910174 0.044768319 0.29270923
0.04913586 0.045123536 0.29245466
0.049143106 0.045489062 0.29220092
0.049173448 0.045603 0.2921285
0.070363313 0.033026047 0.22782478
0.070397183 0.03316807 0.22774617
0.070430391 0.033285212 0.22768217
0.070464432 0.033428069 0.22760516
0.070515007 0.03364161 0.22749092
0.070544362 0.033759233 0.22742544
0.070570089 0.033878446 0.2273616
0.070599221 0.033970624 0.22730778
0.070626408 0.034064025 0.22725491
0.16419315 0.039752223 0.26401436
0.16419512 0.039777845 0.26399758
0.1642061 0.0398308 0.26396656
0.16421179 0.03986105 0.26394439
0.1642082 0.039808072 0.26397499
0.16421202 0.039731495 0.26401207
0.16422094 0.039769307 0.26398897
-0.071429417 0.037209161 0.24863392
-0.071419448 0.037295818 0.24857552
-0.07137876 0.037497763 0.24843623
-0.071346417 0.037638601 0.2483332
-0.071301937 0.037778221 0.2482309
-0.071256287 0.037982505 0.24809435
-0.071166396 0.038279843 0.24786776
-0.070990197 0.038729385 0.24751607
-0.048373483 0.027194342 0.18590629
-0.048337728 0.027320269 0.18583988
-0.048297979 0.027497152 0.18574992
-0.048272479 0.027597906 0.18569751
-0.048239492 0.027710196 0.18563931
-0.048208974 0.027811201 0.18558721
-0.048181754 0.027882703 0.18554489
-0.048131116 0.028043136 0.18545857
-0.048111375 0.028104311 0.18542603
-0.04808462 0.02817858 0.18538868
-0.048062138 0.0282395 0.18535636
-0.048046034 0.028291665 0.18532915
-0.048022542 0.028338267 0.18530111
-0.048002005 0.028385863 0.18527354
-0.047962755 0.028499588 0.18521607
0.048974309 0.044431746 0.29286972
0.049048889 0.044558197 0.29282698
0.049118396 0.044845432 0.29266411
0.049117304 0.045147382 0.29245707
0.049143702 0.045439042 0.29224983
0.049182523 0.045798764 0.29202208
0.049208693 0.045907937 0.29195288
0.070466049 0.033552498 0.227539
0.07049007 0.03364731 0.22748813
0.07050775 0.033693016 0.2274649
0.070548572 0.033859003 0.227377
0.070594788 0.034073368 0.2272626
0.070632681 0.03421298 0.22718188
0.07066083 0.034356009 0.22710221
0.070696466 0.034498561 0.2270246
0.070706069 0.03454547 0.22699527
0.16422229 0.040074259 0.26382506
0.16423029 0.040160649 0.26377684
0.16424339 0.040300973 0.26368701
0.16425209 0.040393252 0.26363608
0.1642521 0.040393248 0.26363608
0.16426048 0.040430266 0.26361451
0.1642594 0.040402707 0.26362818
0.1642607 0.040346391 0.26365253
-0.071411878 0.037760269 0.24831247
-0.071377806 0.037867244 0.24823189
-0.071335837 0.03800334 0.24812728
-0.071277007 0.038251195 0.24794453
-0.071211748 0.038442548 0.24779929
-0.071112737 0.038723234 0.24757242
-0.070896827 0.039277043 0.24714498
-0.070716538 0.039806534 0.24675396
-0.04828579 0.027644135 0.18568078
-0.048240017 0.027806295 0.18559678
-0.048196435 0.027941139 0.18552208
-0.04816534 0.028052134 0.18546307
-0.048141435 0.028112754 0.18543065
-0.048106492 0.028223451 0.18537173
-0.048068263 0.0283769 0.18529896
-0.048034217 0.028460301 0.18525481
-0.048017398 0.028523887 0.18522425
-0.047994837 0.028597433 0.18518595
-0.047978703 0.028675556 0.1851486
-0.047940265 0.028774127 0.18509829
-0.047886152 0.028899876 0.1850246
-0.047858577 0.028962409 0.18499182
0.049106967 0.045138665 0.2924546
0.049115185 0.045158956 0.29245052
0.049148157 0.045350183 0.29232839
0.049150556 0.045436885 0.29228064
0.049186528 0.045826592 0.29200426
0.049231589 0.046124317 0.29182649
0.04922992 0.046251021 0.29173037
0.07057137 0.034078535 0.22725648
0.070603125 0.034171537 0.22721015
0.070638761 0.034312557 0.22713177
0.070674717 0.034479026 0.2270388
0.070702933 0.034646109 0.22694534
0.070741855 0.034861743 0.22682326
0.070773385 0.034952387 0.22676505
