# .PCD v0.7 - Point Cloud Data file format
VERSION 0.7
FIELDS x y z
SIZE 4 4 4
TYPE F F F
COUNT 1 1 1
WIDTH 1362
HEIGHT 1
VIEWPOINT 0 0 0 1 0 0 0
POINTS 1362
DATA ascii
0.025195476 0.076125339 0.16891974
0.025441894 0.076102801 0.16888128
0.025674906 0.076082632 0.16884759
0.025994588 0.076053336 0.1688505
0.026359238 0.07601615 0.16886613
0.02666411 0.075990953 0.16886796
0.027054127 0.075948477 0.16898352
0.027382258 0.075918868 0.16901933
0.027757078 0.07589037 0.16909379
0.028123992 0.075852297 0.16915651
0.028456384 0.075823143 0.16919456
0.028769359 0.075794831 0.1692083
0.029093621 0.0757588 0.16925757
0.029373238 0.075728215 0.1692861
0.029680962 0.075704075 0.16932812
0.030002972 0.075678743 0.16937114
0.030355914 0.075648092 0.16943681
0.030687457 0.075625531 0.16947362
0.03100618 0.075611576 0.16947404
0.031312786 0.075602353 0.16946034
0.031649094 0.075573139 0.16949329
0.03195959 0.075541072 0.16954738
0.032329172 0.075509325 0.16961022
0.032638643 0.075480282 0.16966394
0.032982238 0.075449012 0.16972049
0.033306014 0.075427346 0.16974434
0.03361823 0.075409673 0.16976081
0.033937197 0.075380713 0.16983563
0.034285422 0.075347409 0.16989632
0.034629457 0.075328022 0.16994584
0.034986295 0.075306438 0.16999683
0.035298362 0.07529629 0.17001283
0.035639934 0.075285457 0.17004777
0.035911009 0.075272232 0.17005371
0.036269885 0.075252853 0.1700947
0.036603492 0.075230204 0.17016442
0.036939871 0.075222 0.17019071
0.037303686 0.075204544 0.17025413
0.037627578 0.07519339 0.17026702
0.03799263 0.075166769 0.17032227
0.038293555 0.075148098 0.17034522
0.038650602 0.075132713 0.1704019
0.039069086 0.075105645 0.17050433
0.039413422 0.075093612 0.17054851
0.039759114 0.075086504 0.17058498
0.040140443 0.075075738 0.17064159
0.040449698 0.075070992 0.17067893
0.04077236 0.075063825 0.17072494
0.041112315 0.075052701 0.17076597
0.041434202 0.075046793 0.17080183
0.041755542 0.075036854 0.17084731
0.042107258 0.075032249 0.17088322
0.042478781 0.075014092 0.17095228
0.042877216 0.074987248 0.17104103
0.043271206 0.07496126 0.17112321
0.043655843 0.074942037 0.17119385
0.044031251 0.074909322 0.17129537
0.044383559 0.074912846 0.17132294
0.044787288 0.074901506 0.17138715
0.045160566 0.074901626 0.17143345
0.045516443 0.074897788 0.17148182
0.045787316 0.074905761 0.17150398
0.046162713 0.07489036 0.17157532
0.04649017 0.074893713 0.17162497
0.046897326 0.074901298 0.17168848
0.047234438 0.074903011 0.17172733
0.047535624 0.074905783 0.17176832
0.047912881 0.074901044 0.17183419
0.048300005 0.074907973 0.17189385
0.04866679 0.07490135 0.17195593
0.04905653 0.074896082 0.17202428
0.049348973 0.074910544 0.17205606
0.049687266 0.074919984 0.17210655
0.050066479 0.074916355 0.17217876
0.050403871 0.074926101 0.17222418
0.050760791 0.074943319 0.17227115
0.051114723 0.074956782 0.17232469
0.051409636 0.074963011 0.1723752
0.051709957 0.074967362 0.17242976
0.051931188 0.074947231 0.17247647
0.052135397 0.074928932 0.17252122
0.052342858 0.074940011 0.17254545
0.052510951 0.074939378 0.1725712
0.05269127 0.074953578 0.17258652
0.052887462 0.07495819 0.17261069
0.053044368 0.074977309 0.17261793
0.053223643 0.074988641 0.17264274
0.053415596 0.075015411 0.1726601
0.053621568 0.075030267 0.17269085
0.053850014 0.075051785 0.17271665
0.053994738 0.075073332 0.17272739
0.054113533 0.075105637 0.17272723
0.054287996 0.07513807 0.17273583
0.054475006 0.075183354 0.17274
0.054687396 0.075228453 0.17274942
0.05493829 0.075275302 0.17276981
0.05513769 0.075322486 0.17277999
0.055337276 0.075383566 0.17278689
0.055527683 0.075438626 0.17279901
0.055661887 0.075480141 0.17280371
0.055814255 0.075514078 0.17282188
0.055995055 0.075571492 0.17283253
0.056134172 0.075637579 0.17283462
-0.0090341913 0.086480886 0.18884107
-0.00863826 0.086413182 0.18885806
-0.0082014902 0.086351626 0.18896352
-0.0079169851 0.086295985 0.18898366
-0.0076120794 0.086228669 0.18888804
-0.0072744242 0.086153977 0.18879683
-0.006940566 0.086081766 0.18871026
-0.0065320469 0.085993402 0.18858285
-0.0062095216 0.085926294 0.1885422
-0.0058972444 0.085858822 0.18848187
-0.0054972707 0.085768484 0.18839717
-0.0051755803 0.085695617 0.18837743
-0.004819768 0.085612841 0.18834475
-0.0044914391 0.085536547 0.18830599
-0.0041517694 0.085454382 0.18825163
-0.0038283083 0.085378028 0.18824069
-0.0034989542 0.085299976 0.18821956
-0.0031537269 0.085214548 0.18814604
-0.0028361699 0.085137032 0.18810982
-0.0025315026 0.085061982 0.18807665
-0.002217477 0.084983625 0.18801412
-0.0018669574 0.084897302 0.18797211
-0.0015964021 0.084831081 0.1879174
-0.0012313775 0.084740043 0.18784195
-0.00088095997 0.084656112 0.1878034
-0.00055723975 0.08457347 0.18774661
-0.00024897108 0.08449506 0.18769409
8.1368205e-05 0.084414221 0.18765219
0.00041736916 0.084325597 0.18757457
0.00072011322 0.084249705 0.1875193
0.0010266278 0.084171087 0.18746254
0.0013488343 0.08408758 0.18737991
0.0017132252 0.083990142 0.18721449
0.0020757385 0.083889648 0.18696371
0.0024874262 0.083768703 0.18665382
0.0028187176 0.083680317 0.18654138
0.0031585 0.083590627 0.18644024
0.0034743841 0.083499826 0.18633378
0.0038573425 0.0833961 0.18624477
0.0041792244 0.083304554 0.1861237
0.004550539 0.083177738 0.18581827
0.0048932428 0.083057761 0.18555565
0.0052988585 0.082911447 0.18520895
0.0056365337 0.08279866 0.18497792
0.0060838996 0.082602285 0.18446027
0.0065021338 0.082400426 0.18392964
0.0069252397 0.082136095 0.1831478
0.0073617306 0.081794553 0.1820917
0.0078362972 0.081444502 0.18103258
0.0082942499 0.081134975 0.18015093
0.0086759496 0.080848224 0.17923355
0.0089802016 0.080584146 0.1782686
0.0093137342 0.080280617 0.17722002
0.009663621 0.079993308 0.17625931
0.010168616 0.079657301 0.17521279
0.01058318 0.079361804 0.1742972
0.011056188 0.079122253 0.17372969
0.011495333 0.078881532 0.17306875
0.011951516 0.078678034 0.17253359
0.012335469 0.078525357 0.17218272
0.012656122 0.078426264 0.17207497
0.013007282 0.078325115 0.17198528
0.013335355 0.078230657 0.17184724
0.013839933 0.078074552 0.1713884
0.014228277 0.077975802 0.17116269
0.014617141 0.077889316 0.17106803
0.014933691 0.077818491 0.17098488
0.015312668 0.077726945 0.17081681
0.015593302 0.077661462 0.17072454
0.016018147 0.077560723 0.17055568
0.016375387 0.077487506 0.17047665
0.01672966 0.077411234 0.17033958
0.017084381 0.077339366 0.17017649
0.017512536 0.077248357 0.16998051
0.017900895 0.077176996 0.16981548
0.018266127 0.077103458 0.169696
0.018603833 0.077043287 0.16960183
0.018939896 0.076986074 0.16953607
0.019244054 0.076939292 0.16947772
0.019583553 0.076877691 0.16940987
0.019891158 0.076829486 0.16934206
0.020205177 0.076779634 0.16926096
0.020533593 0.076724701 0.1691722
0.020838067 0.076679349 0.169091
0.021155303 0.076632939 0.16901043
0.021425942 0.076597095 0.16896413
0.021750949 0.076549642 0.16889811
0.022051282 0.076508835 0.16884491
0.022354068 0.07646554 0.16880114
0.022624748 0.076432824 0.1688053
0.022918059 0.076393679 0.16880895
0.023232175 0.076357193 0.16876303
0.023553153 0.076321349 0.1687758
0.023863975 0.076284304 0.16875331
0.024165068 0.076254457 0.16874029
0.024479199 0.076219894 0.168726
0.024805905 0.076178767 0.16881098
0.025066584 0.07615079 0.16881666
0.025347969 0.076123565 0.16880244
0.025649045 0.076095551 0.16878918
0.025931906 0.076075882 0.16877636
0.026275277 0.076038793 0.1688046
0.026619885 0.076005042 0.16883774
0.026984949 0.075973324 0.16892752
0.027360151 0.075935356 0.1690129
0.027710643 0.075911023 0.16904701
0.028084807 0.075873293 0.1691118
0.028431226 0.075836353 0.1691718
0.028710732 0.075811811 0.16917177
0.029000292 0.075789899 0.16919455
0.029309835 0.075755015 0.16924177
0.029657453 0.0757249 0.16927838
0.029967971 0.075697877 0.16932927
0.0303152 0.075664744 0.16939612
0.030624541 0.075647406 0.16942357
0.030960761 0.075632013 0.16943936
0.031269822 0.075618841 0.16943279
0.031574648 0.075602747 0.16942714
0.031917956 0.075574145 0.16947213
0.032262962 0.075536869 0.16954854
0.032594647 0.075501256 0.16961928
0.032936707 0.075474426 0.16966666
0.033256896 0.075450107 0.1697018
0.033585075 0.075428993 0.16972339
0.033885576 0.075418375 0.16973947
0.034248095 0.075377911 0.16983953
0.034594629 0.075349867 0.16990229
0.034925103 0.07533481 0.16995998
0.03525481 0.075331964 0.16995366
0.035537146 0.075327411 0.16994041
0.035867978 0.075299978 0.1699889
0.03621592 0.075281158 0.17004064
0.036564268 0.075276509 0.17009534
0.036927674 0.075261936 0.17013843
0.037271895 0.075247146 0.17016359
0.037612598 0.075215146 0.17024305
0.037928283 0.07519979 0.17026767
0.038316976 0.075175531 0.17033093
0.038654242 0.075162016 0.1703786
0.039027855 0.075147137 0.17042345
0.03940247 0.075116336 0.17052291
0.039748836 0.075115025 0.17055388
0.040116664 0.075113125 0.17059709
0.040481512 0.075102575 0.17064707
0.040814709 0.075088635 0.17070074
0.041109584 0.075096071 0.17070521
0.041394107 0.075096555 0.17072678
0.041693404 0.075092971 0.17075367
0.042060282 0.075079359 0.17082305
0.042448506 0.075055823 0.17089559
0.042857051 0.075038925 0.17097948
0.043269835 0.075004123 0.17107664
0.043615043 0.074985757 0.17113584
0.04397716 0.074991263 0.17117247
0.04432321 0.07499034 0.17121144
0.044707172 0.074969403 0.17129247
0.04507624 0.074967988 0.17134129
0.045452431 0.07496129 0.17140129
0.045785986 0.074967258 0.17144118
0.046097971 0.074971497 0.17147988
0.046511672 0.074958399 0.17156388
0.046868369 0.07496845 0.17160928
0.047191493 0.074979223 0.17164786
0.047573186 0.074981578 0.17171381
0.047917273 0.074976519 0.17177345
0.04829311 0.074975841 0.17183515
0.04863441 0.074983358 0.17188227
0.048976887 0.07498581 0.17192662
0.049317598 0.074991211 0.1719815
0.049659606 0.07500492 0.17202897
0.050029136 0.07500758 0.17209062
0.050446413 0.075033851 0.17214781
0.050767131 0.075051956 0.17218636
0.051092651 0.075056858 0.17224231
0.051431295 0.075049266 0.17231107
0.051712148 0.075038634 0.17236736
0.05193663 0.075035393 0.17240667
0.052137688 0.075032704 0.17244145
0.052306402 0.075040467 0.17245856
0.052509509 0.075046413 0.1724845
0.052671522 0.075050756 0.17250213
0.052860692 0.075060703 0.17252503
0.053022463 0.075080201 0.17253618
0.053201731 0.075111337 0.17254953
0.053429328 0.075115778 0.17259015
0.053647932 0.075139001 0.17261741
0.053847227 0.075161114 0.1726408
0.054056715 0.075164869 0.17267679
0.054156594 0.075200155 0.17267053
0.054323941 0.075227313 0.17268299
0.054522526 0.075269289 0.17269443
0.05471373 0.07532078 0.172701
0.054954458 0.075388141 0.17270944
0.055161759 0.07543613 0.17272368
0.0553388 0.075489059 0.17273249
0.055540662 0.075543217 0.17274778
0.055685855 0.075599022 0.17275129
0.055834569 0.075638063 0.17276439
0.056002978 0.075702794 0.17277396
0.056177825 0.075756647 0.17278986
0.056334212 0.075832032 0.17279527
-0.009424815 0.086611494 0.18919438
-0.0089596706 0.086444102 0.18860289
-0.0086285379 0.086377643 0.18856733
-0.0082221804 0.086307704 0.18856493
-0.0077731884 0.086235821 0.18860556
-0.0074293367 0.086172394 0.18857843
-0.0071424069 0.086111695 0.18853211
-0.0067990487 0.086042345 0.18844302
-0.0064890585 0.085976616 0.18838894
-0.0061650672 0.085909046 0.18832925
-0.0058380649 0.085839249 0.1882921
-0.0054951431 0.085762613 0.1882555
-0.0051574432 0.085685581 0.18821809
-0.0048136865 0.085604668 0.1881915
-0.0044668433 0.085523866 0.18814807
-0.0040945802 0.085434318 0.18809098
-0.0037776004 0.085356057 0.18803005
-0.0034714073 0.08528091 0.18799137
-0.0031459441 0.085198522 0.18791206
-0.0028400619 0.085122496 0.18786511
-0.0025250202 0.085042946 0.18781963
-0.0021902977 0.084958509 0.18776667
-0.0019078758 0.084884934 0.18769874
-0.0015777289 0.084794365 0.18752688
-0.0012516787 0.08471363 0.18745734
-0.00091820583 0.084621437 0.18733837
-0.00058589579 0.08453989 0.18729195
-0.00030953967 0.084470235 0.18726733
2.0013855e-05 0.084379748 0.18714082
0.00032903935 0.084303878 0.18709461
0.00065622892 0.084220193 0.18691719
0.00099604868 0.084132232 0.18683207
0.0013689843 0.084034935 0.18661726
0.0017221892 0.08394146 0.18649016
0.0020873307 0.083828487 0.18624114
0.0024085613 0.083732419 0.18607026
0.0027875097 0.08362364 0.1858992
0.0031139159 0.083525822 0.18572839
0.0034733228 0.083414316 0.18553279
0.0038588915 0.08327058 0.1851808
0.0041875388 0.083163425 0.18496887
0.0045813513 0.082984798 0.18443319
0.0050189714 0.082783498 0.18390259
0.0054316078 0.082574077 0.18333706
0.0058410894 0.082347564 0.18272659
0.0062744291 0.082028434 0.18179199
0.0067051691 0.081664599 0.18064621
0.0071368902 0.081192099 0.17886753
0.0075737578 0.080877863 0.17788602
0.0080464398 0.080579132 0.17701234
0.0084910514 0.080285378 0.17614558
0.0088953692 0.080043025 0.17546305
0.0093747275 0.079759248 0.17470172
0.0097960746 0.079511106 0.1740339
0.010260411 0.079280123 0.1735175
0.010671159 0.079081975 0.17305616
0.011133745 0.078889214 0.17262065
0.011516898 0.078734472 0.1722607
0.011857616 0.07860323 0.17198472
0.012166779 0.07851015 0.1718574
0.012543881 0.078379884 0.1716015
0.012901708 0.078286171 0.17143613
0.013203863 0.078204647 0.17130381
0.013645057 0.078087956 0.1711145
0.014032158 0.077996559 0.17093064
0.014395515 0.077909932 0.17077366
0.014715945 0.077838786 0.17068613
0.015047516 0.077759743 0.17058678
0.015389338 0.077684514 0.1705032
0.015758671 0.077605367 0.1704219
0.016052678 0.077548064 0.17035244
0.016438195 0.077462137 0.17018139
0.016789069 0.077392027 0.17003471
0.017150661 0.077316798 0.16989297
0.017568076 0.077234633 0.16971229
0.017901517 0.077168182 0.16956073
0.018327421 0.077091828 0.16942646
0.018637074 0.077037528 0.16935302
0.018955396 0.076983169 0.16925119
0.019263158 0.076930448 0.16918832
0.019559154 0.076887995 0.16912533
0.019869082 0.076837748 0.16904069
0.020207331 0.076778986 0.16895521
0.020490129 0.076734588 0.16890654
0.020792669 0.076691329 0.16886401
0.021084948 0.076650083 0.16880712
0.021366773 0.076609455 0.16877978
0.021666374 0.076565377 0.16873914
0.02195395 0.076523684 0.1686945
0.022260895 0.076486088 0.16869994
0.022568392 0.076445512 0.1686573
0.02286097 0.076417938 0.16861682
0.023178004 0.076380081 0.16862345
0.023486495 0.076342605 0.16864043
0.023807717 0.076305948 0.16864073
0.024093784 0.076275766 0.16863793
0.024428478 0.076233454 0.16868734
0.02470604 0.076206774 0.16868284
0.024997722 0.076176323 0.16868407
0.025277531 0.076147012 0.16869082
0.025566945 0.076120377 0.16871046
0.025869193 0.076100744 0.16868757
0.026226467 0.076057203 0.16875584
0.026583457 0.076021433 0.16884036
0.026978105 0.075987116 0.16891214
0.027338503 0.075945258 0.16898064
0.027708644 0.075926147 0.16903578
0.028062996 0.075896472 0.16908087
0.028357727 0.075866491 0.16912098
0.028692586 0.075826347 0.16914409
0.028945249 0.075805746 0.1691445
0.029231025 0.075785637 0.16914767
0.029598193 0.075744003 0.16921851
0.029930752 0.075717613 0.16926722
0.030238995 0.075700536 0.16928886
0.030590734 0.075676039 0.1693269
0.030920252 0.075653158 0.16935903
0.031209864 0.07564529 0.16936523
0.031516708 0.075626515 0.16939056
0.031841546 0.075602517 0.16941108
0.032214396 0.075565778 0.1694826
0.032570463 0.075532719 0.16954388
0.032874357 0.075508714 0.16957584
0.033190336 0.075490586 0.16959515
0.033523623 0.075463161 0.16965243
0.033864625 0.075442158 0.16968064
0.034177698 0.075414464 0.16976225
0.034535043 0.075383767 0.16983834
0.034903239 0.075364031 0.16990061
0.035206649 0.075358853 0.16989718
0.035527084 0.075350337 0.16991438
0.035863597 0.075341545 0.16994312
0.036248889 0.075319901 0.17000461
0.036582015 0.075295709 0.17005666
0.036894731 0.075282872 0.17009689
0.037250619 0.075265251 0.17013596
0.037588354 0.075248212 0.17017847
0.03791834 0.07523194 0.17022203
0.038274743 0.075212069 0.17028213
0.038655635 0.075187705 0.17034385
0.039017208 0.075172797 0.17039272
0.039370578 0.075170569 0.17042904
0.039745856 0.075147994 0.17051125
0.040112928 0.075138628 0.17055827
0.040470771 0.07513535 0.17060488
0.040784273 0.075132869 0.17063446
0.041087314 0.075138547 0.17064781
0.041324247 0.075139642 0.17064993
0.041635003 0.07514587 0.17067465
0.042004224 0.075129159 0.17074759
0.04239542 0.07510303 0.17083079
0.042788077 0.075090922 0.17090869
0.043218166 0.075081773 0.17097454
0.043517627 0.075066254 0.17102164
0.043895166 0.075036816 0.17111467
0.044232253 0.075042963 0.1711487
0.044631742 0.075040244 0.17120752
0.045030009 0.075045139 0.17125733
0.045466714 0.075028174 0.1713382
0.04579943 0.075025231 0.17139123
0.04612051 0.075026229 0.17143059
0.046501748 0.075030006 0.17148905
0.046858151 0.075041302 0.17153937
0.04718874 0.075038135 0.17159361
0.047495294 0.075046025 0.17163616
0.047882501 0.075061947 0.17168762
0.048257768 0.075058267 0.1717561
0.048629984 0.075071819 0.17180623
0.048980772 0.075069845 0.17185952
0.049334548 0.075064301 0.17192245
0.049695708 0.075082809 0.17197001
0.050033156 0.075100854 0.17201567
0.050414279 0.075108759 0.1720783
0.050789922 0.075121634 0.17213699
0.051122151 0.07513985 0.1721835
0.051468372 0.075130403 0.17225529
0.051719092 0.075150482 0.17228287
0.051941577 0.075144075 0.17232417
0.05214249 0.075146347 0.1723562
0.052343778 0.075140044 0.17239374
0.052527931 0.075140923 0.17241906
0.052715048 0.075153314 0.17243965
0.052875325 0.075174958 0.17245035
0.053071409 0.075189181 0.17247429
0.05324965 0.075210147 0.17249341
0.053474441 0.075201795 0.17254154
0.053699557 0.075225577 0.17257114
0.053931929 0.075246833 0.17260209
0.054090232 0.075260326 0.17261888
0.054213341 0.075297289 0.17261921
0.054367341 0.075340629 0.17262219
0.054575793 0.075389214 0.17263538
0.054783836 0.075445652 0.17264338
0.054942764 0.075497359 0.17264827
0.055151924 0.075550012 0.17266405
0.055356678 0.075597428 0.17268187
0.05553668 0.075649381 0.17269582
0.055744056 0.075706743 0.17271446
0.055877019 0.0757557 0.17272134
0.056045979 0.075805537 0.17273769
0.056243114 0.075869597 0.17275682
0.056415509 0.075936548 0.17277068
-0.011339463 0.086931884 0.18867181
-0.011149882 0.086897805 0.18867458
-0.0109238 0.086846359 0.18868899
-0.010694028 0.086799301 0.18869293
-0.010405895 0.086735062 0.18861674
-0.010130515 0.086673938 0.18859749
-0.0097879572 0.086608902 0.18858285
-0.0094328783 0.086531512 0.18848525
-0.009072572 0.086456008 0.18840207
-0.0087563498 0.086391121 0.18833603
-0.0084751202 0.086335696 0.18830228
-0.008172797 0.08627566 0.18829034
-0.0078046881 0.086210698 0.18827645
-0.0074363216 0.086143069 0.18827108
-0.007050904 0.08607699 0.18826526
-0.0067431736 0.086013123 0.18821511
-0.006479756 0.085965492 0.18820488
-0.0061314134 0.085894182 0.18815933
-0.0058101891 0.0858256 0.18812114
-0.0054463078 0.08574412 0.18807834
-0.0051002279 0.085662521 0.18801144
-0.0048022452 0.085594192 0.18799803
-0.0044474048 0.085508019 0.18793263
-0.0041146236 0.085427962 0.18787226
-0.0037563248 0.085336581 0.1877649
-0.0034232817 0.085250437 0.18766798
-0.003129893 0.085174076 0.18759666
-0.0027961405 0.085088789 0.18756105
-0.0025181477 0.085019216 0.1875205
-0.0021914279 0.084931426 0.18742512
-0.0019008276 0.084852472 0.18727556
-0.0016119678 0.08477056 0.18711261
-0.0012833994 0.084682211 0.18698728
-0.00095251994 0.084592558 0.1868948
-0.00064501265 0.084519289 0.18686627
-0.00033445813 0.084441155 0.18677786
4.3009943e-05 0.084330834 0.18654656
0.0003812855 0.08423616 0.18631536
0.00068657752 0.084157355 0.18620916
0.0010263753 0.084053718 0.18598704
0.0013758459 0.083973311 0.18595296
0.0017609166 0.083856627 0.18575518
0.0020871458 0.083762355 0.18560773
0.0024344593 0.083657444 0.18542086
0.0027310553 0.083537675 0.18505064
0.0031679978 0.083386414 0.18473706
0.0035121208 0.083220743 0.18419236
0.0040081455 0.082992092 0.18358067
0.0043867398 0.082770795 0.18291749
0.0047332384 0.082521938 0.18214037
0.0052207448 0.082171693 0.18112566
0.0057866848 0.081769682 0.17994288
0.0062366454 0.081447713 0.17891128
0.0067577036 0.081116185 0.1779342
0.0073185829 0.080781318 0.17701583
0.0077541606 0.080419175 0.17585653
0.0083142323 0.080059238 0.17479868
0.0088322954 0.07979954 0.17419259
0.0092267115 0.079595827 0.17372611
0.0095687537 0.079444125 0.17344043
0.0099569755 0.079245508 0.17294763
0.010334389 0.079092696 0.17265262
0.01076832 0.078916565 0.17226069
0.011108493 0.078800134 0.17205223
0.011356671 0.078703508 0.17185009
0.011680219 0.078594409 0.17166917
0.012048163 0.078481108 0.17146336
0.012421942 0.078365602 0.17121868
0.012728786 0.078294091 0.17117237
0.013074875 0.078214169 0.17112423
0.0134098 0.078131564 0.17096844
0.013774304 0.078033239 0.17073035
0.014153056 0.077950172 0.17060114
0.014473272 0.077871218 0.17049769
0.014792772 0.077805899 0.17044604
0.015141929 0.077728949 0.17034616
0.015482961 0.077651344 0.17024477
0.01579278 0.077583373 0.17014131
0.016155081 0.07750944 0.16996287
0.016571131 0.077418938 0.16981968
0.016897535 0.07735505 0.16970976
0.017234419 0.077288643 0.16960377
0.017622212 0.077222064 0.16945799
0.017970592 0.077157229 0.16932955
0.018287364 0.077096999 0.16918786
0.018621862 0.077041939 0.16909741
0.018936496 0.076989353 0.16905604
0.019240515 0.076941118 0.16893679
0.01955791 0.076886684 0.16886939
0.019837761 0.076845936 0.16878948
0.020150684 0.076795526 0.16875766
0.020455664 0.076744474 0.16872695
0.02073743 0.076704696 0.16868706
0.021019103 0.076663211 0.1686687
0.021340732 0.076618209 0.16864124
0.021607129 0.076578125 0.16860569
0.021886226 0.076547377 0.16856651
0.022177476 0.076511629 0.16852936
0.022502773 0.076473325 0.16849189
0.022823403 0.076431751 0.16851753
0.023119899 0.076397792 0.16850519
0.023407698 0.076369628 0.16852929
0.023742449 0.076328486 0.16852874
0.024039624 0.076294817 0.16853073
0.024329357 0.076262102 0.16857366
0.024627479 0.07621976 0.1686126
0.024902612 0.07619375 0.1686108
0.025206586 0.076168068 0.16861962
0.025528269 0.076138243 0.16863933
0.025823794 0.076113343 0.16865519
0.026198331 0.07606864 0.16874433
0.026527807 0.076036319 0.1688126
0.026933257 0.076001719 0.16885498
0.027318992 0.075970024 0.16897337
0.027654761 0.075943179 0.1690083
0.027993472 0.075917847 0.16903348
0.028320549 0.075882703 0.16906478
0.028645704 0.075849518 0.16909271
0.028913559 0.075821809 0.16909394
0.029200118 0.07580886 0.169081
0.029484879 0.075791873 0.16909516
0.029861886 0.07575126 0.1691584
0.030175436 0.075729437 0.16920808
0.030483035 0.075712152 0.16922948
0.03083864 0.075693242 0.16926278
0.03117021 0.075675182 0.16926505
0.031477418 0.075651608 0.16931246
0.031799819 0.075628161 0.1693545
0.032165125 0.075597808 0.16941217
0.032480884 0.075570688 0.16946998
0.032834027 0.075543664 0.16949612
0.033150185 0.075517841 0.16953661
0.03347031 0.075494066 0.16959158
0.033825185 0.075457953 0.16966115
0.034152202 0.075439744 0.16970882
0.034506626 0.075417459 0.16977897
0.034872185 0.07539814 0.16981862
0.035203125 0.075382143 0.16986446
0.035555556 0.075378902 0.16988631
0.035876404 0.075364307 0.16992579
0.036237288 0.075344287 0.16997294
0.036583576 0.075322419 0.17002083
0.036892902 0.075307004 0.17006516
0.037209712 0.075301021 0.17007355
0.037575703 0.075288057 0.1701161
0.037896503 0.075276926 0.17014447
0.038270518 0.075242631 0.17022637
0.038634893 0.075216144 0.17029794
0.038996391 0.075207591 0.17034858
0.039355181 0.075204708 0.17039527
0.039709151 0.075195558 0.17043696
0.040063459 0.075186513 0.17048174
0.040424421 0.075172395 0.17054291
0.040766858 0.07517007 0.17057508
0.041006688 0.075186878 0.17056793
0.041280892 0.075176425 0.17059594
0.041589569 0.075186729 0.17061029
0.041940838 0.075179607 0.17066726
0.042367108 0.075168535 0.17075227
0.042777259 0.075148404 0.17083462
0.043114614 0.075133689 0.17089377
0.04345683 0.075114042 0.17094994
0.043815389 0.075122803 0.17098907
0.044175606 0.075128429 0.17102762
0.044563979 0.075126112 0.17109039
0.044951756 0.075116523 0.17116903
0.045357298 0.075108789 0.17123944
0.045764867 0.075109951 0.17130612
0.046112537 0.075095713 0.17137332
0.04646796 0.075093836 0.17142543
0.046808258 0.075099014 0.17147915
0.047156889 0.075114071 0.17151855
0.047480971 0.07513237 0.17155765
0.047913872 0.075149126 0.17161773
0.048290256 0.075141065 0.17168765
0.048581455 0.07515578 0.17172413
0.048934814 0.075163715 0.17177723
0.049339425 0.075162828 0.17184366
0.049690433 0.075165257 0.17190367
0.050022837 0.075185873 0.17194584
0.050405111 0.075203717 0.17200118
0.050746493 0.075221941 0.17204878
0.051145446 0.075239293 0.17211077
0.051453143 0.075255461 0.1721565
0.051737275 0.075259157 0.1722049
0.051957518 0.075242691 0.17225412
0.05217563 0.075239494 0.17229326
0.052377827 0.07524427 0.17232333
0.052580521 0.075246952 0.17235623
0.052795533 0.075252049 0.1723889
0.052949604 0.075266719 0.17240553
0.053132392 0.075285502 0.1724267
0.053308405 0.075293772 0.17245096
0.053549431 0.075315312 0.1724849
0.053744681 0.075332843 0.17251147
0.053969949 0.07535848 0.17253591
0.054144267 0.075391114 0.17255078
0.054296322 0.075424656 0.17255959
0.054454125 0.075462192 0.17256847
0.054607477 0.075507827 0.1725757
0.054782111 0.075560428 0.17258491
0.054938432 0.075604595 0.17259398
0.05514241 0.075656608 0.17261137
0.055335943 0.075710423 0.17262764
0.055551633 0.075752817 0.17265192
0.055768609 0.075816512 0.17267248
0.055954203 0.07590095 0.17267917
0.05615348 0.07596039 0.17270117
0.056324881 0.076018803 0.17271699
0.05650511 0.076087058 0.1727331
-0.012014503 0.087078154 0.18865049
-0.011831317 0.087036803 0.188619
-0.011627831 0.086990736 0.18864767
-0.011335702 0.086930834 0.18862776
-0.011116239 0.086879708 0.18859527
-0.010807251 0.086816296 0.18856879
-0.010521379 0.086752258 0.1885042
-0.010233066 0.086687788 0.18846372
-0.0098918155 0.086614564 0.18836275
-0.0095836679 0.086546503 0.1883
-0.0092946216 0.086484157 0.1882454
-0.0089722592 0.086424947 0.18819501
-0.0086582266 0.086364068 0.18816389
-0.008369335 0.086306192 0.18812038
-0.0080518052 0.086246021 0.18811092
-0.0077382005 0.086184949 0.18809959
-0.0074248724 0.086123951 0.18806788
-0.0071176072 0.086069487 0.1880468
-0.0067821606 0.086010985 0.1880544
-0.0064522824 0.085944854 0.18801948
-0.0061303247 0.085878566 0.18796371
-0.0057131583 0.085794099 0.18789826
-0.0053792368 0.085717537 0.18786302
-0.0050308867 0.08563409 0.18778858
-0.0047423476 0.085566744 0.18776421
-0.0044073262 0.085483305 0.18766874
-0.0040248837 0.085388862 0.18758175
-0.0036924344 0.085296959 0.18745328
-0.0033865895 0.085216358 0.18736249
-0.0030988208 0.085134156 0.18723549
-0.002815525 0.085063845 0.1872118
-0.0025430203 0.084998697 0.18720885
-0.0022089316 0.084904931 0.18705893
-0.0019314035 0.084832199 0.1869341
-0.0015740315 0.084726922 0.18667682
-0.0012456017 0.084640376 0.18653451
-0.00092109892 0.084550425 0.18641984
-0.00061396568 0.084468499 0.18637995
-0.00026766234 0.084379405 0.18621059
4.7807669e-05 0.084295541 0.1860874
0.00040373029 0.08417926 0.18576649
0.0007716472 0.084056802 0.18545118
0.0010973975 0.083963983 0.185315
0.0014280208 0.083864875 0.18513733
0.0017590654 0.083752587 0.18487121
0.0021287259 0.083619364 0.18456143
0.0025303545 0.083450556 0.18409269
0.0028922667 0.08328224 0.18363157
0.0032858166 0.083037928 0.18279867
0.0037734171 0.082741164 0.18196784
0.0042767823 0.082407802 0.18103324
0.004823613 0.081972495 0.17961581
0.005441491 0.081602097 0.17857827
0.0060280561 0.081254639 0.1776402
0.0065201619 0.080955453 0.17682694
0.0070959432 0.080604866 0.17590308
0.0076377392 0.080253303 0.17490564
0.0081833322 0.079950266 0.1741447
0.0086165937 0.079743132 0.17367814
0.0090316655 0.079537109 0.17320928
0.0092905723 0.079430364 0.17299861
0.0096286647 0.079285555 0.1727009
0.0099520599 0.079152904 0.17242534
0.010331274 0.079005145 0.17213051
0.010659004 0.078884758 0.17188595
0.010943883 0.078790851 0.17174914
0.011225557 0.078699104 0.17161223
0.011557608 0.078582428 0.1714128
0.011868008 0.078493372 0.17125674
0.012236285 0.078394935 0.17108573
0.012537265 0.078315541 0.17096713
0.012869525 0.078226663 0.17083071
0.013197853 0.07814844 0.1706848
0.013529753 0.078070208 0.1705585
0.013949227 0.077974349 0.17044486
0.014271762 0.077891104 0.17031556
0.014580113 0.077828623 0.17022286
0.014968545 0.077740811 0.17008433
0.015233182 0.077682421 0.16999766
0.015562581 0.077612787 0.16994636
0.015928643 0.077539153 0.16981308
0.016281022 0.07746993 0.16971247
0.016566614 0.077409826 0.16960354
0.016951609 0.077339642 0.16945501
0.017309619 0.077275813 0.16933416
0.017664712 0.077207558 0.16922
0.017966766 0.077149838 0.16904838
0.018275172 0.077098653 0.16897053
0.018578937 0.077048145 0.16883995
0.018861672 0.077004798 0.16878451
0.019201208 0.076943859 0.16869514
0.019482015 0.076905169 0.1686563
0.019791745 0.076855518 0.16858134
0.020092325 0.076803185 0.16854076
0.020375593 0.076763973 0.16853076
0.020660419 0.076723553 0.16852653
0.02097325 0.076677352 0.16850597
0.021221837 0.076639205 0.16852623
0.021550354 0.076597676 0.168474
0.021894177 0.076549873 0.16847484
0.022140022 0.076525025 0.16844365
0.02245561 0.076487057 0.16842683
0.022761669 0.076453015 0.16843279
0.023090731 0.076413251 0.16843401
0.02337769 0.07638105 0.16844654
0.023648562 0.07635311 0.16844416
0.023989288 0.076305024 0.16848058
0.024257315 0.076277606 0.16849732
0.024527321 0.076245815 0.16852212
0.024865432 0.076207623 0.16856408
0.025152793 0.07617946 0.16860481
0.025484011 0.076153077 0.1685922
0.025785794 0.076123551 0.16864121
0.026144939 0.076092206 0.16868754
0.026496235 0.076052114 0.16875468
0.026843494 0.076018058 0.16882913
0.027220462 0.075999439 0.1688659
0.027596416 0.075960092 0.16896938
0.027933139 0.075933389 0.16899842
0.028245898 0.075908288 0.16899084
0.028527917 0.075877294 0.169008
0.028832331 0.075859196 0.16900174
0.029155232 0.075830556 0.16902392
0.029450199 0.075815752 0.16901726
0.029749058 0.075797983 0.1690335
0.030105097 0.07576783 0.16909552
0.030440072 0.075735964 0.16915298
0.030784771 0.075721964 0.16920264
0.031094877 0.075703703 0.16920666
0.031420428 0.075683199 0.16922237
0.031737614 0.075656146 0.1692988
0.032134648 0.075611018 0.16938449
0.032450166 0.07558544 0.1694427
0.032796208 0.075565137 0.16945998
0.033120878 0.075550228 0.16946964
0.033426758 0.075523056 0.1695278
0.033770449 0.07549423 0.16958395
0.034148604 0.075457253 0.16967121
0.034463637 0.075446077 0.16971715
0.034820341 0.075437151 0.16975367
0.035165787 0.075418241 0.16980772
0.035509862 0.075398013 0.16985668
0.035852365 0.075390302 0.1698783
0.036170218 0.07538072 0.16990571
0.036514744 0.075357571 0.16996019
0.036816739 0.075344868 0.16998827
0.037172832 0.075327806 0.17003644
0.037531629 0.07531888 0.17006931
0.037919652 0.075300395 0.17011616
0.038247708 0.075276688 0.17017592
0.038610693 0.075258359 0.17022991
0.038969915 0.075242452 0.17029969
0.039292373 0.075240187 0.17032623
0.039631762 0.075242877 0.17036076
0.039971165 0.075247489 0.17038667
0.040304732 0.075242542 0.17041923
0.040623203 0.0752341 0.17045951
0.040941458 0.075225711 0.17049649
0.041244257 0.075223178 0.17052867
0.041578598 0.075226046 0.17056529
0.041905988 0.075228579 0.17060435
0.042318024 0.075224675 0.17067434
0.042704076 0.075209677 0.17074884
0.043080248 0.075193919 0.17082265
0.043427117 0.075174741 0.17088234
0.043776762 0.07517197 0.17092958
0.044160891 0.075177118 0.17098676
0.044514574 0.075180925 0.17103398
0.044899713 0.075188324 0.1710896
0.045366857 0.075191893 0.17116635
0.045761965 0.075181372 0.1712431
0.046152547 0.075175993 0.171306
0.046419639 0.075179562 0.17133318
0.046745878 0.075186692 0.17138337
0.047097433 0.075196281 0.17143108
0.047445677 0.075216249 0.17147353
0.04785005 0.075221062 0.1715437
0.048222717 0.075233839 0.17159595
0.048583671 0.075238965 0.17165555
0.048954152 0.075251222 0.171712
0.049295306 0.075264767 0.17175579
0.049644504 0.075275153 0.17180941
0.050033856 0.075290821 0.17186837
0.050388955 0.075308688 0.17191944
0.050774667 0.075326525 0.17197798
0.051135618 0.075345553 0.17203318
0.051461838 0.075345837 0.17209423
0.051732205 0.075354576 0.17213793
0.0519634 0.075355604 0.17217869
0.052183717 0.075351812 0.1722175
0.052377373 0.075354651 0.17225002
0.052676607 0.075361505 0.17229939
0.052888736 0.075376943 0.17232782
0.053078234 0.075395554 0.17235042
0.053270701 0.075399563 0.17238368
0.053448685 0.075415336 0.17240684
0.053614348 0.075431481 0.17242794
0.05381088 0.075460829 0.17244805
0.053997736 0.075481534 0.17247134
0.054175161 0.075506702 0.1724904
0.054338358 0.075540461 0.1725041
0.054502022 0.075591192 0.1725128
0.054641187 0.075628072 0.17252217
0.054765016 0.075681873 0.17252487
0.054929122 0.075735152 0.17253684
0.055115186 0.075778872 0.17255557
0.055321306 0.075826496 0.17257614
0.055558961 0.07586959 0.1726045
0.055806287 0.075948372 0.17262666
0.055996239 0.076028146 0.17263797
0.056219481 0.07608851 0.17266619
0.056411281 0.076160945 0.17268203
0.056577552 0.076209418 0.17270149
0.056713119 0.076259576 0.17271186
-0.012698188 0.087225236 0.18862768
-0.012516799 0.087186895 0.18863398
-0.012281167 0.087135881 0.18861759
-0.012043144 0.087083749 0.18861979
-0.01181787 0.08703313 0.18860556
-0.011591883 0.086981319 0.18860529
-0.011287333 0.086909458 0.18853465
-0.010978298 0.086838692 0.18845254
-0.010686194 0.086773314 0.18839131
-0.010337591 0.086693421 0.18832703
-0.010055002 0.086635754 0.18827088
-0.0097560566 0.086570039 0.18815111
-0.0094232215 0.086504027 0.1880863
-0.0091424566 0.08644858 0.18805736
-0.0089096799 0.086399384 0.18802275
-0.0086217644 0.086349785 0.18801056
-0.0083344653 0.086295247 0.18799566
-0.0079665147 0.086222664 0.18793583
-0.0076884129 0.086166523 0.18791144
-0.0074017528 0.086108811 0.18789937
-0.0070890025 0.086055502 0.18790849
-0.0068147527 0.085998707 0.18786584
-0.0064898203 0.085936196 0.18780886
-0.0060842456 0.08585456 0.18770771
-0.0056737149 0.085767388 0.18762633
-0.0052507729 0.085664794 0.18749776
-0.0049201911 0.085588381 0.18747114
-0.0045750369 0.08549998 0.18737325
-0.0042643892 0.085419662 0.18728858
-0.0040102848 0.085356541 0.18723954
-0.0037080657 0.085268512 0.18707354
-0.0034117897 0.085189864 0.18699971
-0.0031189311 0.085108116 0.18685102
-0.0028150589 0.085035995 0.18681242
-0.002500115 0.084951669 0.18677272
-0.0021908856 0.084877566 0.18673937
-0.0018900532 0.08478301 0.18649712
-0.001532831 0.084672689 0.18620233
-0.0012154804 0.084593631 0.18611848
-0.00090768578 0.084515542 0.1860221
-0.00059266348 0.084434345 0.18596707
-0.00023534056 0.084319249 0.18569092
0.00011015024 0.084200226 0.18532996
0.00043694081 0.084068097 0.18491203
0.00080899021 0.083937056 0.1845329
0.0011319482 0.083808489 0.18420213
0.0015274133 0.083663009 0.18388075
0.0018921783 0.083477974 0.18331265
0.0023003111 0.083284974 0.1827767
0.0027042781 0.083050281 0.18212259
0.0031789793 0.082744971 0.18123816
0.0037379581 0.082373567 0.1801748
0.0044134082 0.081941694 0.17889215
0.0051242551 0.081554525 0.17792919
0.0057869744 0.081152596 0.17684558
0.0063937306 0.080763146 0.17580123
0.0069753379 0.080424197 0.17494281
0.0075045661 0.080134258 0.1742156
0.0079846038 0.07988935 0.17363358
0.0083884299 0.079693593 0.1731707
0.0087294122 0.079539105 0.17285542
0.0090565337 0.079402655 0.17256466
0.009340764 0.079305761 0.17241369
0.0096028047 0.079199545 0.17220464
0.0098713972 0.079099402 0.17200474
0.010229932 0.078981496 0.17185271
0.010484071 0.078893498 0.17168656
0.010806323 0.078791417 0.17154524
0.011047073 0.078708738 0.17141739
0.011329191 0.078626528 0.1713171
0.011619421 0.078541666 0.17115574
0.011989984 0.078433335 0.17097306
0.01232609 0.078341968 0.17081755
0.012725198 0.0782317 0.17060894
0.01303294 0.078159258 0.17049623
0.013369383 0.078079946 0.17037043
0.013740284 0.077998601 0.17024052
0.014046501 0.077916533 0.17009173
0.01435362 0.077852897 0.16997708
0.014717565 0.077769801 0.1698304
0.015008001 0.077707984 0.16973762
0.015324558 0.077641681 0.16967601
0.0156051 0.077588528 0.16962692
0.015948176 0.077520184 0.16949476
0.016300317 0.077457994 0.16937836
0.016641436 0.077391215 0.16926898
0.016975317 0.077324994 0.16913113
0.017265216 0.077275373 0.16907477
0.017610382 0.077212498 0.16895626
0.017942654 0.077153318 0.16884547
0.01824169 0.077103101 0.16871673
0.018572697 0.077044941 0.16862057
0.018828606 0.077006847 0.16852771
0.019125773 0.076956801 0.1684919
0.019406695 0.076910749 0.16847989
0.019705327 0.076865762 0.16841426
0.02002844 0.076819874 0.16837642
0.020315887 0.076778837 0.16838367
0.020622257 0.076729417 0.16837223
0.020910764 0.076685369 0.16841884
0.021188695 0.076651804 0.16841665
0.021506187 0.076611608 0.16839974
0.021825839 0.076571457 0.16840117
0.02212145 0.076534167 0.16842178
0.022432966 0.076492794 0.16841263
0.022731476 0.076462641 0.1683774
0.023069207 0.076422848 0.16838537
0.023300545 0.076395467 0.16836658
0.023572063 0.076361954 0.16837461
0.023880657 0.076329254 0.16841562
0.024215357 0.076281004 0.16845024
0.024504825 0.076258354 0.16846867
0.024817979 0.076227002 0.16847759
0.025128607 0.07619109 0.16855346
0.02544949 0.076165244 0.16855562
0.025743797 0.076137036 0.1686275
0.026119165 0.076098591 0.16867352
0.02644714 0.076065339 0.16874088
0.026804997 0.076033294 0.16880445
0.027201245 0.0760144 0.16883832
0.027540276 0.07598491 0.16888376
0.027868535 0.075957179 0.16892515
0.028203202 0.07592243 0.168971
0.028483251 0.075897157 0.16896403
0.028783698 0.075877674 0.1689513
0.029094292 0.07586538 0.16894405
0.029387325 0.075841442 0.16894957
0.029672174 0.075810008 0.16897896
0.030017603 0.075799003 0.16899346
0.03036188 0.075769231 0.16904786
0.030712567 0.075748645 0.16911469
0.03103384 0.075717419 0.16916959
0.031357035 0.075703256 0.16918167
0.031708609 0.075678937 0.16923544
0.03204922 0.075652406 0.16928259
0.032410949 0.075625829 0.16932964
0.032750968 0.075592779 0.16940674
0.033059094 0.075574227 0.16942754
0.033407353 0.075555027 0.16945902
0.033749279 0.075518817 0.16954912
0.03410003 0.075488448 0.16962831
0.03445242 0.07547038 0.1696801
0.034795947 0.075460419 0.16972169
0.035126708 0.075454175 0.16974279
0.035467651 0.075431786 0.16979761
0.035803769 0.075425349 0.16982067
0.036159176 0.075412519 0.16984306
0.036451343 0.075399324 0.16988514
0.036766704 0.075393125 0.16989779
0.037101213 0.075384893 0.16992462
0.037455108 0.075356394 0.16998705
0.037828036 0.075344428 0.17003705
0.038212433 0.075315379 0.17011717
0.038554847 0.075309359 0.17015177
0.038902357 0.075304285 0.17019391
0.039253019 0.07529664 0.17024387
0.039560821 0.075287141 0.17028114
0.039905433 0.075282477 0.1703202
0.040177666 0.07527224 0.17034003
0.04058899 0.075278446 0.1703902
0.04093032 0.075281151 0.17041396
0.041254677 0.075282283 0.17046326
0.041589871 0.075277418 0.17050791
0.041915603 0.075273678 0.17055991
0.042315047 0.075262032 0.17063487
0.042680085 0.075265482 0.17067829
0.043039985 0.075258479 0.17073606
0.043375459 0.075248666 0.1707937
0.043763932 0.075250976 0.17085074
0.044114694 0.075248338 0.17090517
0.044516623 0.075244755 0.17097814
0.044929143 0.07525716 0.17104068
0.045317303 0.075256184 0.17110363
0.045649387 0.075262196 0.17114456
0.04603038 0.075265028 0.17120399
0.046354465 0.075276174 0.17124319
0.046698581 0.075275302 0.17130473
0.046996541 0.075289056 0.17133659
0.047380175 0.075295299 0.17140327
0.047802418 0.075318441 0.17146093
0.048164252 0.075331099 0.17151323
0.048516039 0.075344294 0.17156431
0.048899122 0.07535594 0.17161922
0.049240284 0.075359054 0.17167477
0.049657281 0.07537061 0.17174096
0.050009303 0.075383805 0.17179799
0.050347086 0.075407617 0.17184395
0.050749097 0.075424016 0.17190658
0.051094897 0.07545802 0.17194995
0.051448874 0.075465143 0.17201361
0.051715452 0.07547044 0.17205741
0.051929943 0.075474136 0.17209445
0.052117966 0.075483903 0.17212319
0.052377149 0.075486794 0.1721711
0.052687548 0.075491711 0.17221963
0.052960418 0.075515039 0.17226249
0.05314596 0.075523235 0.17229152
0.053344637 0.075532116 0.17232232
0.053515468 0.075542696 0.17234735
0.053679299 0.075562306 0.1723675
0.053863794 0.075585663 0.17239127
0.054020446 0.075605951 0.17240942
0.054205213 0.075639263 0.17242895
0.054374903 0.075681366 0.17244333
0.054536887 0.075723194 0.17245799
0.054681242 0.075762659 0.17247063
0.054779246 0.075818658 0.17247066
0.054948639 0.075848185 0.17249206
0.055151112 0.075905241 0.17251152
0.055323292 0.075950801 0.17252681
0.055597238 0.075986758 0.17256516
0.055827454 0.076057874 0.17258738
0.056057621 0.076145187 0.17260616
0.056256305 0.076205038 0.17262825
0.05644514 0.076261126 0.17264955
0.056607492 0.076322645 0.17266177
0.056746367 0.076367751 0.17267331
-0.012961441 0.087205976 0.18815055
-0.01284707 0.087220453 0.18837886
-0.012690385 0.087214738 0.18853307
-0.012659485 0.087207764 0.18856621
-0.012421415 0.087156177 0.18855475
-0.01224314 0.087118067 0.18855673
-0.011952449 0.08705274 0.18850635
-0.011730717 0.087011606 0.18853486
-0.011484599 0.086955324 0.18848981
-0.011206507 0.086890236 0.18841669
-0.010824299 0.086801738 0.18832996
-0.010507433 0.086727761 0.18824348
-0.010177234 0.086653516 0.18812345
-0.0099157384 0.0865964 0.18808591
-0.0096498234 0.08653792 0.18797283
-0.0093510831 0.08647988 0.18792009
-0.0091021899 0.086427607 0.18787354
-0.0088558188 0.08638557 0.18786827
-0.0085821589 0.086332537 0.18788366
-0.0082967896 0.086281322 0.18787533
-0.0079889093 0.086216286 0.18778515
-0.0076886034 0.086157233 0.18774174
-0.0073940177 0.086098693 0.18771982
-0.0071168905 0.086041562 0.18767934
-0.0068428768 0.085989289 0.18763858
-0.0064942953 0.085919037 0.18752429
-0.0060349628 0.085824519 0.18737607
-0.0055790599 0.085723482 0.18722285
-0.0051621534 0.085618056 0.18708926
-0.0048136367 0.085529715 0.18699305
-0.0044962699 0.085449271 0.18696018
-0.0041900673 0.085369721 0.18688984
-0.0039335438 0.085299954 0.18679526
-0.0036485677 0.085220449 0.18664937
-0.0033133174 0.085127518 0.1865124
-0.0030420749 0.085054211 0.18643008
-0.0027422972 0.084985308 0.18643732
-0.0024963953 0.084925324 0.18643133
-0.0021385786 0.084822536 0.18624263
-0.0018121529 0.084731109 0.18608953
-0.0014245043 0.084614486 0.1858166
-0.0011041199 0.084514603 0.1855513
-0.00078503456 0.084428824 0.18543592
-0.00045554558 0.084321231 0.18521272
-0.00017145876 0.084215969 0.18489693
0.00020554676 0.08406426 0.18442808
0.00060924888 0.08385931 0.18370414
0.0010733763 0.083624072 0.18298544
0.0014816849 0.083425872 0.18248902
0.0018983987 0.083193012 0.18181013
0.0023045703 0.082925588 0.18103622
0.0028264408 0.082628004 0.18024437
0.0035546364 0.082195014 0.17903422
0.0041557089 0.081863672 0.17818291
0.00477613 0.081499867 0.17723085
0.005475461 0.081120193 0.17631927
0.0060857786 0.080746822 0.17537016
0.0067488765 0.08037328 0.17445746
0.0072435457 0.08011768 0.17386048
0.0077409809 0.079869822 0.17328429
0.0080602793 0.079720162 0.17293447
0.0084241461 0.079565197 0.17260468
0.0087180864 0.079435371 0.17232564
0.009033313 0.07931678 0.17209835
0.009249635 0.079243414 0.17196941
0.0095277047 0.079156965 0.17186375
0.0098161642 0.079069957 0.17175917
0.010035177 0.079005666 0.17168051
0.010278968 0.078926153 0.17156015
0.010578838 0.078829795 0.17145237
0.010822325 0.078753404 0.17134888
0.011089663 0.078665525 0.17119294
0.011469388 0.078553751 0.1710287
0.011757833 0.07847327 0.1708875
0.01207931 0.078382201 0.17070091
0.012473865 0.078273743 0.17048536
0.01281385 0.078180604 0.17025018
0.013137732 0.078101248 0.17014502
0.013492061 0.078024007 0.16999771
0.013813823 0.077946551 0.16986872
0.014116202 0.077878885 0.16978514
0.014424716 0.077807344 0.16966316
0.014754395 0.077742755 0.16953935
0.015067834 0.077684864 0.16949715
0.015425134 0.077610061 0.16938436
0.015658479 0.077570572 0.16935538
0.01598195 0.077506289 0.16924916
0.016320515 0.077440254 0.1691377
0.016634887 0.077382267 0.16905262
0.016964918 0.07732068 0.16894305
0.017276993 0.077265054 0.16883042
0.017586974 0.077211507 0.16871427
0.017940117 0.077150658 0.16859694
0.018236771 0.077099904 0.16846627
0.018501073 0.077051915 0.16840054
0.018802002 0.076999076 0.16835071
0.019064946 0.076961592 0.1683277
0.019341519 0.076925606 0.16832209
0.019652804 0.076881014 0.16831969
0.019980071 0.076835215 0.16826349
0.020261999 0.076795764 0.16828345
0.020595055 0.076745071 0.16833143
0.020870605 0.076698422 0.16833465
0.021179991 0.076655149 0.16835988
0.021461667 0.076621391 0.16838606
0.021763984 0.076588787 0.16836494
0.022086263 0.076545648 0.16837509
0.022379892 0.076506227 0.16839436
0.022677597 0.076478779 0.16836531
0.022965958 0.07644812 0.16831814
0.023210337 0.076411813 0.16831848
0.023538636 0.076372877 0.1683023
0.023826977 0.076341167 0.16832845
0.024173025 0.076302141 0.16841902
0.024468824 0.076272815 0.16844361
0.024766462 0.076243289 0.16842727
0.02506558 0.076210871 0.16850561
0.025419742 0.076173633 0.16854592
0.025723917 0.076147601 0.16858353
0.026044233 0.076118767 0.16863169
0.026379161 0.076090269 0.16867381
0.02673899 0.076058455 0.16871154
0.027145579 0.076032259 0.16874939
0.02750208 0.076004319 0.16881581
0.027852245 0.075966969 0.16888149
0.028159702 0.075947367 0.16890107
0.028458862 0.075914204 0.16890009
0.028734872 0.075899787 0.16889612
0.029045839 0.075889535 0.16887766
0.029358281 0.07585533 0.16892071
0.029634625 0.075831637 0.16895299
0.029972404 0.075817354 0.16895355
0.030326035 0.075796105 0.16900475
0.030680636 0.075772494 0.16904709
0.03099414 0.075746775 0.16909811
0.031322028 0.075721376 0.16915143
0.031671867 0.07570225 0.16916795
0.031991765 0.075681768 0.16923179
0.032386113 0.075649232 0.16929786
0.032729603 0.0756272 0.16932429
0.03305633 0.075600468 0.16937712
0.033391602 0.075572938 0.16942209
0.033720262 0.07555005 0.16946606
0.034049727 0.075522937 0.16955307
0.03440778 0.075504489 0.16961259
0.034775916 0.075482398 0.16967973
0.035086643 0.075476378 0.16969921
0.035447396 0.075464003 0.16972816
0.035764772 0.075458407 0.1697443
0.036116567 0.07544411 0.16978134
0.036429506 0.075439058 0.16979608
0.03671737 0.075434275 0.16980761
0.037057735 0.075421818 0.16984804
0.037383135 0.075419232 0.16986504
0.037802394 0.075387709 0.16995858
0.038128406 0.075366758 0.17002453
0.03847824 0.0753484 0.17008522
0.038835306 0.075342506 0.17013229
0.039184235 0.075337611 0.17017108
0.039540678 0.075343974 0.17019165
0.039847769 0.075335868 0.17021981
0.040160764 0.075339556 0.17024997
0.040547267 0.075329885 0.17031196
0.040907312 0.075316146 0.17037797
0.041271705 0.075321965 0.17042834
0.041619286 0.075325482 0.17047019
0.041952245 0.075329401 0.17050385
0.042313378 0.075325169 0.17056562
0.042669881 0.075311698 0.17063396
0.043032456 0.075312413 0.17068583
0.043373678 0.075307384 0.17073816
0.04374158 0.075310528 0.17079055
0.044154752 0.075314589 0.17085615
0.044532027 0.075330116 0.17090173
0.044943478 0.075351723 0.17095493
0.04526097 0.075352639 0.17100219
0.04562534 0.075342096 0.1710759
0.045963656 0.075347893 0.1711207
0.046294026 0.075357221 0.17116635
0.046574991 0.075362369 0.1712047
0.046927739 0.075382262 0.17125015
0.047354311 0.07539776 0.17131548
0.047773503 0.075417481 0.1713807
0.048170153 0.075427175 0.17144372
0.048544634 0.075438023 0.17150129
0.048861425 0.075460002 0.17154005
0.049203526 0.075464875 0.1715968
0.049606517 0.075469568 0.17166217
0.049984831 0.075494185 0.17171551
0.050315041 0.075515799 0.17176397
0.050664201 0.075539857 0.17181298
0.051081527 0.075567916 0.17187506
0.0514296 0.075588681 0.1719301
0.05170719 0.075602449 0.17197601
0.051912773 0.075601965 0.17201459
0.052118 0.075608395 0.17204939
0.05239382 0.075613484 0.17209898
0.052704122 0.075631738 0.17214707
0.052981839 0.075647369 0.17219245
0.053188708 0.075655311 0.17222744
0.053391006 0.075661831 0.17226063
0.053543825 0.075673625 0.17228338
0.053710375 0.075689562 0.17230724
0.053854413 0.075709835 0.17232461
0.054060765 0.075745724 0.17234935
0.054240055 0.075777084 0.17237115
0.054424636 0.07582251 0.17239101
0.054573532 0.075849228 0.1724111
0.054760359 0.075888596 0.17243482
0.054853164 0.07593514 0.17243813
0.055013578 0.075977273 0.17245521
0.055205029 0.076021187 0.17247684
0.05543305 0.076081626 0.1724975
0.055674862 0.076102488 0.17253605
0.05586702 0.076166749 0.17255412
