# .PCD v0.7 - Point Cloud Data file format
VERSION 0.7
FIELDS x y z
SIZE 4 4 4
TYPE F F F
COUNT 1 1 1
WIDTH 1381
HEIGHT 1
VIEWPOINT 0 0 0 1 0 0 0
POINTS 1381
DATA ascii
0.030387744 0.078123756 0.20234042
0.030768195 0.078041606 0.20212767
0.031131366 0.07791838 0.20180851
0.031476606 0.077754088 0.20138298
0.031853799 0.07767193 0.20117021
0.032213066 0.077548712 0.20085107
0.032571025 0.077425487 0.20053191
0.032927684 0.077302262 0.20021276
0.033283044 0.077179044 0.19989362
0.033637099 0.077055819 0.19957447
0.03398985 0.076932594 0.19925532
0.034341298 0.076809369 0.19893616
0.034691449 0.076686151 0.19861703
0.035059091 0.076603994 0.19840425
0.03540685 0.076480769 0.1980851
0.035772543 0.076398626 0.19787234
0.036117915 0.076275401 0.19755319
0.036442317 0.076111101 0.19712766
0.036764987 0.0759468 0.19670212
0.037065815 0.075741433 0.19617021
0.037384793 0.075577132 0.19574468
0.037722569 0.075453907 0.19542553
0.038079794 0.075371765 0.19521277
0.038478091 0.075371765 0.19521277
0.038855199 0.07533069 0.19510639
0.03923187 0.075289607 0.19499999
0.039608113 0.075248539 0.19489361
0.039983921 0.075207464 0.19478723
0.040337242 0.075125314 0.19457448
0.040711958 0.075084239 0.19446808
0.041063759 0.075002089 0.19425532
0.041391984 0.074878864 0.19393617
0.041695986 0.074714571 0.19351064
0.042021386 0.074591346 0.19319148
0.042392202 0.074550271 0.1930851
0.042786155 0.074550271 0.1930851
0.043180112 0.074550271 0.1930851
0.04352605 0.074468121 0.19287235
0.04387112 0.074385971 0.19265957
0.044166438 0.074221671 0.19223404
0.04443536 0.074016303 0.19170213
0.044652361 0.073728777 0.19095744
0.044866323 0.07344126 0.19021277
0.045077246 0.073153734 0.18946809
0.045310657 0.072907291 0.18882979
0.045541465 0.072660841 0.18819149
0.045769669 0.072414398 0.1875532
0.045942906 0.072085798 0.18670213
0.046139069 0.07179828 0.18595745
0.046332192 0.071510755 0.18521276
0.046522282 0.071223237 0.18446809
0.046655234 0.070853561 0.18351063
0.046811547 0.070524968 0.18265958
0.046991862 0.070237443 0.1819149
0.047252238 0.07007315 0.18148936
0.047566701 0.069990993 0.18127659
0.047936559 0.069990993 0.18127659
0.04830642 0.069990993 0.18127659
0.048647717 0.069949925 0.18117021
0.048959795 0.069867775 0.18095745
0.049242005 0.06974455 0.1806383
0.049552128 0.0696624 0.18042552
0.04989082 0.069621325 0.18031915
0.050229076 0.069580249 0.18021277
0.050566901 0.069539182 0.18010639
0.050904289 0.069498107 0.18000001
0.051241241 0.069457024 0.17989361
0.051577762 0.069415957 0.17978723
0.051944584 0.069415957 0.17978723
0.052280452 0.069374882 0.17968085
0.052615888 0.069333807 0.17957447
0.0529195 0.069251657 0.1793617
0.053253848 0.069210581 0.17925532
0.053587765 0.069169506 0.17914894
0.053921241 0.069128431 0.17904255
0.05425429 0.069087356 0.17893617
0.054554433 0.069005214 0.17872341
0.054853704 0.068923056 0.17851064
0.055185013 0.068881989 0.17840426
0.055515893 0.068840913 0.17829788
0.05584633 0.068799831 0.17819148
0.056209896 0.068799831 0.17819148
0.056607243 0.068840913 0.17829788
0.056971025 0.068840913 0.17829788
0.057334807 0.068840913 0.17829788
0.057664163 0.068799831 0.17819148
0.024981389 0.078412719 0.20202127
0.025513925 0.078784347 0.20297873
0.026009599 0.079032093 0.20361702
0.026438847 0.079073384 0.2037234
0.026812438 0.078949511 0.20340426
0.027170485 0.078784347 0.20297873
0.027541254 0.078660466 0.20265958
0.027940068 0.078619175 0.2025532
0.028338447 0.078577884 0.2024468
0.028721286 0.078495301 0.20223404
0.029087929 0.078371428 0.20191489
0.02945327 0.078247547 0.20159574
0.029817311 0.078123681 0.2012766
0.030180046 0.0779998 0.20095745
0.030557673 0.077917218 0.20074467
0.030918024 0.077793345 0.20042554
0.031277072 0.077669472 0.20010638
0.031651661 0.077586889 0.19989362
0.032025382 0.0775043 0.19968085
0.032398239 0.077421725 0.19946809
0.032752726 0.077297844 0.19914894
0.0330882 0.07713268 0.19872341
0.033439863 0.077008806 0.19840425
0.033790231 0.076884925 0.1980851
0.034120928 0.076719768 0.19765958
0.034468472 0.076595888 0.19734043
0.034814712 0.076472014 0.19702128
0.035159651 0.076348133 0.19670212
0.035503287 0.076224267 0.19638298
0.035865068 0.076141678 0.19617021
0.03618665 0.075976513 0.19574468
0.036526382 0.07585264 0.19542553
0.03686481 0.075728767 0.19510639
0.037222251 0.075646177 0.19489361
0.037578825 0.075563602 0.19468085
0.037934531 0.075481012 0.19446808
0.038331307 0.075481012 0.19446808
0.038728081 0.075481012 0.19446808
0.039103456 0.075439721 0.1943617
0.039478395 0.07539843 0.19425532
0.039852899 0.075357147 0.19414894
0.040226966 0.075315848 0.19404255
0.040600605 0.075274557 0.19393617
0.040951319 0.075191975 0.19372341
0.041278459 0.075068101 0.19340426
0.041581374 0.074902937 0.19297872
0.041882552 0.074737765 0.19255319
0.042205349 0.074613892 0.19223404
0.042550422 0.074531309 0.19202128
0.04289462 0.074448727 0.19180851
0.043213949 0.074324854 0.19148937
0.043483522 0.074118391 0.19095744
0.043726485 0.073870644 0.19031915
0.043966841 0.07362289 0.18968084
0.044154845 0.073292561 0.18882979
0.04433937 0.072962232 0.18797873
0.044545736 0.072673187 0.18723404
0.044749059 0.072384149 0.18648936
0.044975094 0.072136395 0.18585107
0.045198519 0.071888648 0.18521276
0.045419343 0.071640901 0.18457447
0.045637555 0.071393147 0.18393616
0.045826562 0.071104109 0.18319149
0.04603935 0.070856355 0.18255319
0.046249539 0.070608608 0.1819149
0.046484385 0.070402153 0.18138298
0.04674454 0.070236988 0.18095745
0.047058351 0.070154399 0.18074468
0.047427125 0.070154399 0.18074468
0.047795903 0.070154399 0.18074468
0.048193026 0.07019569 0.18085106
0.048533455 0.070154399 0.18074468
0.048844665 0.070071816 0.18053192
0.049126007 0.069947943 0.18021277
0.049435265 0.069865361 0.18000001
0.049773082 0.06982407 0.17989361
0.050080821 0.069741488 0.17968085
0.050387688 0.069658898 0.17946808
0.050693691 0.069576323 0.17925532
0.050998822 0.069493733 0.17904255
0.051364124 0.069493733 0.17904255
0.051729426 0.069493733 0.17904255
0.052063778 0.069452442 0.17893617
0.052397694 0.069411151 0.17882979
0.052699786 0.069328569 0.17861702
0.053032614 0.069287278 0.17851064
0.053396832 0.069287278 0.17851064
0.053729013 0.069245987 0.17840426
0.054060757 0.069204696 0.17829788
0.054359592 0.069122113 0.1780851
0.054690253 0.069080822 0.17797872
0.055020481 0.069039531 0.17787234
0.055383395 0.069039531 0.17787234
0.055712964 0.068998232 0.17776595
0.056075662 0.068998232 0.17776595
0.05643836 0.068998232 0.17776595
0.056801058 0.068998232 0.17776595
0.057163756 0.068998232 0.17776595
0.057526454 0.068998232 0.17776595
0.057819869 0.06891565 0.17755319
0.024131574 0.078741886 0.20180851
0.02453039 0.078700379 0.20170213
0.024968235 0.078783393 0.20191489
0.025447063 0.078990936 0.2024468
0.025914475 0.079156972 0.20287234
0.026342206 0.079198487 0.20297873
0.026714275 0.079073958 0.20265958
0.027056564 0.078866415 0.20212767
0.027411137 0.078700379 0.20170213
0.027763976 0.078534342 0.2012766
0.028129967 0.078409821 0.20095745
0.028509764 0.078326799 0.20074467
0.028888697 0.078243785 0.20053191
0.029251216 0.078119256 0.20021276
0.029628195 0.078036241 0.2
0.030004302 0.077953219 0.19978723
0.030379545 0.077870205 0.19957447
0.030753916 0.077787183 0.1993617
0.031110793 0.077662662 0.19904256
0.031483211 0.077579647 0.19882978
0.031854764 0.077496633 0.19861703
0.032208167 0.077372104 0.19829787
0.032560267 0.077247575 0.19797872
0.032893352 0.077081539 0.19755319
0.033242635 0.076957017 0.19723405
0.033572465 0.076790981 0.19680852
0.033900559 0.076624952 0.19638298
0.034226913 0.076458916 0.19595745
0.034570333 0.076334387 0.1956383
0.034912448 0.076209858 0.19531915
0.035272498 0.076126844 0.19510639
0.035631675 0.076043822 0.19489361
0.035989985 0.075960808 0.19468085
0.036347426 0.075877786 0.19446808
0.036724102 0.075836278 0.1943617
0.037100345 0.075794771 0.19425532
0.037476152 0.075753264 0.19414894
0.037851524 0.075711757 0.19404255
0.038226463 0.07567025 0.19393617
0.038600966 0.075628743 0.19382979
0.038996439 0.075628743 0.19382979
0.039348673 0.075545721 0.19361702
0.039721873 0.075504214 0.19351064
0.040094644 0.075462706 0.19340426
0.040444702 0.075379685 0.19319148
0.040793899 0.07529667 0.19297872
0.04111952 0.075172141 0.19265957
0.041397993 0.074964598 0.19212766
0.041674297 0.074757062 0.19159575
0.04194843 0.074549519 0.19106384
0.042243965 0.074383482 0.1906383
0.042490181 0.074134424 0.19
0.042733796 0.073885381 0.18936171
0.042950578 0.073594816 0.18861702
0.043188766 0.073345765 0.18797873
0.043399688 0.073055208 0.18723404
0.04360757 0.072764643 0.18648936
0.043812416 0.072474085 0.18574469
0.044014223 0.07218352 0.185
0.04421299 0.071892962 0.18425532
0.044460207 0.071685418 0.18372341
0.044731218 0.071519382 0.18329787
0.044974312 0.071311839 0.18276596
0.045215234 0.071104303 0.18223405
0.045453984 0.070896752 0.18170212
0.045717396 0.070730716 0.18127659
0.045979071 0.07056468 0.18085106
0.046266276 0.070440158 0.18053192
0.046579652 0.070357144 0.18031915
0.046919864 0.070315637 0.18021277
0.047287554 0.070315637 0.18021277
0.047683377 0.070357144 0.18031915
0.048051283 0.070357144 0.18031915
0.048390623 0.070315637 0.18021277
0.04870075 0.070232622 0.18000001
0.049010005 0.070149601 0.17978723
0.049318396 0.070066586 0.17957447
0.049625915 0.069983564 0.1793617
0.049932566 0.06990055 0.17914894
0.050238349 0.069817528 0.17893617
0.050513178 0.069692999 0.17861702
0.050786708 0.069568478 0.17829788
0.05115049 0.069568478 0.17829788
0.051514275 0.069568478 0.17829788
0.051878057 0.069568478 0.17829788
0.052210666 0.06952697 0.17819148
0.052511461 0.069443949 0.17797872
0.05284299 0.069402441 0.17787234
0.053205904 0.069402441 0.17787234
0.053536776 0.069360934 0.17776595
0.053867221 0.069319427 0.17765957
0.054164756 0.069236413 0.17744681
0.054494113 0.069194898 0.17734042
0.054888852 0.069236413 0.17744681
0.055250898 0.069236413 0.17744681
0.055612944 0.069236413 0.17744681
0.055941429 0.069194898 0.17734042
0.056269486 0.069153391 0.17723404
0.056631099 0.069153391 0.17723404
0.056992713 0.069153391 0.17723404
0.057354324 0.069153391 0.17723404
0.057681296 0.069111884 0.17712766
0.05793811 0.068987355 0.17680851
0.023017013 0.079570897 0.20287234
0.02338179 0.079403989 0.2024468
0.023757335 0.079278819 0.20212767
0.024131574 0.079153642 0.20180851
0.02451745 0.079070188 0.20159574
0.024915613 0.079028465 0.20148936
0.025340086 0.079070188 0.20159574
0.025778584 0.079153642 0.20180851
0.026176531 0.079111919 0.20170213
0.026531974 0.078945011 0.2012766
0.026885679 0.07877811 0.20085107
0.027223192 0.078569479 0.20031916
0.027573207 0.078402579 0.19989362
0.027936378 0.078277402 0.19957447
0.028313354 0.078193948 0.1993617
0.028689465 0.078110501 0.19914894
0.029080249 0.07806877 0.19904256
0.029470596 0.07802704 0.19893616
0.029844536 0.077943593 0.19872341
0.0302338 0.07790187 0.19861703
0.030606218 0.077818416 0.19840425
0.030961141 0.077693239 0.1980851
0.031314764 0.077568062 0.19776596
0.03166708 0.077442884 0.19744681
0.032000817 0.077275984 0.19702128
0.032350313 0.077150807 0.19670212
0.032680795 0.076983899 0.19627659
0.03302747 0.076858729 0.19595745
0.033354696 0.076691829 0.19553192
0.033680186 0.076524921 0.19510639
0.034003939 0.07635802 0.19468085
0.034344751 0.076232843 0.1943617
0.034703281 0.076149389 0.19414894
0.035060938 0.076065935 0.19393617
0.035437182 0.076024212 0.19382979
0.035812989 0.075982489 0.19372341
0.036208242 0.075982489 0.19372341
0.036583398 0.075940758 0.19361702
0.036978435 0.075940758 0.19361702
0.037373476 0.075940758 0.19361702
0.037768513 0.075940758 0.19361702
0.038121618 0.075857311 0.19340426
0.038473848 0.075773858 0.19319148
0.038846616 0.075732134 0.1930851
0.039197333 0.07564868 0.19287235
0.039547175 0.075565226 0.19265957
0.039896157 0.07548178 0.19244681
0.040266532 0.075440049 0.19234042
0.040569015 0.075273149 0.19191489
0.040869761 0.075106248 0.19148937
0.041122925 0.074855894 0.19085106
0.041373484 0.074605539 0.19021277
0.041598078 0.074313462 0.18946809
0.041819636 0.074021377 0.1887234
0.042014364 0.073687568 0.18787234
0.042205621 0.073353767 0.18702127
0.042393405 0.073019959 0.18617021
0.042602159 0.072727881 0.18542553
0.042857192 0.072519258 0.18489362
0.043085176 0.072268896 0.18425532
0.043310557 0.072018549 0.18361703
0.043558642 0.071809918 0.18308511
0.04377903 0.071559563 0.18244681
0.044048302 0.071392663 0.18202128
0.044341795 0.071267478 0.18170212
0.044607811 0.071100578 0.18127659
0.044898491 0.070975408 0.18095745
0.045187861 0.070850223 0.1806383
0.04547593 0.070725046 0.18031915
0.045789748 0.0706416 0.18010639
0.046102691 0.070558146 0.17989361
0.046469729 0.070558146 0.17989361
0.046809074 0.070516422 0.17978723
0.047175895 0.070516422 0.17978723
0.047570847 0.070558146 0.17989361
0.047909539 0.070516422 0.17978723
0.048247796 0.070474699 0.17968085
0.048556834 0.070391245 0.17946808
0.048836008 0.070266068 0.17914894
0.049143091 0.070182614 0.17893617
0.04944931 0.070099168 0.17872341
0.049784306 0.070057437 0.17861702
0.05002927 0.069890536 0.17819148
0.050302584 0.069765359 0.17787234
0.050604891 0.069681905 0.17765957
0.050967373 0.069681905 0.17765957
0.051360589 0.069723628 0.17776595
0.051723287 0.069723628 0.17776595
0.052023645 0.069640182 0.17755319
0.052323133 0.069556728 0.17734042
0.052653357 0.069515005 0.17723404
0.053014971 0.069515005 0.17723404
0.053344548 0.069473282 0.17712766
0.053673688 0.069431551 0.17702128
0.05396992 0.069348097 0.17680851
0.054330662 0.069348097 0.17680851
0.054724317 0.069389828 0.1769149
0.055118401 0.069431551 0.17702128
0.055446241 0.069389828 0.1769149
0.055773642 0.069348097 0.17680851
0.056100611 0.069306374 0.17670213
0.056461141 0.069306374 0.17670213
0.056855876 0.069348097 0.17680851
0.057251051 0.069389828 0.1769149
0.057577364 0.069348097 0.17680851
0.05783353 0.069222927 0.17648937
0.058053315 0.069056027 0.17606384
0.021540547 0.080655903 0.20457447
0.021912269 0.08048813 0.20414893
0.022258982 0.08023648 0.20351064
0.022603091 0.079984814 0.20287234
0.022968736 0.079817049 0.2024468
0.023332642 0.079649277 0.20202127
0.023694813 0.079481505 0.20159574
0.02406797 0.079355679 0.2012766
0.024426885 0.079187907 0.20085107
0.024810374 0.079104021 0.20063829
0.025192995 0.079020135 0.20042554
0.025588337 0.078978196 0.20031916
0.025969438 0.07889431 0.20010638
0.026349671 0.078810424 0.19989362
0.026700556 0.078642651 0.19946809
0.027049704 0.078474879 0.19904256
0.027411789 0.078349054 0.19872341
0.027772572 0.078223221 0.19840425
0.028147163 0.078139342 0.19819149
0.028536208 0.078097396 0.1980851
0.028924821 0.078055449 0.19797872
0.029313 0.07801351 0.19787234
0.029700745 0.07797157 0.19776596
0.030088056 0.077929631 0.19765958
0.030458521 0.077845737 0.19744681
0.030794863 0.077677965 0.19702128
0.031129468 0.077510193 0.19659574
0.031445276 0.077300481 0.19606383
0.03177619 0.077132709 0.1956383
0.032122865 0.077006884 0.19531915
0.032468237 0.076881051 0.19499999
0.032830238 0.076797172 0.19478723
0.033173222 0.07667134 0.19446808
0.03349654 0.076503567 0.19404255
0.033836707 0.076377742 0.19372341
0.034175567 0.076251917 0.19340426
0.034532137 0.076168031 0.19319148
0.034907077 0.076126084 0.1930851
0.035301033 0.076126084 0.1930851
0.035675321 0.076084144 0.19297872
0.036069058 0.076084144 0.19297872
0.036462795 0.076084144 0.19297872
0.036856532 0.076084144 0.19297872
0.037250265 0.076084144 0.19297872
0.037623253 0.076042205 0.19287235
0.0379958 0.076000258 0.19276595
0.038325548 0.075874433 0.19244681
0.038632587 0.075706661 0.19202128
0.038959511 0.075580828 0.19170213
0.039306968 0.075496949 0.19148937
0.039631505 0.075371116 0.19117022
0.039954737 0.075245291 0.19085106
0.04023169 0.075035572 0.19031915
0.040483765 0.074783914 0.18968084
0.040733241 0.074532263 0.18904255
0.040980112 0.074280605 0.18840426
0.04117766 0.073945068 0.1875532
0.04137174 0.073609523 0.18670213
0.041514762 0.073190093 0.18563829
0.041677453 0.072812609 0.18468085
0.041860461 0.072477065 0.18382978
0.042088881 0.072225414 0.18319149
0.042364012 0.072057642 0.18276596
0.042637408 0.07188987 0.18234043
0.042909067 0.071722098 0.1819149
0.04317899 0.071554326 0.18148936
0.043472704 0.0714285 0.18117021
0.043739371 0.071260728 0.18074468
0.04403026 0.071134895 0.18042552
0.044346031 0.071051016 0.18021277
0.044660933 0.07096713 0.18000001
0.045001574 0.070925184 0.17989361
0.045314956 0.070841305 0.17968085
0.045681562 0.070841305 0.17968085
0.045993637 0.070757411 0.17946808
0.046359807 0.070757411 0.17946808
0.046698283 0.070715472 0.1793617
0.047064237 0.070715472 0.1793617
0.047402058 0.070673533 0.17925532
0.047739446 0.070631586 0.17914894
0.048047833 0.0705477 0.17893617
0.048355356 0.070463821 0.17872341
0.048662007 0.070379928 0.17851064
0.04896779 0.070296049 0.17829788
0.049272705 0.070212156 0.1780851
0.049606401 0.070170216 0.17797872
0.049850062 0.070002444 0.17755319
0.050152153 0.069918558 0.17734042
0.05045338 0.069834672 0.17712766
0.050845295 0.069876619 0.17723404
0.051206905 0.069876619 0.17723404
0.051568519 0.069876619 0.17723404
0.051867794 0.069792733 0.17702128
0.052197587 0.069750793 0.1769149
0.05252694 0.069708847 0.17680851
0.052855864 0.0696669 0.17670213
0.053184353 0.06962496 0.17659575
0.053512409 0.069583021 0.17648937
0.053840026 0.069541074 0.17638297
0.054199904 0.069541074 0.17638297
0.054592691 0.069583021 0.17648937
0.054952782 0.069583021 0.17648937
0.055279531 0.069541074 0.17638297
0.055605851 0.069499135 0.17627659
0.055931736 0.069457188 0.17617022
0.056325171 0.069499135 0.17627659
0.056719039 0.069541074 0.17638297
0.057147767 0.06962496 0.17659575
0.057508081 0.06962496 0.17659575
0.057763807 0.069499135 0.17627659
0.057983156 0.069331363 0.17585106
0.020077351 0.080230102 0.2024468
0.020555012 0.080483064 0.20308511
0.021013306 0.0806517 0.20351064
0.021439733 0.080693863 0.20361702
0.02182092 0.080567382 0.20329787
0.022165898 0.08031442 0.20265958
0.022496417 0.080019303 0.20191489
0.022848038 0.079808503 0.20138298
0.023197489 0.079597704 0.20085107
0.023569776 0.079471223 0.20053191
0.023928041 0.079302587 0.20010638
0.024297506 0.079176106 0.19978723
0.024665669 0.079049632 0.19946809
0.025045902 0.078965306 0.19925532
0.025425266 0.078880988 0.19904256
0.025803763 0.07879667 0.19882978
0.026181392 0.078712352 0.19861703
0.026543912 0.078585871 0.19829787
0.026905129 0.07845939 0.19797872
0.027265046 0.078332916 0.19765958
0.027638549 0.07824859 0.19744681
0.028011186 0.078164272 0.19723405
0.028398277 0.078122109 0.19712766
0.028784938 0.078079954 0.19702128
0.029171163 0.078037791 0.1969149
0.029556956 0.077995636 0.19680852
0.029926118 0.07791131 0.19659574
0.030278001 0.077784829 0.19627659
0.030611955 0.077616192 0.19585106
0.030927328 0.077405393 0.19531915
0.03124053 0.077194594 0.19478723
0.031586118 0.077068113 0.19446808
0.031930409 0.076941639 0.19414894
0.032291107 0.076857321 0.19393617
0.032668866 0.076815158 0.19382979
0.033028044 0.07673084 0.19361702
0.033367991 0.076604359 0.19329788
0.033706635 0.076477878 0.19297872
0.034043975 0.076351397 0.19265957
0.034418046 0.076309241 0.19255319
0.034791682 0.076267086 0.19244681
0.035184335 0.076267086 0.19244681
0.035557318 0.076224916 0.19234042
0.03592987 0.07618276 0.19223404
0.036301985 0.076140605 0.19212766
0.036673669 0.076098442 0.19202128
0.037044916 0.076056279 0.19191489
0.037415732 0.076014124 0.19180851
0.037765145 0.075929806 0.19159575
0.03805013 0.075719006 0.19106384
0.038354348 0.07555037 0.1906383
0.038635205 0.075339563 0.19010638
0.038935732 0.075170927 0.18968084
0.039234526 0.075002283 0.18925531
0.039531581 0.074833654 0.18882979
0.039781921 0.074580692 0.18819149
0.04002966 0.07432773 0.1875532
0.040274791 0.074074768 0.18691489
0.040517319 0.073821813 0.1862766
0.040733885 0.073526695 0.18553191
0.040923838 0.073189415 0.18468085
0.041086528 0.072809979 0.18372341
0.041245315 0.072430544 0.18276596
0.041448638 0.072135419 0.18202128
0.041722253 0.071966782 0.18159574
0.041994128 0.071798138 0.18117021
0.042314023 0.071713828 0.18095745
0.042607952 0.071587346 0.1806383
0.042925887 0.071503021 0.18042552
0.043242961 0.071418703 0.18021277
0.043533418 0.071292222 0.17989361
0.043848537 0.071207903 0.17968085
0.04416278 0.071123585 0.17946808
0.044476163 0.071039267 0.17925532
0.0448419 0.071039267 0.17925532
0.045207638 0.071039267 0.17925532
0.045573376 0.071039267 0.17925532
0.045911849 0.070997111 0.17914894
0.046249885 0.070954941 0.17904255
0.04658749 0.070912786 0.17893617
0.046924662 0.07087063 0.17882979
0.047233265 0.070786305 0.17861702
0.047541004 0.070701987 0.17840426
0.047847871 0.070617668 0.17819148
0.048153874 0.07053335 0.17797872
0.048459005 0.070449024 0.17776595
0.048792485 0.070406869 0.17765957
0.0490961 0.070322551 0.17744681
0.049428493 0.070280388 0.17734042
0.049700722 0.070153914 0.17702128
0.050001726 0.070069589 0.17680851
0.05033217 0.070027433 0.17670213
0.0506927 0.070027433 0.17670213
0.05108396 0.070069589 0.17680851
0.051413752 0.070027433 0.17670213
0.051743113 0.069985271 0.17659575
0.052040644 0.069900952 0.17638297
0.052400522 0.069900952 0.17638297
0.052728575 0.069858789 0.17627659
0.053056199 0.069816634 0.17617022
0.053383388 0.069774471 0.17606384
0.053710133 0.069732308 0.17595744
0.054069143 0.069732308 0.17595744
0.054428153 0.069732308 0.17595744
0.054787159 0.069732308 0.17595744
0.055112828 0.069690153 0.17585106
0.05543806 0.06964799 0.17574468
0.055796634 0.06964799 0.17574468
0.056223191 0.069732308 0.17595744
0.056616414 0.069774471 0.17606384
0.057044487 0.069858789 0.17627659
0.057404149 0.069858789 0.17627659
0.057694089 0.069774471 0.17606384
0.057913005 0.069605835 0.1756383
0.058200769 0.069521509 0.17542553
0.018857988 0.080727912 0.20265958
0.019241126 0.080600783 0.20234042
0.019622963 0.080473647 0.20202127
0.0200246 0.080431275 0.20191489
0.02043657 0.080431275 0.20191489
0.020848539 0.080431275 0.20191489
0.021249307 0.080388896 0.20180851
0.021626804 0.080261767 0.20148936
0.021991363 0.080092259 0.20106383
0.022342332 0.079880372 0.20053191
0.022691133 0.079668492 0.2
0.023037761 0.079456605 0.19946809
0.023407226 0.079329476 0.19914894
0.023775389 0.079202347 0.19882978
0.024142249 0.07907521 0.19851063
0.024520963 0.078990459 0.19829787
0.024898808 0.078905702 0.1980851
0.025275785 0.078820951 0.19787234
0.025665702 0.07877858 0.19776596
0.026041159 0.078693822 0.19755319
0.026415749 0.078609072 0.19734043
0.02678947 0.078524314 0.19712766
0.027132975 0.078354806 0.19670212
0.027489634 0.078227676 0.19638298
0.027860099 0.078142926 0.19617021
0.028245023 0.078100547 0.19606383
0.028629512 0.078058168 0.19595745
0.028997807 0.077973418 0.19574468
0.029365234 0.077888668 0.19553192
0.029731791 0.07780391 0.19531915
0.030081071 0.077676773 0.19499999
0.030412422 0.077507272 0.19457448
0.030742034 0.077337764 0.19414894
0.031069912 0.077168256 0.19372341
0.031413332 0.077041127 0.19340426
0.031772941 0.076956369 0.19319148
0.032149401 0.07691399 0.1930851
0.032525424 0.076871619 0.19297872
0.032901015 0.07682924 0.19287235
0.033276167 0.076786861 0.19276595
0.03361373 0.076659732 0.19244681
0.033949986 0.076532602 0.19212766
0.034303952 0.076447845 0.19191489
0.034657054 0.076363094 0.19170213
0.035028737 0.076320723 0.19159575
0.035399988 0.076278344 0.19148937
0.035750918 0.076193586 0.19127659
0.03610098 0.076108836 0.19106384
0.036429856 0.075981706 0.19074468
0.036757428 0.07585457 0.19042553
0.037104454 0.075769819 0.19021277
0.037408672 0.075600311 0.18978724
0.037689965 0.075388424 0.18925531
0.037947688 0.075134166 0.18861702
0.038202807 0.074879907 0.18797873
0.038477153 0.07466802 0.1874468
0.038749333 0.074456133 0.18691489
0.039019343 0.074244253 0.18638298
0.03928718 0.074032366 0.18585107
0.039530139 0.073778108 0.18521276
0.039793421 0.073566221 0.18468085
0.040077668 0.073396713 0.18425532
0.040313467 0.073142454 0.18361703
0.040546659 0.072888188 0.18297872
0.040753461 0.072591558 0.18223405
0.04095722 0.072294921 0.18148936
0.041206393 0.072083034 0.18095745
0.041477833 0.071913525 0.18053192
0.041772198 0.071786396 0.18021277
0.04209014 0.071701646 0.18000001
0.042407207 0.071616888 0.17978723
0.042748719 0.071574509 0.17968085
0.04306427 0.071489751 0.17946808
0.043378953 0.071405001 0.17925532
0.043692764 0.071320251 0.17904255
0.044005714 0.071235493 0.17882979
0.044344187 0.071193121 0.17872341
0.044682223 0.071150742 0.17861702
0.045073491 0.071193121 0.17872341
0.045438144 0.071193121 0.17872341
0.045775529 0.071150742 0.17861702
0.046112482 0.071108364 0.17851064
0.046449002 0.071065992 0.17840426
0.046757173 0.070981234 0.17819148
0.047064476 0.070896484 0.17797872
0.047342561 0.070769347 0.17765957
0.047647912 0.070684597 0.17744681
0.047952391 0.070599839 0.17723404
0.048285004 0.070557468 0.17712766
0.048617184 0.070515089 0.17702128
0.048948932 0.070472717 0.1769149
0.049250588 0.070387959 0.17670213
0.049551383 0.070303209 0.17648937
0.049881388 0.070260823 0.17638297
0.05021096 0.070218451 0.17627659
0.050570622 0.070218451 0.17627659
0.05093028 0.070218451 0.17627659
0.051258985 0.070176072 0.17617022
0.051587261 0.070133701 0.17606384
0.051946484 0.070133701 0.17606384
0.0522741 0.070091315 0.17595744
0.05263311 0.070091315 0.17595744
0.052960079 0.070048943 0.17585106
0.053254362 0.069964193 0.1756383
0.053580243 0.069921814 0.17553191
0.053938381 0.069921814 0.17553191
0.054296523 0.069921814 0.17553191
0.054654662 0.069921814 0.17553191
0.054979462 0.069879435 0.17542553
0.055303827 0.069837056 0.17531915
0.05569531 0.069879435 0.17542553
0.056087222 0.069921814 0.17553191
0.056513783 0.070006564 0.17574468
0.056941207 0.070091315 0.17595744
0.057334863 0.070133701 0.17606384
0.057659224 0.070091315 0.17595744
0.057948079 0.070006564 0.17574468
0.058306653 0.070006564 0.17574468
0.017983684 0.08092843 0.20212767
0.018405769 0.080971025 0.20223404
0.018808492 0.08092843 0.20212767
0.01918043 0.080758058 0.20170213
0.019540297 0.080545083 0.20117021
0.019908546 0.08037471 0.20074467
0.020285826 0.080246933 0.20042554
0.020661803 0.080119148 0.20010638
0.02104768 0.080033958 0.19989362
0.02142127 0.079906181 0.19957447
0.021805191 0.079820991 0.1993617
0.022176396 0.079693213 0.19904256
0.022534225 0.079522833 0.19861703
0.022902604 0.079395048 0.19829787
0.023269683 0.079267263 0.19797872
0.02364818 0.079182081 0.19776596
0.024025807 0.079096891 0.19755319
0.024402568 0.079011708 0.19734043
0.024778459 0.078926519 0.19712766
0.025153484 0.078841329 0.1969149
0.025541447 0.078798741 0.19680852
0.02591495 0.078713544 0.19659574
0.026287587 0.078628361 0.19638298
0.026630441 0.078457989 0.19595745
0.02698623 0.078330204 0.1956383
0.027340719 0.078202419 0.19531915
0.027709015 0.078117236 0.19510639
0.028076442 0.078032047 0.19489361
0.028458543 0.077989452 0.19478723
0.02882445 0.077904269 0.19457448
0.02918949 0.077819072 0.1943617
0.029537465 0.077691294 0.19404255
0.029884143 0.077563517 0.19372341
0.030229514 0.077435732 0.19340426
0.030573584 0.077307947 0.1930851
0.030933416 0.077222764 0.19287235
0.031292375 0.077137575 0.19265957
0.031650469 0.077052385 0.19244681
0.032025408 0.07700979 0.19234042
0.032399911 0.076967195 0.19223404
0.032792129 0.076967195 0.19223404
0.033165984 0.0769246 0.19212766
0.033520821 0.07683941 0.19191489
0.033855993 0.076711632 0.19159575
0.034170847 0.07654126 0.19117022
0.034503195 0.076413475 0.19085106
0.034853693 0.076328292 0.1906383
0.035183653 0.076200508 0.19031915
0.035492428 0.076030135 0.18989362
0.035799466 0.075859755 0.18946809
0.036084455 0.075646788 0.18893617
0.036367267 0.07543382 0.18840426
0.036668666 0.075263441 0.18797873
0.036947351 0.075050466 0.1874468
0.037202686 0.074794911 0.18680851
0.037455413 0.074539341 0.18617021
0.037705541 0.074283779 0.18553191
0.037974898 0.074070811 0.185
0.038242087 0.073857844 0.18446809
0.0385071 0.073644869 0.18393616
0.038792431 0.073474497 0.18351063
0.03909874 0.073346719 0.18319149
0.039380815 0.073176339 0.18276596
0.039684296 0.073048554 0.18244681
0.039963119 0.072878182 0.18202128
0.040240202 0.072707802 0.18159574
0.040491764 0.072494835 0.18106383
0.040741153 0.072281867 0.18053192
0.041012593 0.072111495 0.18010639
0.041306742 0.07198371 0.17978723
0.041624248 0.071898527 0.17957447
0.041940879 0.07181333 0.1793617
0.04225665 0.071728148 0.17914894
0.042571548 0.071642958 0.17893617
0.042911109 0.071600363 0.17882979
0.043250233 0.071557775 0.17872341
0.04356296 0.071472585 0.17851064
0.043848641 0.0713448 0.17819148
0.044185814 0.071302205 0.1780851
0.04452255 0.07125961 0.17797872
0.044885684 0.07125961 0.17797872
0.045248818 0.07125961 0.17797872
0.045584686 0.071217023 0.17787234
0.045920119 0.07117442 0.17776595
0.046255119 0.071131833 0.17765957
0.046589687 0.071089238 0.17755319
0.046895683 0.071004048 0.17734042
0.047172472 0.070876271 0.17702128
0.047476515 0.070791081 0.17680851
0.047779694 0.070705891 0.17659575
0.048111007 0.070663303 0.17648937
0.048441879 0.070620701 0.17638297
0.048772324 0.070578113 0.17627659
0.049102332 0.070535518 0.17617022
0.049431909 0.070492923 0.17606384
0.049761046 0.070450328 0.17595744
0.05008975 0.070407733 0.17585106
0.050418023 0.070365138 0.17574468
0.050776597 0.070365138 0.17574468
0.051104221 0.070322551 0.1756383
0.051462576 0.070322551 0.1756383
0.051789545 0.070279948 0.17553191
0.052147683 0.070279948 0.17553191
0.052505825 0.070279948 0.17553191
0.052799888 0.070194766 0.17531915
0.05312534 0.070152171 0.17521277
0.053482827 0.070152171 0.17521277
0.053840317 0.070152171 0.17521277
0.054197807 0.070152171 0.17521277
0.054522168 0.070109576 0.17510638
0.054846097 0.070066981 0.175
0.055203155 0.070066981 0.175
0.055593982 0.070109576 0.17510638
0.056019239 0.070194766 0.17531915
0.056445364 0.070279948 0.17553191
0.056837931 0.070322551 0.1756383
0.057230931 0.070365138 0.17574468
0.057624366 0.070407733 0.17585106
0.057983156 0.070407733 0.17585106
0.058341946 0.070407733 0.17585106
0.015427634 0.080912724 0.20106383
0.015829487 0.080869913 0.20095745
0.016230907 0.080827102 0.20085107
0.01664952 0.080869913 0.20095745
0.017077597 0.080955535 0.20117021
0.017506544 0.081041157 0.20138298
0.017917428 0.081041157 0.20138298
0.018318631 0.080998346 0.2012766
0.018699599 0.080869913 0.20095745
0.019059034 0.080655858 0.20042554
0.019405965 0.080398992 0.19978723
0.019760842 0.080184937 0.19925532
0.020124314 0.080013692 0.19882978
0.020497035 0.079885259 0.19851063
0.020879656 0.079799637 0.19829787
0.021272829 0.079756834 0.19819149
0.021665564 0.079714015 0.1980851
0.022046015 0.079628393 0.19787234
0.022425598 0.079542778 0.19765958
0.022792025 0.079414345 0.19734043
0.023169652 0.079328716 0.19712766
0.023546413 0.079243101 0.1969149
0.023922304 0.079157472 0.19670212
0.024297329 0.079071857 0.19648936
0.024671484 0.078986228 0.19627659
0.025031183 0.078857802 0.19595745
0.025389578 0.078729369 0.1956383
0.025746671 0.078600928 0.19531915
0.026116703 0.078515314 0.19510639
0.026456952 0.078344069 0.19468085
0.026810138 0.078215636 0.1943617
0.027162021 0.078087196 0.19404255
0.027527712 0.078001581 0.19382979
0.027907861 0.07795877 0.19372341
0.028287573 0.077915952 0.19361702
0.028651094 0.077830337 0.19340426
0.029013745 0.077744707 0.19319148
0.029359335 0.077616282 0.19287235
0.029720033 0.07753066 0.19265957
0.030079864 0.077445038 0.19244681
0.030455669 0.077402219 0.19234042
0.030831043 0.077359416 0.19223404
0.031188702 0.077273794 0.19202128
0.031545494 0.077188171 0.19180851
0.031901415 0.077102549 0.19159575
0.032256469 0.077016927 0.19138297
0.03264695 0.077016927 0.19138297
0.03301907 0.076974116 0.19127659
0.033372171 0.076888494 0.19106384
0.033686806 0.07671725 0.1906383
0.03398069 0.076503195 0.19010638
0.034272403 0.07628914 0.18957447
0.034561947 0.076075085 0.18904255
0.034868985 0.07590384 0.18861702
0.035154406 0.075689785 0.18808511
0.035397451 0.075390108 0.18734042
0.035657778 0.075133249 0.18670213
0.035936035 0.074919187 0.18617021
0.03621212 0.074705131 0.18563829
0.036465067 0.074448273 0.185
0.036694221 0.074148588 0.18425532
0.036941744 0.073891729 0.18361703
0.037208278 0.073677674 0.18308511
0.037494481 0.07350643 0.18265958
0.037778948 0.073335186 0.18223405
0.038083944 0.073206753 0.1819149
0.038410131 0.073121123 0.18170212
0.038712747 0.072992697 0.18138298
0.039036978 0.072907075 0.18117021
0.039360344 0.072821453 0.18095745
0.039659481 0.07269302 0.1806383
0.039980892 0.072607398 0.18042552
0.040253859 0.072436154 0.18000001
0.040525082 0.07226491 0.17957447
0.040818796 0.072136477 0.17925532
0.041160092 0.072093666 0.17914894
0.041476291 0.072008044 0.17893617
0.041791625 0.071922421 0.17872341
0.042106092 0.071836799 0.17851064
0.042419691 0.071751177 0.17829788
0.042757943 0.071708366 0.17819148
0.043095767 0.071665555 0.1780851
0.043407194 0.071579933 0.17787234
0.043691576 0.0714515 0.17755319
0.044001047 0.071365878 0.17734042
0.044336263 0.071323067 0.17723404
0.044671047 0.071280256 0.17712766
0.045032445 0.071280256 0.17712766
0.045339312 0.071194641 0.1769149
0.045672793 0.071151823 0.17680851
0.046033535 0.071151823 0.17680851
0.046366367 0.071109012 0.17670213
0.046698764 0.071066201 0.17659575
0.047030728 0.071023397 0.17648937
0.047333688 0.070937768 0.17627659
0.047635783 0.070852153 0.17606384
0.047966003 0.070809335 0.17595744
0.048266578 0.070723712 0.17574468
0.048595723 0.070680909 0.1756383
0.048924424 0.07063809 0.17553191
0.049282562 0.07063809 0.17553191
0.049640704 0.07063809 0.17553191
0.049968541 0.070595279 0.17542553
0.050295945 0.070552468 0.17531915
0.050622918 0.070509665 0.17521277
0.050949451 0.070466846 0.17510638
0.051306721 0.070466846 0.17510638
0.051632605 0.070424035 0.175
0.05198966 0.070424035 0.175
0.052314896 0.070381224 0.17489362
0.052639693 0.070338421 0.17478724
0.052964058 0.070295602 0.17468084
0.05332046 0.070295602 0.17468084
0.053709555 0.070338421 0.17478724
0.054066177 0.070338421 0.17478724
0.054422799 0.070338421 0.17478724
0.054779418 0.070338421 0.17478724
0.05513604 0.070338421 0.17478724
0.055526435 0.070381224 0.17489362
0.055951253 0.070466846 0.17510638
0.056376945 0.070552468 0.17531915
0.056769077 0.070595279 0.17542553
0.057161644 0.07063809 0.17553191
0.057554647 0.070680909 0.1756383
0.057983156 0.070766523 0.17585106
0.05837724 0.070809335 0.17595744
0.058771763 0.070852153 0.17606384
0.013779407 0.081279933 0.20095745
0.014204446 0.08136598 0.20117021
0.014607168 0.081322953 0.20106383
0.015009455 0.081279933 0.20095745
0.015411309 0.081236906 0.20085107
0.015812727 0.081193872 0.20074467
0.016205115 0.081107818 0.20053191
0.01660545 0.08106479 0.20042554
0.017014381 0.08106479 0.20042554
0.017423311 0.08106479 0.20042554
0.017813312 0.080978729 0.20021276
0.018202445 0.080892682 0.2
0.018561011 0.080677539 0.19946809
0.018917406 0.080462396 0.19893616
0.019271631 0.080247253 0.19840425
0.019623686 0.080032118 0.19787234
0.019995105 0.079903029 0.19755319
0.020376207 0.079816975 0.19734043
0.020778844 0.079816975 0.19734043
0.021170061 0.079773955 0.19723405
0.021560844 0.07973092 0.19712766
0.021951193 0.079687893 0.19702128
0.02232904 0.079601839 0.19680852
0.022693729 0.07947275 0.19648936
0.02306962 0.079386696 0.19627659
0.023431925 0.079257615 0.19595745
0.0238188 0.07921458 0.19585106
0.024192087 0.079128526 0.1956383
0.024551135 0.078999445 0.19531915
0.02489529 0.078827329 0.19489361
0.025237709 0.078655221 0.19446808
0.025578391 0.078483105 0.19404255
0.02593158 0.078354023 0.19372341
0.026283463 0.078224942 0.19340426
0.026634045 0.078095853 0.1930851
0.026998216 0.078009799 0.19287235
0.027376626 0.077966772 0.19276595
0.027754605 0.077923745 0.19265957
0.028132148 0.077880718 0.19255319
0.028493496 0.077794656 0.19234042
0.028869955 0.077751629 0.19223404
0.029229786 0.077665575 0.19202128
0.029588746 0.077579521 0.19180851
0.029963467 0.077536494 0.19170213
0.0303546 0.077536494 0.19170213
0.030728672 0.077493466 0.19159575
0.031085027 0.077407405 0.19138297
0.031423021 0.077278323 0.19106384
0.031741999 0.077106215 0.1906383
0.032077167 0.076977126 0.19031915
0.032429185 0.076891072 0.19010638
0.032798696 0.076848045 0.19
0.033130612 0.076718956 0.18968084
0.033423629 0.076503821 0.18914893
0.033676442 0.076202624 0.18840426
0.033926219 0.075901426 0.18765958
0.034211855 0.075686291 0.18712766
0.034475654 0.075428121 0.18648936
0.034716964 0.075126924 0.18574469
0.034975335 0.074868754 0.18510638
0.035231106 0.074610591 0.18446809
0.035484266 0.074352421 0.18382978
0.035755578 0.074137278 0.18329787
0.036024719 0.073922142 0.18276596
0.036249314 0.073620945 0.18202128
0.036513682 0.073405802 0.18148936
0.036775876 0.073190667 0.18095745
0.03710141 0.073104605 0.18074468
0.037426077 0.073018551 0.18053192
0.037749875 0.072932489 0.18031915
0.038095295 0.072889462 0.18021277
0.03844028 0.072846442 0.18010639
0.038761906 0.072760381 0.17989361
0.039082669 0.072674327 0.17968085
0.039402559 0.072588265 0.17946808
0.039721586 0.072502218 0.17925532
0.040015947 0.072373129 0.17893617
0.040309008 0.072244041 0.17861702
0.040624995 0.072157986 0.17840426
0.04094011 0.072071932 0.17819148
0.041279018 0.072028905 0.1780851
0.04159262 0.071942851 0.17787234
0.041930437 0.071899816 0.17776595
0.04224252 0.071813762 0.17755319
0.042579256 0.071770743 0.17744681
0.042915557 0.071727708 0.17734042
0.043199506 0.071598627 0.17702128
0.043508325 0.071512565 0.17680851
0.043789886 0.071383491 0.17648937
0.044123363 0.071340457 0.17638297
0.044456411 0.07129743 0.17627659
0.044789024 0.071254402 0.17617022
0.045093939 0.071168341 0.17595744
0.045452949 0.071168341 0.17595744
0.045811955 0.071168341 0.17595744
0.046170965 0.071168341 0.17595744
0.046529971 0.071168341 0.17595744
0.046860632 0.071125314 0.17585106
0.047190856 0.071082287 0.17574468
0.047491863 0.070996232 0.17553191
0.047792006 0.070910178 0.17531915
0.048091274 0.070824116 0.17510638
0.048419114 0.070781089 0.175
0.048776168 0.070781089 0.175
0.049163092 0.070824116 0.17510638
0.049520362 0.070824116 0.17510638
0.049847335 0.070781089 0.175
0.050173867 0.070738062 0.17489362
0.050499972 0.070695035 0.17478724
0.050825637 0.070652008 0.17468084
0.05115087 0.070608981 0.17457446
0.05147567 0.070565954 0.17446809
0.051800035 0.070522927 0.17436171
0.052123968 0.0704799 0.17425533
0.052447461 0.070436865 0.17414893
0.052802779 0.070436865 0.17414893
0.053158097 0.070436865 0.17414893
0.053578798 0.070522927 0.17436171
0.053967454 0.070565954 0.17446809
0.054323424 0.070565954 0.17446809
0.054679394 0.070565954 0.17446809
0.055068921 0.070608981 0.17457446
0.055492658 0.070695035 0.17478724
0.055917263 0.070781089 0.175
0.05634274 0.070867151 0.17521277
0.056734651 0.070910178 0.17531915
0.057126999 0.070953205 0.17542553
0.057519782 0.070996232 0.17553191
0.057948079 0.071082287 0.17574468
0.05837724 0.071168341 0.17595744
0.058771763 0.071211375 0.17606384
0.012918213 0.08143048 0.20031916
0.013355236 0.081603453 0.20074467
0.013772113 0.081646703 0.20085107
0.014181912 0.081646703 0.20085107
0.014583982 0.081603453 0.20074467
0.014977672 0.081516966 0.20053191
0.015362332 0.081387229 0.20021276
0.015754068 0.081300743 0.2
0.016127745 0.081127763 0.19957447
0.016517309 0.081041269 0.1993617
0.016906008 0.080954783 0.19914894
0.017293839 0.080868289 0.19893616
0.0176808 0.080781803 0.19872341
0.018057212 0.080652066 0.19840425
0.018422421 0.080479085 0.19797872
0.018785894 0.080306105 0.19755319
0.019137299 0.080089875 0.19702128
0.019507632 0.079960138 0.19670212
0.019898199 0.079916894 0.19659574
0.020288331 0.079873651 0.19648936
0.02068923 0.079873651 0.19648936
0.021090131 0.079873651 0.19648936
0.021479394 0.079830408 0.19638298
0.021856371 0.079743914 0.19617021
0.022232482 0.079657428 0.19595745
0.022595435 0.079527691 0.1956383
0.022957087 0.079397954 0.19531915
0.023304714 0.079224974 0.19489361
0.023676483 0.079138488 0.19468085
0.024047382 0.079051994 0.19446808
0.024404043 0.078922264 0.19414894
0.024745811 0.078749284 0.19372341
0.025085842 0.078576304 0.19329788
0.025424138 0.078403324 0.19287235
0.025760695 0.078230344 0.19244681
0.026124433 0.07814385 0.19223404
0.026487302 0.078057364 0.19202128
0.026879085 0.078057364 0.19202128
0.027255759 0.078014113 0.19191489
0.027632 0.07797087 0.19180851
0.028007807 0.077927627 0.19170213
0.02838318 0.077884383 0.19159575
0.02874214 0.07779789 0.19138297
0.029116428 0.077754647 0.19127659
0.029490283 0.077711403 0.19117022
0.029863702 0.077668153 0.19106384
0.030236686 0.07762491 0.19095744
0.030609237 0.077581666 0.19085106
0.030929515 0.077408686 0.19042553
0.031230563 0.077192456 0.18989362
0.031511724 0.076932982 0.18925531
0.031826146 0.076760009 0.18882979
0.032138828 0.076587029 0.18840426
0.03246814 0.076457292 0.18808511
0.032758985 0.076241069 0.1875532
0.03302886 0.075981595 0.18691489
0.033277117 0.075678878 0.18617021
0.033522334 0.075376168 0.18542553
0.033783961 0.075116694 0.18478723
0.034042988 0.074857228 0.18414894
0.034299403 0.074597754 0.18351063
0.034553219 0.07433828 0.18287234
0.034824748 0.074122056 0.18234043
0.035114639 0.073949076 0.1819149
0.035402797 0.073776096 0.18148936
0.035668246 0.073559873 0.18095745
0.035910338 0.073300399 0.18031915
0.036192633 0.073127419 0.17989361
0.036473192 0.072954439 0.17946808
0.036795691 0.072867952 0.17925532
0.037139371 0.072824709 0.17914894
0.037504893 0.072824709 0.17914894
0.037870411 0.072824709 0.17914894
0.038213223 0.072781458 0.17904255
0.038555607 0.072738215 0.17893617
0.038851272 0.072608478 0.17861702
0.039168995 0.072521992 0.17840426
0.039462272 0.072392255 0.1780851
0.039754249 0.072262518 0.17776595
0.040044926 0.072132789 0.17744681
0.040382747 0.072089538 0.17734042
0.040720135 0.072046295 0.17723404
0.041032434 0.071959808 0.17702128
0.041368734 0.071916565 0.1769149
0.041704603 0.071873315 0.17680851
0.042040035 0.071830072 0.17670213
0.042375039 0.071786828 0.17659575
0.042709604 0.071743578 0.17648937
0.042991813 0.071613841 0.17617022
0.043298896 0.071527354 0.17595744
0.043578722 0.071397617 0.1756383
0.043910466 0.071354367 0.17553191
0.044214949 0.07126788 0.17531915
0.044545606 0.071224637 0.17521277
0.04487583 0.071181387 0.17510638
0.045233101 0.071181387 0.17510638
0.045590375 0.071181387 0.17510638
0.045975562 0.071224637 0.17521277
0.046361182 0.07126788 0.17531915
0.046690539 0.071224637 0.17521277
0.047019459 0.071181387 0.17510638
0.047319166 0.0710949 0.17489362
0.047618002 0.071008407 0.17468084
0.04794519 0.070965163 0.17457446
0.048301376 0.070965163 0.17457446
0.048687216 0.071008407 0.17468084
0.049043618 0.071008407 0.17468084
0.04943011 0.071051657 0.17478724
0.049756426 0.071008407 0.17468084
0.05005179 0.07092192 0.17446809
0.050377026 0.070878677 0.17436171
0.050701827 0.070835434 0.17425533
0.050995018 0.07074894 0.17404255
0.051318731 0.070705697 0.17393617
0.051642012 0.070662454 0.17382979
0.051964853 0.070619203 0.1737234
0.052287266 0.07057596 0.17361702
0.0526415 0.07057596 0.17361702
0.053028204 0.070619203 0.1737234
0.053448036 0.070705697 0.17393617
0.053835828 0.07074894 0.17404255
0.054224052 0.070792183 0.17414893
0.05457937 0.070792183 0.17414893
0.054968249 0.070835434 0.17425533
0.055425107 0.070965163 0.17457446
0.05584928 0.071051657 0.17478724
0.056274317 0.071138144 0.175
0.056665797 0.071181387 0.17510638
0.057057716 0.071224637 0.17521277
0.057450064 0.07126788 0.17531915
0.057877921 0.071354367 0.17553191
0.058306653 0.071440861 0.17574468
0.05870074 0.071484104 0.17585106
0.059095256 0.071527354 0.17595744
0.012017243 0.081274182 0.19893616
0.012462996 0.081534952 0.19957447
0.012897631 0.081708804 0.2
0.013326927 0.081839189 0.20031916
0.013735641 0.081839189 0.20031916
0.014136842 0.081795722 0.20021276
0.014522153 0.081665345 0.19989362
0.014906161 0.081534952 0.19957447
0.015288867 0.081404567 0.19925532
0.015661892 0.081230715 0.19882978
0.016033178 0.081056871 0.19840425
0.016411543 0.080926478 0.1980851
0.016788606 0.0807961 0.19776596
0.017173614 0.080709174 0.19755319
0.017557755 0.080622248 0.19734043
0.017931344 0.080491863 0.19702128
0.018303631 0.080361478 0.19670212
0.0186645 0.080187626 0.19627659
0.019044299 0.080100708 0.19606383
0.01942323 0.080013774 0.19585106
0.019822827 0.080013774 0.19585106
0.02021144 0.079970315 0.19574468
0.020599619 0.079926856 0.1956383
0.020987364 0.079883397 0.19553192
0.021374673 0.07983993 0.19542553
0.021749698 0.079753004 0.19521277
0.022123853 0.079666078 0.19499999
0.022472568 0.079492234 0.19457448
0.022819545 0.079318389 0.19414894
0.023164786 0.079144537 0.19372341
0.023534166 0.079057612 0.19351064
0.023889521 0.078927226 0.19319148
0.02425695 0.0788403 0.19297872
0.02459633 0.078666456 0.19255319
0.024947779 0.078536063 0.19223404
0.025297927 0.078405678 0.19191489
0.025646774 0.078275293 0.19159575
0.026008774 0.078188367 0.19138297
0.026384581 0.078144908 0.19127659
0.026774844 0.078144908 0.19127659
0.027165107 0.078144908 0.19127659
0.027540047 0.078101449 0.19117022
0.027899008 0.078014523 0.19095744
0.028272862 0.077971056 0.19085106
0.028630305 0.077884138 0.1906383
0.029003071 0.077840671 0.19053191
0.029358994 0.077753752 0.19031915
0.029714048 0.077666819 0.19010638
0.030051392 0.077536441 0.18978724
0.030387431 0.077406049 0.18946809
0.03068761 0.077188745 0.18893617
0.03096812 0.076927967 0.18829787
0.031228317 0.076623738 0.1875532
0.031485472 0.076319501 0.18680851
0.031775884 0.07610219 0.1862766
0.032082487 0.075928338 0.18585107
0.032350194 0.075667568 0.18521276
0.032596499 0.075363331 0.18446809
0.032820746 0.075015634 0.18361703
0.033079986 0.074754864 0.18297872
0.033356071 0.074537553 0.18244681
0.033649653 0.074363701 0.18202128
0.033921614 0.07414639 0.18148936
0.034191407 0.073929086 0.18095745
0.034479346 0.073755234 0.18053192
0.034806617 0.073668309 0.18031915
0.035112269 0.073537923 0.18000001
0.035416618 0.073407538 0.17968085
0.035698477 0.073233686 0.17925532
0.035978604 0.073059842 0.17882979
0.036256991 0.07288599 0.17840426
0.036577314 0.072799064 0.17819148
0.03691883 0.072755605 0.1780851
0.037282176 0.072755605 0.1780851
0.037668016 0.072799064 0.17819148
0.038031582 0.072799064 0.17819148
0.038372226 0.072755605 0.1780851
0.038666155 0.072625212 0.17776595
0.038935427 0.072451368 0.17734042
0.039226539 0.072320983 0.17702128
0.039516345 0.072190598 0.17670213
0.039828859 0.072103672 0.17648937
0.040140498 0.072016746 0.17627659
0.040451277 0.071929827 0.17606384
0.040785842 0.071886361 0.17595744
0.0410951 0.071799435 0.17574468
0.041428581 0.071755975 0.1756383
0.041786939 0.071755975 0.1756383
0.042145293 0.071755975 0.1756383
0.042477906 0.071712509 0.17553191
0.042758163 0.071582131 0.17521277
0.043063294 0.071495198 0.175
0.043367561 0.071408279 0.17478724
0.043697566 0.071364813 0.17468084
0.044027139 0.071321353 0.17457446
0.044383325 0.071321353 0.17457446
0.044712249 0.071277894 0.17446809
0.045068219 0.071277894 0.17446809
0.045424189 0.071277894 0.17446809
0.04578016 0.071277894 0.17446809
0.04613613 0.071277894 0.17446809
0.046492096 0.071277894 0.17446809
0.046819501 0.071234427 0.17436171
0.047146473 0.071190968 0.17425533
0.047473006 0.071147501 0.17414893
0.047828324 0.071147501 0.17414893
0.048183642 0.071147501 0.17414893
0.048568614 0.071190968 0.17425533
0.048954017 0.071234427 0.17436171
0.049309768 0.071234427 0.17436171
0.04963522 0.071190968 0.17425533
0.049960233 0.071147501 0.17414893
0.05025408 0.071060583 0.17393617
0.050578009 0.071017124 0.17382979
0.050870337 0.07093019 0.17361702
0.051193181 0.070886731 0.17351064
0.051515594 0.070843272 0.17340426
0.051869392 0.070843272 0.17340426
0.052223191 0.070843272 0.17340426
0.052576989 0.070843272 0.17340426
0.052963261 0.070886731 0.17351064
0.053349964 0.07093019 0.17361702
0.053737104 0.070973657 0.1737234
0.054124683 0.071017124 0.17382979
0.054512691 0.071060583 0.17393617
0.05490113 0.071104042 0.17404255
0.055357557 0.071234427 0.17436171
0.055781294 0.071321353 0.17457446
0.056205902 0.071408279 0.17478724
