# .PCD v0.7 - Point Cloud Data file format
VERSION 0.7
FIELDS x y z
SIZE 4 4 4
TYPE F F F
COUNT 1 1 1
WIDTH 1366
HEIGHT 1
VIEWPOINT 0 0 0 1 0 0 0
POINTS 1366
DATA ascii
0.1131279 -0.084645592 0.22212766
0.11352675 -0.084605053 0.22202128
-0.14940503 -0.090280972 0.23819149
-0.14838691 -0.089958392 0.23734042
-0.14737228 -0.089635819 0.23648936
-0.14655934 -0.089434206 0.23595744
-0.14614373 -0.089474529 0.23606382
-0.14585899 -0.089595497 0.23638298
-0.14557295 -0.089716464 0.23670213
-0.1453508 -0.089877754 0.23712766
-0.14519189 -0.09007936 0.23765957
-0.14509562 -0.090321295 0.23829788
-0.14493217 -0.090522908 0.23882979
-0.14476654 -0.090724513 0.2393617
-0.14447051 -0.090845481 0.23968086
-0.14410925 -0.090926126 0.23989362
-0.14381082 -0.091047093 0.24021277
-0.1435111 -0.091168061 0.24053192
-0.14308356 -0.091208376 0.2406383
-0.14259255 -0.091208376 0.2406383
-0.14210153 -0.091208376 0.2406383
-0.14167312 -0.091248699 0.24074468
-0.018295854 -0.08624877 0.22755319
-0.017856549 -0.086369738 0.22787234
-0.017432181 -0.086571351 0.22840425
-0.017021446 -0.086853601 0.22914894
-0.016576931 -0.086974569 0.22946809
-0.016108708 -0.086974569 0.22946809
0.10851418 -0.084837504 0.22382979
0.10881552 -0.084716536 0.22351064
0.10911556 -0.084595568 0.22319148
0.10941429 -0.084474608 0.22287235
0.10976417 -0.084393956 0.22265957
0.11016583 -0.084353641 0.22255319
0.11051419 -0.084272988 0.22234042
0.11096787 -0.084272988 0.22234042
0.11136824 -0.084232673 0.22223404
0.11176817 -0.084192351 0.22212766
0.11222141 -0.084192351 0.22212766
0.1126207 -0.084152028 0.22202128
0.11307373 -0.084152028 0.22202128
0.11352675 -0.084152028 0.22202128
0.11392516 -0.084111705 0.22191489
-0.15022577 -0.089995474 0.2387234
-0.14960521 -0.089915268 0.23851064
-0.14871949 -0.089674637 0.23787235
-0.14790264 -0.089474112 0.23734042
-0.14715403 -0.089313686 0.23691489
-0.14667062 -0.089313686 0.23691489
-0.1463185 -0.089393899 0.23712766
-0.14603092 -0.089514218 0.23744681
-0.14574204 -0.08963453 0.23776595
-0.14558186 -0.089835055 0.23829788
-0.14548427 -0.090075687 0.23893617
-0.14525495 -0.090236105 0.2393617
-0.14495957 -0.090356424 0.23968086
-0.14459875 -0.09043663 0.23989362
-0.14423707 -0.090516843 0.24010639
-0.1440019 -0.090677261 0.24053192
-0.14376499 -0.09083768 0.24095745
-0.14339983 -0.090917885 0.24117021
-0.14290774 -0.090917885 0.24117021
-0.14241564 -0.090917885 0.24117021
-0.14204875 -0.090998098 0.24138297
-0.14161859 -0.091038205 0.24148937
-0.14106368 -0.090998098 0.24138297
-0.018304408 -0.085824557 0.22765957
-0.017848214 -0.085864671 0.22776596
-0.017407821 -0.085984983 0.2280851
-0.016974032 -0.086145401 0.22851063
-0.016523134 -0.086225614 0.22872341
-0.016056431 -0.086225614 0.22872341
-0.015575226 -0.086145401 0.22851063
0.10841102 -0.08430057 0.22361702
0.10871194 -0.084180266 0.22329788
0.10895953 -0.08401984 0.22287235
0.10925762 -0.083899528 0.22255319
0.10965928 -0.083859421 0.22244681
0.11011318 -0.083859421 0.22244681
0.11051419 -0.083819315 0.22234042
0.11091477 -0.083779208 0.22223404
0.11131493 -0.083739109 0.22212766
0.11166111 -0.083658896 0.22191489
0.11206017 -0.08361879 0.22180851
0.11251277 -0.08361879 0.22180851
0.11296536 -0.08361879 0.22180851
0.11336356 -0.083578683 0.22170213
0.1137067 -0.08349847 0.22148935
-0.15035968 -0.089588143 0.23893617
-0.14980541 -0.08954826 0.23882979
-0.14918506 -0.089468479 0.23861702
-0.1484993 -0.089348823 0.23829788
-0.14781481 -0.089229152 0.23797873
-0.14726336 -0.089189269 0.23787235
-0.14684364 -0.089229152 0.23797873
-0.14655434 -0.089348823 0.23829788
-0.14626372 -0.089468479 0.23861702
-0.14603679 -0.089628033 0.23904255
-0.14587291 -0.08982747 0.23957446
-0.14557774 -0.089947134 0.23989362
-0.14515258 -0.089987017 0.23999999
-0.14472701 -0.090026915 0.24010639
-0.14442879 -0.090146571 0.24042553
-0.14425667 -0.090346016 0.24095745
-0.14401887 -0.090505563 0.24138297
-0.14365286 -0.090585344 0.24159575
-0.14315988 -0.090585344 0.24159575
-0.14272974 -0.090625226 0.24170212
-0.14229916 -0.090665117 0.2418085
-0.14180575 -0.090665117 0.2418085
-0.14118801 -0.090585344 0.24159575
-0.14050919 -0.090465672 0.24127659
-0.1398934 -0.090385899 0.24106383
-0.018304408 -0.085360028 0.22765957
-0.017839877 -0.085360028 0.22765957
-0.017383466 -0.085399918 0.22776596
-0.01693452 -0.085479692 0.22797872
-0.016477022 -0.085519582 0.2280851
-0.016004154 -0.085479692 0.22797872
-0.015517218 -0.085360028 0.22765957
0.10835945 -0.083804406 0.22351064
0.10871194 -0.083724633 0.22329788
0.10890751 -0.083525188 0.22276595
0.10920539 -0.083405524 0.22244681
0.10960683 -0.083365634 0.22234042
0.11006051 -0.083365634 0.22234042
0.11051419 -0.083365634 0.22234042
0.11091477 -0.083325751 0.22223404
0.11126162 -0.083245978 0.22202128
0.11160758 -0.083166197 0.22180851
0.11200643 -0.083126314 0.22170213
0.11245881 -0.083126314 0.22170213
0.11291119 -0.083126314 0.22170213
0.11320037 -0.083006643 0.22138298
0.11343364 -0.082847096 0.22095744
0.11361033 -0.082647659 0.22042553
-0.1506944 -0.089298956 0.23946808
-0.15020578 -0.089298956 0.23946808
-0.14978366 -0.089338623 0.23957446
-0.14922853 -0.089298956 0.23946808
-0.14860775 -0.089219615 0.23925532
-0.14811955 -0.089219615 0.23925532
-0.14763136 -0.089219615 0.23925532
-0.14714317 -0.089219615 0.23925532
-0.14672019 -0.089259289 0.2393617
-0.14636175 -0.089338623 0.23957446
-0.14600246 -0.089417972 0.23978724
-0.1456423 -0.089497305 0.23999999
-0.14528127 -0.089576654 0.24021277
-0.14485525 -0.089616321 0.24031915
-0.1445566 -0.089735337 0.2406383
-0.14432035 -0.089894019 0.24106383
-0.14408235 -0.090052702 0.24148937
-0.14371611 -0.090132043 0.24170212
-0.14334901 -0.090211384 0.2419149
-0.14298102 -0.090290725 0.24212766
-0.14254957 -0.090330392 0.24223404
-0.1420553 -0.090330392 0.24223404
-0.14137453 -0.090211384 0.2419149
-0.14069505 -0.090092376 0.24159575
-0.14014034 -0.090052702 0.24148937
-0.018304408 -0.084895499 0.22765957
-0.017839877 -0.084895499 0.22765957
-0.017367225 -0.084855825 0.22755319
-0.016902911 -0.084855825 0.22755319
-0.016446281 -0.084895499 0.22765957
-0.015974281 -0.084855825 0.22755319
-0.015495465 -0.084776491 0.22734043
0.10856576 -0.083507024 0.22393617
0.10881552 -0.083348334 0.22351064
0.10895953 -0.083110318 0.22287235
0.10915316 -0.082911953 0.22234042
0.10950195 -0.08283262 0.22212766
0.11000785 -0.082872286 0.22223404
0.11046132 -0.082872286 0.22223404
0.11086168 -0.08283262 0.22212766
0.11126162 -0.082792945 0.22202128
0.11166111 -0.082753271 0.22191489
0.11211392 -0.082753271 0.22191489
0.11256673 -0.082753271 0.22191489
0.11291119 -0.082673937 0.22170213
0.11314597 -0.082515255 0.2212766
0.1132698 -0.082277231 0.2206383
0.11344584 -0.082078874 0.22010638
0.11383991 -0.0820392 0.22
0.11456514 -0.082237557 0.22053191
0.11534803 -0.08247558 0.22117022
-0.15165317 -0.08908651 0.24021277
-0.15122996 -0.089125961 0.24031915
-0.15087306 -0.08920487 0.24053192
-0.15044877 -0.089244321 0.2406383
-0.14995776 -0.089244321 0.2406383
-0.14946675 -0.089244321 0.2406383
-0.14890988 -0.08920487 0.24053192
-0.14835343 -0.089165412 0.24042553
-0.147732 -0.08908651 0.24021277
-0.14704622 -0.088968143 0.23989362
-0.14649174 -0.088928692 0.23978724
-0.14606723 -0.088968143 0.23989362
-0.1456423 -0.089007594 0.23999999
-0.14528127 -0.08908651 0.24021277
-0.14491937 -0.089165412 0.24042553
-0.14462051 -0.089283772 0.24074468
-0.14438404 -0.08944159 0.24117021
-0.14408235 -0.08955995 0.24148937
-0.14377937 -0.08967831 0.2418085
-0.14347507 -0.08979667 0.24212766
-0.14316949 -0.089915037 0.24244681
-0.1428626 -0.090033397 0.24276596
-0.14236724 -0.090033397 0.24276596
-0.14174755 -0.089954488 0.24255319
-0.14112872 -0.089875579 0.24234043
-0.14063424 -0.089875579 0.24234043
-0.14026278 -0.089954488 0.24255319
-0.017848214 -0.084470421 0.22776596
-0.017375344 -0.084430963 0.22765957
-0.016910814 -0.084430963 0.22765957
-0.016453966 -0.084470421 0.22776596
-0.015996687 -0.084509872 0.22787234
-0.015524469 -0.084470421 0.22776596
-0.015045652 -0.084391512 0.22755319
0.10882363 -0.083247356 0.22446808
0.10907448 -0.083089538 0.22404255
0.10911556 -0.082773909 0.22319148
0.10920539 -0.082497738 0.22244681
0.10950195 -0.082379371 0.22212766
0.1099552 -0.082379371 0.22212766
0.11040844 -0.082379371 0.22212766
0.11086168 -0.082379371 0.22212766
0.11131493 -0.082379371 0.22212766
0.11171465 -0.08233992 0.22202128
0.11222141 -0.082379371 0.22212766
0.1126207 -0.08233992 0.22202128
0.11296536 -0.082261011 0.22180851
0.11314597 -0.082063742 0.2212766
0.11321518 -0.081787564 0.22053191
0.11339101 -0.081590295 0.22
0.11389496 -0.081629753 0.22010638
0.11473094 -0.081905931 0.22085106
0.11556996 -0.082182109 0.22159575
0.11646771 -0.082497738 0.22244681
0.11731302 -0.082773909 0.22319148
0.11810524 -0.083010636 0.22382979
-0.15259345 -0.089145675 0.24170212
-0.15210025 -0.089145675 0.24170212
-0.15160707 -0.089145675 0.24170212
-0.15111388 -0.089145675 0.24170212
-0.1505544 -0.089106433 0.24159575
-0.15006144 -0.089106433 0.24159575
-0.14950262 -0.089067198 0.24148937
-0.14887857 -0.088988729 0.24127659
-0.14805913 -0.08879254 0.24074468
-0.14724186 -0.088596359 0.24021277
-0.14649174 -0.088439412 0.23978724
-0.1459377 -0.088400178 0.23968086
-0.1456423 -0.088517882 0.23999999
-0.14534561 -0.088635594 0.24031915
-0.14504762 -0.088753305 0.2406383
-0.14474833 -0.088871017 0.24095745
-0.14444773 -0.088988729 0.24127659
-0.14414583 -0.089106433 0.24159575
-0.14396913 -0.089302622 0.24212766
-0.14379027 -0.089498803 0.24265957
-0.14360924 -0.089694992 0.2431915
-0.14336343 -0.089851938 0.24361703
-0.14286634 -0.089851938 0.24361703
-0.14230707 -0.089812696 0.24351063
-0.14181019 -0.089812696 0.24351063
-0.14137506 -0.089851938 0.24361703
-0.14106253 -0.089969642 0.24393617
-0.017873222 -0.08412338 0.2280851
-0.017407821 -0.08412338 0.2280851
-0.016950326 -0.084162623 0.22819149
-0.016500078 -0.084241092 0.22840425
-0.016048964 -0.084319569 0.22861703
-0.015582478 -0.084319569 0.22861703
-0.015108958 -0.084280327 0.22851063
0.10923623 -0.083103225 0.22531915
0.10938524 -0.082867809 0.22468086
0.1093756 -0.082514681 0.22372341
0.10936207 -0.082161546 0.22276595
0.10960683 -0.082004599 0.22234042
0.1099552 -0.08192613 0.22212766
0.11040844 -0.08192613 0.22212766
0.11086168 -0.08192613 0.22212766
0.11131493 -0.08192613 0.22212766
0.11176817 -0.08192613 0.22212766
0.11222141 -0.08192613 0.22212766
0.11267466 -0.08192613 0.22212766
0.11301954 -0.081847653 0.22191489
0.11320037 -0.081651472 0.22138298
0.11332441 -0.081416056 0.22074468
0.11361033 -0.081298344 0.22042553
0.11417021 -0.081376821 0.2206383
0.11506253 -0.081690706 0.22148935
0.11601382 -0.082043841 0.22244681
0.11691331 -0.082357734 0.22329788
0.11764852 -0.082553916 0.22382979
0.11810524 -0.082553916 0.22382979
0.11833655 -0.082396969 0.22340426
0.11850957 -0.082200788 0.22287235
-0.1529036 -0.089120723 0.24297872
-0.15240781 -0.089120723 0.24297872
-0.15164597 -0.088964641 0.24255319
-0.15095218 -0.088847585 0.24223404
-0.15039183 -0.088808566 0.24212766
-0.14983192 -0.088769548 0.24202128
-0.14914115 -0.088652484 0.24170212
-0.14818999 -0.088379353 0.24095745
-0.14724186 -0.088106215 0.24021277
-0.14649174 -0.087950133 0.23978724
-0.1459377 -0.087911122 0.23968086
-0.14570686 -0.088067196 0.24010639
-0.14553863 -0.08826229 0.2406383
-0.14530411 -0.088418372 0.24106383
-0.14506786 -0.088574447 0.24148937
-0.14470248 -0.088652484 0.24170212
-0.14446318 -0.088808566 0.24212766
-0.14428541 -0.08900366 0.24265957
-0.1441685 -0.089237779 0.24329787
-0.14411181 -0.089510925 0.24404256
-0.14392687 -0.089706019 0.24457447
-0.14355259 -0.089784056 0.24478723
-0.14305311 -0.089784056 0.24478723
-0.14261559 -0.089823075 0.24489361
-0.1423011 -0.089940131 0.24521276
-0.14198531 -0.090057194 0.24553192
-0.14185211 -0.090291306 0.24617021
-0.017923241 -0.0838921 0.22872341
-0.017464658 -0.083931118 0.22882979
-0.017005641 -0.083970137 0.22893617
-0.01656156 -0.0840872 0.22925532
-0.016101239 -0.084126212 0.2293617
-0.015625983 -0.0840872 0.22925532
-0.015151163 -0.084048182 0.22914894
0.10898191 -0.082799554 0.22574468
0.10944253 -0.082799554 0.22574468
0.10969599 -0.082643472 0.22531915
0.10968766 -0.082292296 0.2243617
0.10967542 -0.08194112 0.22340426
0.10976417 -0.081667982 0.22265957
0.11006051 -0.081550919 0.22234042
0.11040844 -0.081472889 0.22212766
0.11086168 -0.081472889 0.22212766
0.11131493 -0.081472889 0.22212766
0.11176817 -0.081472889 0.22212766
0.11222141 -0.081472889 0.22212766
0.1126207 -0.08143387 0.22202128
0.11296536 -0.081355825 0.22180851
0.11320037 -0.08119975 0.22138298
0.11348825 -0.081082687 0.22106382
0.11388449 -0.081043668 0.22095744
0.11450049 -0.081160732 0.2212766
0.11539412 -0.081472889 0.22212766
0.11640219 -0.081863083 0.22319148
0.11724751 -0.082136221 0.22393617
0.11781627 -0.082214251 0.22414893
0.11804911 -0.082058184 0.22372341
0.11811115 -0.081785046 0.22297873
0.11822672 -0.081550919 0.22234042
0.14041737 -0.081004649 0.22085106
0.14080016 -0.080965631 0.22074468
0.14118251 -0.080926612 0.2206383
0.14142784 -0.080809556 0.22031915
-0.15350612 -0.088974155 0.24393617
-0.15280819 -0.088857748 0.24361703
-0.15197854 -0.088663734 0.2430851
-0.15121734 -0.088508524 0.24265957
-0.15065613 -0.088469721 0.24255319
-0.15009536 -0.088430919 0.24244681
-0.14933808 -0.088275708 0.24202128
-0.14832084 -0.087965287 0.24117021
-0.14724186 -0.087616071 0.24021277
-0.14642675 -0.087422058 0.23968086
-0.14600246 -0.087460861 0.23978724
-0.14577141 -0.087616071 0.24021277
-0.14573166 -0.087887689 0.24095745
-0.14562473 -0.088120498 0.24159575
-0.14545129 -0.088314511 0.24212766
-0.14514831 -0.088430919 0.24244681
-0.14490749 -0.088586129 0.24287234
-0.14466494 -0.08874134 0.24329787
-0.14460978 -0.089012958 0.24404256
-0.14448874 -0.089245774 0.24468085
-0.14436509 -0.08947859 0.24531914
-0.14411408 -0.089633793 0.24574468
-0.14379916 -0.089750208 0.24606383
-0.14348292 -0.089866616 0.24638298
-0.14322715 -0.090021826 0.24680851
-0.14303112 -0.090215839 0.24734043
-0.14301684 -0.090526253 0.24819149
-0.017973259 -0.083658211 0.2293617
-0.017513374 -0.083697014 0.22946809
-0.017060956 -0.083774619 0.22968085
-0.01660767 -0.083852224 0.22989361
-0.01613858 -0.083852224 0.22989361
-0.015640486 -0.083697014 0.22946809
-0.015151163 -0.083580606 0.22914894
0.10826558 -0.082144916 0.22521277
0.10893055 -0.082300127 0.2256383
0.10959726 -0.082455337 0.22606383
0.10995495 -0.082377724 0.22585106
0.10999971 -0.082067303 0.22499999
0.10998878 -0.081718087 0.22404255
0.10997394 -0.081368864 0.22308511
0.11016583 -0.08117485 0.22255319
0.11046132 -0.081058443 0.22223404
0.11086168 -0.08101964 0.22212766
0.11126162 -0.080980837 0.22202128
0.11171465 -0.080980837 0.22202128
0.11216767 -0.080980837 0.22202128
0.11251277 -0.080903232 0.22180851
0.11285701 -0.080825627 0.22159575
0.11325476 -0.080786824 0.22148935
0.11365209 -0.080748022 0.22138298
0.11415865 -0.080786824 0.22148935
0.11483078 -0.080942035 0.22191489
0.11572571 -0.081252456 0.22276595
0.11662412 -0.081562877 0.22361702
0.1173589 -0.08175689 0.22414893
0.11781627 -0.08175689 0.22414893
0.11793683 -0.081524074 0.22351064
0.11794209 -0.081213653 0.22265957
0.11805702 -0.080980837 0.22202128
0.1183397 -0.080864429 0.22170213
0.13848127 -0.080476411 0.2206383
0.13886449 -0.080437601 0.22053191
0.13931447 -0.080437601 0.22053191
0.13976447 -0.080437601 0.22053191
0.14014682 -0.080398798 0.22042553
0.14052874 -0.080360003 0.22031915
0.14091022 -0.0803212 0.22021277
0.14135955 -0.0803212 0.22021277
0.1418089 -0.0803212 0.22021277
-0.15294164 -0.088437825 0.24382979
-0.15211156 -0.0882449 0.24329787
-0.15141623 -0.08812914 0.24297872
-0.15092045 -0.08812914 0.24297872
-0.15042466 -0.08812914 0.24297872
-0.14960065 -0.087936215 0.24244681
-0.14851712 -0.087588951 0.24148937
-0.14737226 -0.087203093 0.24042553
-0.14649174 -0.086971581 0.23978724
-0.14600246 -0.086971581 0.23978724
-0.14583597 -0.087164506 0.24031915
-0.14586033 -0.087473191 0.24117021
-0.14588122 -0.087781876 0.24202128
-0.14577082 -0.088013388 0.24265957
-0.14553045 -0.088167727 0.2430851
-0.14528832 -0.088322066 0.24351063
-0.14498122 -0.088437825 0.24382979
-0.14473584 -0.088592172 0.24425532
-0.14461437 -0.088823676 0.24489361
-0.1445529 -0.089093782 0.2456383
-0.14442602 -0.089325294 0.2462766
-0.14429651 -0.089556806 0.24691489
-0.14410245 -0.089749731 0.24744681
-0.14396797 -0.089981243 0.24808511
-0.14389238 -0.090251341 0.24882978
-0.14369117 -0.090444274 0.24936171
-0.018014941 -0.083383128 0.22989361
-0.017562089 -0.083460309 0.23010638
-0.01710837 -0.083537474 0.23031914
-0.016638411 -0.083537474 0.23031914
-0.01613858 -0.083383128 0.22989361
-0.015633235 -0.083190203 0.2293617
0.10750049 -0.08145386 0.22457446
0.10811215 -0.081569619 0.22489361
0.10877647 -0.081723958 0.22531915
0.1094941 -0.081916884 0.22585106
0.10995495 -0.081916884 0.22585106
0.11010373 -0.081685372 0.22521277
0.11004101 -0.081299521 0.22414893
0.11002638 -0.080952249 0.22319148
0.11016583 -0.080720738 0.22255319
0.11046132 -0.080604985 0.22223404
0.11086168 -0.080566399 0.22212766
0.11126162 -0.080527812 0.22202128
0.11166111 -0.080489226 0.22191489
0.11206017 -0.080450639 0.22180851
0.11240485 -0.080373473 0.22159575
0.11280282 -0.080334879 0.22148935
0.11325476 -0.080334879 0.22148935
0.11381593 -0.080412053 0.22170213
0.1144328 -0.080527812 0.22202128
0.11510602 -0.080682158 0.22244681
0.11589151 -0.080913663 0.22308511
0.11667961 -0.081145182 0.22372341
0.1173589 -0.081299521 0.22414893
0.11770444 -0.081222348 0.22393617
0.11782458 -0.080990836 0.22329788
0.1178294 -0.080682158 0.22244681
0.11794388 -0.080450639 0.22180851
0.11828291 -0.080373473 0.22159575
0.13765961 -0.080334879 0.22148935
0.13777988 -0.080141954 0.22095744
0.13796452 -0.079987615 0.22053191
0.13834773 -0.079949029 0.22042553
0.13879751 -0.079949029 0.22042553
0.13924728 -0.079949029 0.22042553
0.13962963 -0.079910442 0.22031915
0.14001155 -0.079871863 0.22021277
0.14039302 -0.079833269 0.22010638
0.14084214 -0.079833269 0.22010638
0.14142784 -0.079910442 0.22031915
0.1419459 -0.079949029 0.22042553
-0.15204506 -0.08771009 0.2431915
-0.15148252 -0.087671719 0.2430851
-0.15111868 -0.08774846 0.24329787
-0.15075396 -0.087825194 0.24351063
-0.15006016 -0.08771009 0.2431915
-0.14890966 -0.087326407 0.24212766
-0.14769831 -0.086904354 0.24095745
-0.14668672 -0.086597413 0.24010639
-0.14613201 -0.086559035 0.23999999
-0.14590053 -0.086712509 0.24042553
-0.14586033 -0.086981088 0.24117021
-0.14588122 -0.087288037 0.24202128
-0.14589864 -0.087594986 0.24287234
-0.14565782 -0.08774846 0.24329787
-0.1453518 -0.087863564 0.24361703
-0.14498122 -0.087940298 0.24382979
-0.14473584 -0.088093773 0.24425532
-0.14461437 -0.088323981 0.24489361
-0.1445529 -0.088592559 0.2456383
-0.14455079 -0.088899508 0.24648936
-0.14448303 -0.089168087 0.24723405
-0.14435026 -0.089398295 0.24787234
-0.14427665 -0.089666881 0.24861702
-0.14426151 -0.089973822 0.24946809
-0.018056624 -0.083105884 0.23042554
-0.017602686 -0.083182618 0.2306383
-0.017139979 -0.083220989 0.23074467
-0.016653782 -0.083144255 0.23053192
-0.016131112 -0.082875676 0.22978723
-0.015618733 -0.082645468 0.22914894
0.10699155 -0.080957256 0.22446808
0.10750049 -0.080995627 0.22457446
0.10800987 -0.081033997 0.22468086
0.10862239 -0.081149094 0.22499999
0.10928781 -0.081302568 0.22542553
0.10969599 -0.081264205 0.22531915
0.1098957 -0.08107236 0.22478724
0.10988433 -0.080727048 0.22382979
0.1099215 -0.080420099 0.22297873
0.11016583 -0.080266625 0.22255319
0.11046132 -0.080151521 0.22223404
0.11080859 -0.080074787 0.22202128
0.1112083 -0.080036417 0.22191489
0.11155406 -0.079959683 0.22170213
0.11189894 -0.079882942 0.22148935
0.11235088 -0.079882942 0.22148935
0.11280282 -0.079882942 0.22148935
0.11336356 -0.079959683 0.22170213
0.11392516 -0.080036417 0.22191489
0.1145973 -0.080189891 0.22234042
0.11527117 -0.080343358 0.22276595
0.11600205 -0.080535211 0.22329788
0.11662412 -0.080650307 0.22361702
0.11719181 -0.080727048 0.22382979
0.11753669 -0.080650307 0.22361702
0.1177123 -0.08045847 0.22308511
0.11777304 -0.080189891 0.22234042
0.11788732 -0.079959683 0.22170213
0.11822612 -0.079882942 0.22148935
0.11867806 -0.079882942 0.22148935
0.1343016 -0.080036417 0.22191489
0.13468982 -0.079998046 0.22180851
0.13494796 -0.079882942 0.22148935
0.13526984 -0.079806209 0.2212766
0.13572134 -0.079806209 0.2212766
0.13630378 -0.079882942 0.22148935
0.1368871 -0.079959683 0.22170213
0.13727358 -0.079921313 0.22159575
0.13752738 -0.079806209 0.2212766
0.13758087 -0.079576001 0.2206383
0.13783142 -0.079460889 0.22031915
0.13814743 -0.079384156 0.22010638
0.13866353 -0.079422526 0.22021277
0.13911287 -0.079422526 0.22021277
0.1395622 -0.079422526 0.22021277
0.14001155 -0.079422526 0.22021277
0.14039302 -0.079384156 0.22010638
0.14097829 -0.079460889 0.22031915
0.14156441 -0.079537623 0.22053191
0.14215143 -0.079614364 0.22074468
-0.15131691 -0.087366477 0.24361703
-0.1510174 -0.087480925 0.24393617
-0.15032272 -0.087366477 0.24361703
-0.14930223 -0.087061264 0.24276596
-0.14821999 -0.086717896 0.2418085
-0.14720665 -0.086412691 0.24095745
-0.14645588 -0.086260088 0.24053192
-0.14602965 -0.086298235 0.2406383
-0.14592467 -0.086527139 0.24127659
-0.1458171 -0.086756051 0.2419149
-0.14577082 -0.087023109 0.24265957
-0.14546676 -0.087137565 0.24297872
-0.14509791 -0.087213866 0.2431915
-0.1447282 -0.087290168 0.24340425
-0.14454673 -0.087480925 0.24393617
-0.14448874 -0.087747984 0.24468085
-0.1445529 -0.088091344 0.2456383
-0.14455079 -0.088396557 0.24648936
-0.14448303 -0.088663615 0.24723405
-0.018056624 -0.082635708 0.23042554
-0.017602686 -0.08271201 0.2306383
-0.017132076 -0.08271201 0.2306383
-0.016630726 -0.082559407 0.23021276
-0.016108708 -0.082292348 0.22946809
-0.015604231 -0.082101591 0.22893617
0.10648304 -0.080461085 0.2243617
0.10704225 -0.080537386 0.22457446
0.10755142 -0.080575541 0.22468086
0.10795873 -0.080537386 0.22457446
0.10846832 -0.080575541 0.22468086
0.10897835 -0.080613695 0.22478724
0.10933344 -0.080537386 0.22457446
0.10947962 -0.080308482 0.22393617
0.1096232 -0.080079578 0.22329788
0.10976417 -0.079850666 0.22265957
0.11006051 -0.07973621 0.22234042
0.11040844 -0.079659909 0.22212766
0.11075549 -0.079583608 0.22191489
0.11110168 -0.079507306 0.22170213
0.11144699 -0.079430997 0.22148935
0.11179145 -0.079354696 0.2212766
0.11224295 -0.079354696 0.2212766
0.11280282 -0.079430997 0.22148935
0.11336356 -0.079507306 0.22170213
0.11397978 -0.079621762 0.22202128
0.1145973 -0.07973621 0.22234042
0.11527117 -0.079888813 0.22276595
0.11589151 -0.080003269 0.22308511
0.11645768 -0.080079578 0.22329788
0.116969 -0.080117725 0.22340426
0.11731302 -0.080041423 0.22319148
0.11748777 -0.079850666 0.22265957
0.11760399 -0.079621762 0.22202128
0.11777418 -0.079430997 0.22148935
0.11811256 -0.079354696 0.2212766
0.11856406 -0.079354696 0.2212766
0.11913 -0.079430997 0.22148935
0.13037759 -0.079125792 0.2206383
0.13095395 -0.079202093 0.22085106
0.13146788 -0.07924024 0.22095744
0.13191874 -0.07924024 0.22095744
0.13230586 -0.079202093 0.22085106
0.13301229 -0.079354696 0.2212766
0.13359213 -0.079430997 0.22148935
0.13410847 -0.079469152 0.22159575
0.13449602 -0.079430997 0.22148935
0.13481833 -0.079354696 0.2212766
0.13520481 -0.079316549 0.22117022
0.1356561 -0.079316549 0.22117022
0.13610739 -0.079316549 0.22117022
0.13655868 -0.079316549 0.22117022
0.13694406 -0.079278395 0.22106382
0.13719678 -0.079163946 0.22074468
0.13738187 -0.079011336 0.22031915
0.13769831 -0.078935035 0.22010638
0.13814743 -0.078935035 0.22010638
0.13866353 -0.078973189 0.22021277
0.13911287 -0.078973189 0.22021277
0.1395622 -0.078973189 0.22021277
0.14007919 -0.079011336 0.22031915
0.14052874 -0.079011336 0.22031915
0.14111443 -0.079087637 0.22053191
0.141701 -0.079163946 0.22074468
0.14221993 -0.079202093 0.22085106
-0.15108326 -0.08702112 0.24404256
-0.15045401 -0.086945251 0.24382979
-0.14962935 -0.086755574 0.24329787
-0.14867646 -0.086490035 0.24255319
-0.14772658 -0.086224496 0.2418085
-0.14690931 -0.086034827 0.24127659
-0.14628787 -0.085958958 0.24106383
-0.14592467 -0.086034827 0.24127659
-0.14562473 -0.086148627 0.24159575
-0.14538738 -0.086300366 0.24202128
-0.14502093 -0.086376235 0.24223404
-0.1446536 -0.086452104 0.24244681
-0.14434867 -0.086565904 0.24276596
-0.14429457 -0.086831443 0.24351063
-0.14436309 -0.087172851 0.24446808
-0.1444277 -0.087514259 0.24542554
-0.14442602 -0.087817736 0.2462766
-0.017973259 -0.081786193 0.2293617
-0.017529612 -0.081899993 0.22968085
-0.017068859 -0.081937931 0.22978723
-0.016576931 -0.081824131 0.22946809
-0.016063899 -0.081596524 0.22882979
-0.015567975 -0.081444785 0.22840425
0.10592469 -0.079927415 0.22414893
0.10648304 -0.080003284 0.2243617
0.10704225 -0.080079153 0.22457446
0.10744957 -0.080041215 0.22446808
0.10785645 -0.080003284 0.2243617
0.10831425 -0.080003284 0.2243617
0.10872048 -0.079965353 0.22425532
0.10902268 -0.079851545 0.22393617
0.10921957 -0.079661876 0.22340426
0.10941429 -0.079472207 0.22287235
0.10965928 -0.079320468 0.22244681
0.11000785 -0.079244599 0.22223404
0.11035556 -0.079168729 0.22202128
0.1107024 -0.07909286 0.22180851
0.11099505 -0.07897906 0.22148935
0.11133994 -0.078903191 0.2212766
0.11173771 -0.07886526 0.22117022
0.11218899 -0.07886526 0.22117022
0.11274864 -0.078941122 0.22138298
0.11325476 -0.07897906 0.22148935
0.11387055 -0.07909286 0.22180851
0.1144328 -0.079168729 0.22202128
0.11505097 -0.07928253 0.22234042
0.11561519 -0.079358399 0.22255319
0.11618026 -0.079434268 0.22276595
0.11663481 -0.079434268 0.22276595
0.11697752 -0.079358399 0.22255319
0.1172071 -0.079206668 0.22212766
0.11732224 -0.07897906 0.22148935
0.11749134 -0.078789391 0.22095744
0.11788541 -0.078751452 0.22085106
0.11845005 -0.078827322 0.22106382
0.11901557 -0.078903191 0.2212766
0.11952451 -0.078941122 0.22138298
0.11991858 -0.078903191 0.2212766
0.12609056 -0.07909286 0.22180851
0.12915139 -0.078751452 0.22085106
0.12953961 -0.078713521 0.22074468
0.12986474 -0.078637652 0.22053191
0.13012613 -0.078523852 0.22021277
0.13063855 -0.078561783 0.22031915
0.13115141 -0.078599714 0.22042553
0.13166468 -0.078637652 0.22053191
0.13224214 -0.078713521 0.22074468
0.1327565 -0.078751452 0.22085106
0.13327131 -0.078789391 0.22095744
0.13372217 -0.078789391 0.22095744
0.13410842 -0.078751452 0.22085106
0.13449425 -0.078713521 0.22074468
0.13494468 -0.078713521 0.22074468
0.13539509 -0.078713521 0.22074468
0.13578005 -0.07867559 0.2206383
0.13616456 -0.078637652 0.22053191
0.13654865 -0.078599714 0.22042553
0.13693231 -0.078561783 0.22031915
0.13731553 -0.078523852 0.22021277
0.13776486 -0.078523852 0.22021277
0.13828097 -0.078561783 0.22031915
0.13873053 -0.078561783 0.22031915
0.13918008 -0.078561783 0.22031915
0.13962963 -0.078561783 0.22031915
0.14007919 -0.078561783 0.22031915
0.14059658 -0.078599714 0.22042553
0.14118251 -0.07867559 0.2206383
0.141701 -0.078713521 0.22074468
0.14215143 -0.078713521 0.22074468
-0.15045401 -0.086447723 0.24382979
-0.1497602 -0.086334564 0.24351063
-0.14900249 -0.086183697 0.2430851
-0.14811654 -0.085957401 0.24244681
-0.14723317 -0.085731089 0.2418085
-0.14648154 -0.085580222 0.24138297
-0.14586033 -0.085504793 0.24117021
-0.14543235 -0.085542507 0.24127659
-0.14506786 -0.085617945 0.24148937
-0.14463879 -0.085655659 0.24159575
-0.14427276 -0.085731089 0.2418085
-0.14396913 -0.085844249 0.24212766
-0.14391635 -0.086108267 0.24287234
-0.14404899 -0.086485438 0.24393617
-0.14417729 -0.086862609 0.245
-0.01783154 -0.080676995 0.22755319
-0.017391585 -0.080790147 0.22787234
-0.016958227 -0.080941014 0.22829787
-0.016492393 -0.080941014 0.22829787
-0.016004154 -0.080827862 0.22797872
-0.015502716 -0.08063928 0.22744681
0.10607551 -0.079583198 0.22446808
0.10653353 -0.079583198 0.22446808
0.10689014 -0.079507768 0.22425532
0.10724587 -0.079432331 0.22404255
0.10765188 -0.079394616 0.22393617
0.10810882 -0.079394616 0.22393617
0.10856576 -0.079394616 0.22393617
0.10891911 -0.079319179 0.22372341
0.10916757 -0.079168312 0.22329788
0.10941429 -0.079017445 0.22287235
0.10965928 -0.078866571 0.22244681
0.11000785 -0.078791134 0.22223404
0.11035556 -0.078715704 0.22202128
0.1106493 -0.078602552 0.22170213
0.11094175 -0.0784894 0.22138298
0.11123288 -0.078376248 0.22106382
0.11163021 -0.078338534 0.22095744
0.11208107 -0.078338534 0.22095744
0.1125861 -0.078376248 0.22106382
0.11309157 -0.078413971 0.22117022
0.11359747 -0.078451686 0.2212766
0.11415865 -0.078527115 0.22148935
0.11472069 -0.078602552 0.22170213
0.11522833 -0.078640267 0.22180851
0.11579189 -0.078715704 0.22202128
0.11630061 -0.078753419 0.22212766
0.11664202 -0.078677982 0.22191489
0.11681416 -0.0784894 0.22138298
0.11698414 -0.078300811 0.22085106
0.11715194 -0.07811223 0.22031915
0.11760149 -0.07811223 0.22031915
0.11816505 -0.078187659 0.22053191
0.11878669 -0.078300811 0.22085106
0.1193522 -0.078376248 0.22106382
0.11980327 -0.078376248 0.22106382
0.12025435 -0.078376248 0.22106382
0.12070542 -0.078376248 0.22106382
0.1212148 -0.078413971 0.22117022
0.12178313 -0.0784894 0.22138298
0.12241107 -0.078602552 0.22170213
0.12292241 -0.078640267 0.22180851
0.12319747 -0.078527115 0.22148935
0.12335247 -0.078338534 0.22095744
0.12362451 -0.078225382 0.2206383
0.12407472 -0.078225382 0.2206383
0.12476508 -0.078376248 0.22106382
0.12539692 -0.0784894 0.22138298
0.12584865 -0.0784894 0.22138298
0.12617899 -0.078413971 0.22117022
0.12644756 -0.078300811 0.22085106
0.12653144 -0.078074515 0.22021277
0.1267354 -0.077923648 0.21978724
0.12712231 -0.077885926 0.21968085
0.12781768 -0.078036793 0.22010638
0.12851477 -0.078187659 0.22053191
0.12915139 -0.078300811 0.22085106
0.12953961 -0.078263097 0.22074468
0.12980209 -0.078149945 0.22042553
0.12993754 -0.077961363 0.21989362
0.13026007 -0.077885926 0.21968085
0.13077162 -0.077923648 0.21978724
0.13141063 -0.078036793 0.22010638
0.13205095 -0.078149945 0.22042553
0.13256466 -0.078187659 0.22053191
0.13295048 -0.078149945 0.22042553
0.13333587 -0.07811223 0.22031915
0.13372083 -0.078074515 0.22021277
0.13417017 -0.078074515 0.22021277
0.13468453 -0.07811223 0.22031915
0.13513409 -0.07811223 0.22031915
0.1354527 -0.078036793 0.22010638
0.13583614 -0.077999078 0.22
0.13615325 -0.077923648 0.21978724
0.13666783 -0.077961363 0.21989362
0.13724919 -0.078036793 0.22010638
0.13789797 -0.078149945 0.22042553
0.1384145 -0.078187659 0.22053191
0.13886449 -0.078187659 0.22053191
0.13918008 -0.07811223 0.22031915
0.13949478 -0.078036793 0.22010638
0.1399439 -0.078036793 0.22010638
0.14052874 -0.07811223 0.22031915
0.14104636 -0.078149945 0.22042553
0.14156441 -0.078187659 0.22053191
0.1419459 -0.078149945 0.22042553
-0.14969479 -0.085800193 0.24340425
-0.14900249 -0.085687689 0.2430851
-0.14818153 -0.085500196 0.24255319
-0.14729796 -0.085275196 0.2419149
-0.14648154 -0.085087687 0.24138297
-0.145796 -0.08497519 0.24106383
-0.14523999 -0.084937692 0.24095745
-0.14481223 -0.08497519 0.24106383
-0.14438404 -0.085012689 0.24117021
-0.14395541 -0.085050188 0.24127659
-0.1435896 -0.085125193 0.24148937
-0.14334901 -0.085275196 0.2419149
-0.14329512 -0.085537694 0.24265957
-0.017706495 -0.079650179 0.22595745
-0.017277913 -0.079800181 0.22638299
-0.016855499 -0.079987682 0.2269149
-0.01641554 -0.080100179 0.22723404
-0.015936941 -0.080025181 0.22702128
-0.015430206 -0.079800181 0.22638299
0.10617606 -0.079200178 0.22468086
0.10648304 -0.079087682 0.2243617
0.10668731 -0.078900181 0.22382979
0.10694033 -0.078750178 0.22340426
0.10734504 -0.078712679 0.22329788
0.10790338 -0.078787677 0.22351064
0.10846261 -0.078862682 0.22372341
0.10886731 -0.078825176 0.22361702
0.10921957 -0.078750178 0.22340426
0.10946652 -0.078600176 0.22297873
0.10976417 -0.078487679 0.22265957
0.11006051 -0.078375176 0.22234042
0.11035556 -0.078262679 0.22202128
0.1106493 -0.078150176 0.22170213
0.11088844 -0.078000173 0.2212766
0.11117935 -0.077887677 0.22095744
0.11152272 -0.077812679 0.22074468
0.11191918 -0.07777518 0.2206383
0.11236939 -0.07777518 0.2206383
0.11281959 -0.07777518 0.2206383
0.11332441 -0.077812679 0.22074468
0.11377483 -0.077812679 0.22074468
0.1142803 -0.077850178 0.22085106
0.11484147 -0.077925175 0.22106382
0.11540351 -0.078000173 0.2212766
0.11591072 -0.078037672 0.22138298
0.11625061 -0.077962674 0.22117022
0.11647736 -0.077812679 0.22074468
0.11664604 -0.077625178 0.22021277
0.1168691 -0.077475175 0.21978724
0.11726078 -0.077437676 0.21968085
0.11782303 -0.077512674 0.21989362
0.11844338 -0.077625178 0.22021277
0.11906502 -0.077737674 0.22053191
0.11957267 -0.07777518 0.2206383
0.12008074 -0.077812679 0.22074468
0.12058925 -0.077850178 0.22085106
0.12115649 -0.077925175 0.22106382
0.12172461 -0.078000173 0.2212766
0.12229359 -0.078075171 0.22148935
0.1228045 -0.078112677 0.22159575
0.12307914 -0.078000173 0.2212766
0.12329309 -0.077850178 0.22085106
0.12350529 -0.077700175 0.22042553
0.12395506 -0.077700175 0.22042553
0.12452492 -0.07777518 0.2206383
0.12509564 -0.077850178 0.22085106
0.12548581 -0.077812679 0.22074468
0.12587553 -0.07777518 0.2206383
0.12620392 -0.077700175 0.22042553
0.12647031 -0.077587672 0.22010638
0.1267354 -0.077475175 0.21978724
0.12712231 -0.077437676 0.21968085
0.1277559 -0.077550173 0.22
0.12851477 -0.077737674 0.22053191
0.12915139 -0.077850178 0.22085106
0.12953961 -0.077812679 0.22074468
0.12973945 -0.077662677 0.22031915
0.12981182 -0.077437676 0.21968085
0.13013391 -0.077362679 0.21946809
0.13064502 -0.077400178 0.21957447
0.1312836 -0.077512674 0.21989362
0.13185975 -0.077587672 0.22010638
0.13230887 -0.077587672 0.22010638
0.13269383 -0.077550173 0.22
0.13301396 -0.077475175 0.21978724
0.13346243 -0.077475175 0.21978724
0.13397571 -0.077512674 0.21989362
0.13455446 -0.077587672 0.22010638
0.13500358 -0.077587672 0.22010638
0.13532177 -0.077512674 0.21989362
0.1355734 -0.077400178 0.21957447
0.13588963 -0.07732518 0.21936171
0.13640335 -0.077362679 0.21946809
0.13711652 -0.077512674 0.21989362
0.13783142 -0.077662677 0.22031915
0.1384145 -0.077737674 0.22053191
0.13879751 -0.077700175 0.22042553
0.13897847 -0.077550173 0.22
0.13929252 -0.077475175 0.21978724
0.13974099 -0.077475175 0.21978724
0.14032517 -0.077550173 0.22
0.14091022 -0.077625178 0.22021277
0.14135955 -0.077625178 0.22021277
0.14174038 -0.077587672 0.22010638
-0.14949849 -0.085191682 0.2430851
-0.14887208 -0.085117124 0.24287234
-0.14811654 -0.084967986 0.24244681
-0.14723317 -0.08474429 0.2418085
-0.14635244 -0.084520593 0.24117021
-0.14566731 -0.084408745 0.24085106
-0.14517586 -0.084408745 0.24085106
-0.14474833 -0.084446028 0.24095745
-0.14425667 -0.084446028 0.24095745
-0.14376499 -0.084446028 0.24095745
-0.14321007 -0.084408745 0.24085106
-0.14284469 -0.084483311 0.24106383
-0.14235282 -0.084483311 0.24106383
-0.017212959 -0.079039991 0.22553192
-0.016792281 -0.079226404 0.22606383
-0.01635406 -0.079338253 0.22638299
-0.015877197 -0.079263687 0.22617021
-0.015379448 -0.079077274 0.2256383
-0.014876837 -0.07885357 0.22499999
0.10622633 -0.078779012 0.22478724
0.10643255 -0.078592591 0.22425532
0.10643378 -0.078257047 0.22329788
0.10663478 -0.078070626 0.22276595
0.10708933 -0.078070626 0.22276595
0.10769796 -0.078182481 0.22308511
0.1082563 -0.078257047 0.22329788
0.10876372 -0.078294329 0.22340426
0.10916757 -0.078257047 0.22329788
0.10951874 -0.078182481 0.22308511
0.10986906 -0.078107916 0.22287235
0.11016583 -0.077996068 0.22255319
0.11046132 -0.077884212 0.22223404
0.1106493 -0.077697799 0.22170213
0.11083512 -0.077511385 0.22117022
0.11101877 -0.077324972 0.2206383
0.11130774 -0.077213123 0.22031915
0.11164936 -0.077138551 0.22010638
0.11209848 -0.077138551 0.22010638
0.1125476 -0.077138551 0.22010638
0.11299672 -0.077138551 0.22010638
0.11344584 -0.077138551 0.22010638
0.11389496 -0.077138551 0.22010638
0.11439935 -0.077175841 0.22021277
0.11495965 -0.077250406 0.22042553
0.11552082 -0.077324972 0.2206383
0.1159151 -0.077287689 0.22053191
0.1161967 -0.077175841 0.22021277
0.11636427 -0.07698942 0.21968085
0.11658625 -0.076840289 0.21925531
0.11697686 -0.076803006 0.21914893
0.11748102 -0.076840289 0.21925531
0.11810006 -0.076952137 0.21957447
0.1187204 -0.077063993 0.21989362
0.11934205 -0.077175841 0.22021277
0.11990713 -0.077250406 0.22042553
0.12047308 -0.077324972 0.2206383
0.12098159 -0.077362254 0.22074468
0.12149052 -0.077399537 0.22085106
0.1219999 -0.07743682 0.22095744
0.12250971 -0.077474102 0.22106382
0.12284245 -0.077399537 0.22085106
0.12311491 -0.077287689 0.22053191
0.12338609 -0.077175841 0.22021277
0.12383542 -0.077175841 0.22021277
0.1243448 -0.077213123 0.22031915
0.1247341 -0.077175841 0.22021277
0.12512295 -0.077138551 0.22010638
0.12551138 -0.077101275 0.22
0.12596029 -0.077101275 0.22
0.12634806 -0.077063993 0.21989362
0.1267354 -0.07702671 0.21978724
0.12718387 -0.07702671 0.21978724
0.12781768 -0.077138551 0.22010638
0.12851477 -0.077287689 0.22053191
0.12915139 -0.077399537 0.22085106
0.12953961 -0.077362254 0.22074468
0.1296768 -0.077175841 0.22021277
0.12974896 -0.076952137 0.21957447
0.13007084 -0.076877579 0.21936171
0.13058174 -0.076914854 0.21946809
0.13115656 -0.07698942 0.21968085
0.13166855 -0.07702671 0.21978724
0.13205308 -0.07698942 0.21968085
0.13243715 -0.076952137 0.21957447
0.13282081 -0.076914854 0.21946809
0.13326864 -0.076914854 0.21946809
0.13384607 -0.07698942 0.21968085
0.1344244 -0.077063993 0.21989362
0.13493833 -0.077101275 0.22
0.13525631 -0.07702671 0.21978724
0.13550772 -0.076914854 0.21946809
0.13569193 -0.076765724 0.21904255
0.13607275 -0.076728441 0.21893618
0.1367185 -0.076840289 0.21925531
0.13749865 -0.07702671 0.21978724
0.13814743 -0.077138551 0.22010638
0.13852955 -0.077101275 0.22
0.13877684 -0.07698942 0.21968085
0.13909025 -0.076914854 0.21946809
0.13953808 -0.076914854 0.21946809
0.14012159 -0.07698942 0.21968085
0.140706 -0.077063993 0.21989362
0.14115469 -0.077063993 0.21989362
0.14160337 -0.077063993 0.21989362
-0.14936765 -0.084621549 0.24287234
-0.14874165 -0.084547415 0.24265957
-0.14798655 -0.084399149 0.24223404
-0.14703886 -0.08413969 0.24148937
-0.14615875 -0.08391729 0.24085106
-0.14553863 -0.083843164 0.2406383
-0.14504762 -0.083843164 0.2406383
-0.14468442 -0.08391729 0.24085106
-0.14419296 -0.08391729 0.24085106
-0.14363804 -0.083880231 0.24074468
-0.14308356 -0.083843164 0.2406383
-0.1425295 -0.083806098 0.24053192
-0.14203872 -0.083806098 0.24053192
-0.017212959 -0.078579798 0.22553192
-0.016776474 -0.078690998 0.22585106
-0.016323319 -0.078728065 0.22595745
-0.015839856 -0.078616865 0.2256383
-0.015343194 -0.078431539 0.22510639
-0.014841667 -0.078209139 0.22446808
-0.01435638 -0.078060873 0.22404255
0.10576766 -0.078320339 0.22478724
0.10612578 -0.078246206 0.22457446
0.10633157 -0.078060873 0.22404255
0.10638306 -0.077764347 0.22319148
0.10653294 -0.077541955 0.22255319
0.10693591 -0.077504888 0.22244681
0.10749252 -0.077579021 0.22265957
0.10799842 -0.077616081 0.22276595
0.10850476 -0.077653155 0.22287235
0.10895953 -0.077653155 0.22287235
0.10941429 -0.077653155 0.22287235
0.10986906 -0.077653155 0.22287235
0.1102185 -0.077579021 0.22265957
0.11051419 -0.077467822 0.22234042
0.1107024 -0.077282488 0.22180851
0.1107818 -0.077023029 0.22106382
0.11085818 -0.07676357 0.22031915
0.11098526 -0.07654117 0.21968085
0.11132558 -0.076467037 0.21946809
0.11171923 -0.076429978 0.21936171
0.11222122 -0.076467037 0.21946809
0.11266904 -0.076467037 0.21946809
0.11306202 -0.076429978 0.21936171
0.11345457 -0.076392904 0.21925531
0.11395723 -0.076429978 0.21936171
0.11457127 -0.07654117 0.21968085
0.11518662 -0.07665237 0.22
0.11569144 -0.076689437 0.22010638
0.11602829 -0.076615304 0.21989362
0.11625157 -0.076467037 0.21946809
0.11652969 -0.076355845 0.21914893
0.11686329 -0.076281711 0.21893618
0.11731002 -0.076281711 0.21893618
0.11787119 -0.076355845 0.21914893
0.11849067 -0.076467037 0.21946809
0.11916909 -0.076615304 0.21989362
0.11973351 -0.076689437 0.22010638
0.12029881 -0.07676357 0.22031915
0.12080667 -0.076800637 0.22042553
0.12125644 -0.076800637 0.22042553
0.12170621 -0.076800637 0.22042553
0.12221494 -0.076837696 0.22053191
0.12260576 -0.076800637 0.22042553
0.12293675 -0.076726504 0.22021277
0.12332647 -0.076689437 0.22010638
0.12377559 -0.076689437 0.22010638
0.12422471 -0.076689437 0.22010638
0.12461358 -0.07665237 0.22
0.12494154 -0.076578237 0.21978724
0.12539001 -0.076578237 0.21978724
0.12589937 -0.076615304 0.21989362
0.12634806 -0.076615304 0.21989362
0.12679675 -0.076615304 0.21989362
0.12736855 -0.076689437 0.22010638
0.12794124 -0.07676357 0.22031915
0.12857677 -0.07687477 0.2206383
0.12908918 -0.076911829 0.22074468
0.12941474 -0.076837696 0.22053191
0.12961414 -0.076689437 0.22010638
0.12981182 -0.07654117 0.21968085
0.13013391 -0.076467037 0.21946809
0.13064502 -0.076504104 0.21957447
0.13122009 -0.076578237 0.21978724
0.13166855 -0.076578237 0.21978724
0.13198912 -0.076504104 0.21957447
0.13230884 -0.076429978 0.21936171
0.13269204 -0.076392904 0.21925531
0.13313943 -0.076392904 0.21925531
0.13371645 -0.076467037 0.21946809
0.1344244 -0.076615304 0.21989362
0.13500358 -0.076689437 0.22010638
0.13538724 -0.07665237 0.22
0.1355734 -0.076504104 0.21957447
0.13562603 -0.076281711 0.21893618
0.13580829 -0.076133445 0.21851064
0.13632049 -0.076170512 0.21861702
0.13709933 -0.076355845 0.21914893
0.13781357 -0.076504104 0.21957447
0.13839559 -0.076578237 0.21978724
0.13877684 -0.07654117 0.21968085
0.13915768 -0.076504104 0.21957447
0.13960572 -0.076504104 0.21957447
0.14012159 -0.07654117 0.21968085
0.14063793 -0.076578237 0.21978724
0.1410864 -0.076578237 0.21978724
0.14153486 -0.076578237 0.21978724
-0.1492368 -0.084052272 0.24265957
-0.14861125 -0.083978578 0.24244681
-0.14779158 -0.083794333 0.2419149
-0.14684454 -0.083536394 0.24117021
-0.14602965 -0.083352149 0.2406383
-0.14540994 -0.083278447 0.24042553
-0.14491937 -0.083278447 0.24042553
-0.1444927 -0.083315305 0.24053192
-0.14412928 -0.083388999 0.24074468
-0.14370151 -0.083425842 0.24085106
-0.14327332 -0.0834627 0.24095745
-0.14284469 -0.083499543 0.24106383
-0.14235282 -0.083499543 0.24106383
-0.016768573 -0.078193307 0.22574468
-0.016300263 -0.078156456 0.2256383
-0.015817452 -0.078045912 0.22531915
-0.015328691 -0.077898517 0.22489361
-0.014834634 -0.077714272 0.2243617
-0.01435638 -0.07760372 0.22404255
0.10510963 -0.077714272 0.2243617
0.10556743 -0.077714272 0.2243617
0.10597496 -0.077677421 0.22425532
0.1061801 -0.077493183 0.22372341
0.10633236 -0.077272087 0.22308511
0.10653294 -0.077087842 0.22255319
0.10688476 -0.077014141 0.22234042
0.10733844 -0.077014141 0.22234042
0.10779212 -0.077014141 0.22234042
0.1082458 -0.077014141 0.22234042
0.10875149 -0.077050991 0.22244681
0.10925762 -0.077087842 0.22255319
0.10976417 -0.077124685 0.22265957
0.1102185 -0.077124685 0.22265957
0.11051419 -0.077014141 0.22234042
0.1107024 -0.076829895 0.22180851
0.11072849 -0.076535106 0.22095744
0.1106976 -0.076203465 0.22
0.11071653 -0.075908676 0.21914893
0.11094784 -0.075761281 0.2187234
0.11139414 -0.075761281 0.2187234
0.11189483 -0.075798124 0.21882978
0.11239597 -0.075834982 0.21893618
0.11278787 -0.075798124 0.21882978
0.11323438 -0.075798124 0.21882978
0.11373617 -0.075834982 0.21893618
0.11434934 -0.075945526 0.21925531
0.11496382 -0.076056071 0.21957447
0.1155237 -0.076129772 0.21978724
0.11597216 -0.076129772 0.21978724
0.11630792 -0.076056071 0.21957447
0.11658625 -0.075945526 0.21925531
0.11697686 -0.075908676 0.21914893
0.11742402 -0.075908676 0.21914893
0.1179284 -0.075945526 0.21925531
0.11849067 -0.07601922 0.21946809
0.11911144 -0.076129772 0.21978724
0.11973351 -0.076240316 0.22010638
0.12029881 -0.076314017 0.22031915
0.12074837 -0.076314017 0.22031915
0.1211394 -0.076277167 0.22021277
0.12158874 -0.076277167 0.22021277
0.12203807 -0.076277167 0.22021277
0.12248741 -0.076277167 0.22021277
0.12287735 -0.076240316 0.22010638
0.12332647 -0.076240316 0.22010638
0.12377559 -0.076240316 0.22010638
0.12428476 -0.076277167 0.22021277
0.12461358 -0.076203465 0.22
0.12500201 -0.076166622 0.21989362
0.12539001 -0.076129772 0.21978724
0.12596029 -0.076203465 0.22
0.12653144 -0.076277167 0.22021277
0.12704211 -0.076314017 0.22031915
0.1276148 -0.076387711 0.22053191
0.12812656 -0.076424561 0.2206383
0.12863876 -0.076461412 0.22074468
0.12902698 -0.076424561 0.2206383
0.12935232 -0.07635086 0.22042553
0.12961414 -0.076240316 0.22010638
0.12993754 -0.076166622 0.21989362
0.13032316 -0.076129772 0.21978724
0.13083492 -0.076166622 0.21989362
0.13134712 -0.076203465 0.22
0.13179602 -0.076203465 0.22
0.13211703 -0.076129772 0.21978724
0.13243715 -0.076056071 0.21957447
0.13282081 -0.07601922 0.21946809
0.13313943 -0.075945526 0.21925531
0.13365163 -0.075982377 0.21936171
0.13429433 -0.076092921 0.21968085
0.13506885 -0.076277167 0.22021277
0.13558364 -0.076314017 0.22031915
0.13577046 -0.076166622 0.21989362
0.13575783 -0.075908676 0.21914893
0.13580829 -0.075687587 0.21851064
0.13618781 -0.075650729 0.21840425
0.13696623 -0.075834982 0.21893618
0.13774681 -0.07601922 0.21946809
0.13846257 -0.076166622 0.21989362
0.13897847 -0.076203465 0.22
0.13942736 -0.076203465 0.22
0.13987626 -0.076203465 0.22
0.14025731 -0.076166622 0.21989362
0.14063793 -0.076129772 0.21978724
0.14101811 -0.076092921 0.21968085
-0.14877881 -0.083300717 0.2419149
-0.14821999 -0.083264083 0.2418085
-0.14740162 -0.083080925 0.24127659
-0.14658543 -0.082897767 0.24074468
-0.14583597 -0.082751237 0.24031915
-0.14521693 -0.082677975 0.24010639
-0.14479113 -0.08271461 0.24021277
-0.14430098 -0.08271461 0.24021277
-0.1439382 -0.082787871 0.24042553
-0.14376499 -0.082971029 0.24095745
-0.1435896 -0.083154187 0.24148937
-0.14328596 -0.083264083 0.2418085
-0.14285539 -0.083300717 0.2419149
-0.016284892 -0.077622786 0.22542553
-0.015809983 -0.077549525 0.22521277
-0.015328691 -0.077439629 0.22489361
-0.014841667 -0.077293098 0.22446808
-0.014363197 -0.077183202 0.22414893
-0.013892629 -0.07710994 0.22393617
0.10445335 -0.07710994 0.22393617
0.10491028 -0.07710994 0.22393617
0.10531716 -0.077073313 0.22382979
0.10567333 -0.077000044 0.22361702
0.10602863 -0.076926783 0.22340426
0.10633236 -0.076816887 0.22308511
0.10663478 -0.076706991 0.22276595
0.10693591 -0.076597095 0.22244681
0.10728709 -0.076523833 0.22223404
0.10768898 -0.076487198 0.22212766
0.10809043 -0.076450571 0.22202128
0.10854346 -0.076450571 0.22202128
0.10904871 -0.076487198 0.22212766
0.1095544 -0.076523833 0.22223404
0.11006051 -0.07656046 0.22234042
0.11046132 -0.076523833 0.22223404
0.1106493 -0.076340675 0.22170213
0.11067519 -0.076047622 0.22085106
0.11059054 -0.075681306 0.21978724
0.11060904 -0.075388245 0.21893618
0.11078595 -0.075205088 0.21840425
0.11117742 -0.075168453 0.21829787
0.11167724 -0.075205088 0.21840425
0.11223213 -0.075278349 0.21861702
0.11267821 -0.075278349 0.21861702
0.11312429 -0.075278349 0.21861702
0.11362563 -0.075314984 0.2187234
0.11423837 -0.07542488 0.21904255
0.11490812 -0.075571403 0.21946809
0.1155237 -0.075681306 0.21978724
0.11608443 -0.075754561 0.22
0.11647698 -0.075717933 0.21989362
0.1168691 -0.075681306 0.21978724
0.11726078 -0.075644664 0.21968085
0.11765203 -0.075608037 0.21957447
0.11815728 -0.075644664 0.21968085
0.11866298 -0.075681306 0.21978724
0.1192844 -0.075791195 0.22010638
0.11984926 -0.075864464 0.22031915
0.12041499 -0.075937726 0.22053191
0.12080667 -0.075901091 0.22042553
0.12119792 -0.075864464 0.22031915
0.12153 -0.075791195 0.22010638
0.12192016 -0.075754561 0.22
0.12242823 -0.075791195 0.22010638
0.12287735 -0.075791195 0.22010638
0.12344569 -0.075864464 0.22031915
0.12395506 -0.075901091 0.22042553
0.12446488 -0.075937726 0.22053191
0.12479435 -0.075864464 0.22031915
0.12512295 -0.075791195 0.22010638
0.12551138 -0.075754561 0.22
0.12608211 -0.07582783 0.22021277
0.12671481 -0.075937726 0.22053191
0.12728749 -0.076010987 0.22074468
0.12786104 -0.076084249 0.22095744
0.12837367 -0.076120883 0.22106382
0.12876275 -0.076084249 0.22095744
0.12902698 -0.07597436 0.2206383
0.12935232 -0.075901091 0.22042553
0.1296768 -0.07582783 0.22021277
0.13006327 -0.075791195 0.22010638
0.13051239 -0.075791195 0.22010638
