# .PCD v0.7 - Point Cloud Data file format
VERSION 0.7
FIELDS x y z
SIZE 4 4 4
TYPE F F F
COUNT 1 1 1
WIDTH 1301
HEIGHT 1
VIEWPOINT 0 0 0 1 0 0 0
POINTS 1301
DATA ascii
0.057092648 -0.0037113621 0.13223404
0.057547063 -0.0037233054 0.13265957
0.057956848 -0.0037322629 0.13297872
0.058274765 -0.0037352487 0.1330851
0.14422348 -0.0064284499 0.22904256
0.14469083 -0.0064284499 0.22904256
0.14515819 -0.0064284499 0.22904256
0.1455579 -0.0064254636 0.22893617
0.14588933 -0.0064194924 0.22872341
0.14628795 -0.0064165066 0.22861703
-0.13185544 -0.0054710293 0.21021277
-0.13149303 -0.0054737977 0.21031915
-0.13113017 -0.0054765665 0.21042553
-0.13076688 -0.0054793353 0.21053192
-0.13040316 -0.0054821041 0.2106383
-0.13010465 -0.0054876413 0.21085106
-0.12973984 -0.0054904106 0.21095745
-0.12930939 -0.0054904106 0.21095745
-0.12881394 -0.0054876413 0.21085106
-0.12825416 -0.0054821041 0.2106383
-0.12769523 -0.0054765665 0.21042553
-0.12726587 -0.0054765665 0.21042553
-0.12683651 -0.0054765665 0.21042553
-0.12647106 -0.0054793353 0.21053192
-0.12616885 -0.005484873 0.21074468
-0.12580229 -0.0054876413 0.21085106
-0.12537207 -0.0054876413 0.21085106
-0.12500487 -0.0054904106 0.21095745
-0.12470006 -0.0054959478 0.21117021
-0.1246448 -0.0055125603 0.21180852
-0.1247117 -0.0055347099 0.21265957
-0.12452646 -0.0055457847 0.2130851
-0.07394556 -0.0033280249 0.12787235
-0.073745936 -0.0033307937 0.12797873
-0.073484801 -0.0033307937 0.12797873
-0.073101923 -0.0033252561 0.12776595
-0.072719924 -0.0033197186 0.12755319
-0.07233879 -0.003314181 0.12734042
-0.071958527 -0.0033086436 0.12712766
-0.071699128 -0.0033086436 0.12712766
-0.071499504 -0.0033114124 0.12723404
-0.071299456 -0.003314181 0.12734042
-0.07115832 -0.0033197186 0.12755319
-0.071075447 -0.0033280249 0.12787235
-0.070991263 -0.0033363309 0.12819149
-0.071023174 -0.0033501745 0.1287234
-0.071052924 -0.0033640186 0.12925532
-0.071138754 -0.0033806309 0.12989362
-0.071105897 -0.0033917057 0.13031915
-0.070955642 -0.0033972436 0.13053192
-0.070746906 -0.0034000122 0.1306383
-0.12266171 -0.0060081645 0.23085107
-0.12230328 -0.0060137021 0.23106383
-0.12200008 -0.0060220081 0.23138298
-0.1218632 -0.0060386206 0.23202127
-0.12194635 -0.0060663084 0.23308511
-0.12224691 -0.0061050705 0.23457447
-0.12248618 -0.0061410638 0.23595744
-0.1226648 -0.0061742887 0.23723404
-0.12272863 -0.0062019764 0.23829788
-0.12284268 -0.0062324326 0.23946808
-0.12295197 -0.0062628887 0.2406383
-0.12311061 -0.0062961136 0.2419149
-0.1231562 -0.0063238009 0.24297872
-0.12309005 -0.0063459505 0.24382979
-0.12291344 -0.006362563 0.24446808
-0.12268097 -0.0063764071 0.245
-0.12249937 -0.0063930191 0.2456383
-0.12252652 -0.0064207069 0.24670213
-0.12275979 -0.006459469 0.24819149
-0.12309179 -0.0065037692 0.24989362
-0.12326029 -0.006539762 0.25127658
-0.12450494 -0.0066892747 0.25702128
-0.1239805 -0.0066892747 0.25702128
-0.12345605 -0.0066892747 0.25702128
-0.12293161 -0.0066892747 0.25702128
-0.12260982 -0.006700349 0.2574468
-0.12253855 -0.006725268 0.25840425
-0.12291544 -0.0067751054 0.26031914
-0.12358461 -0.0068415552 0.26287234
-0.12429316 -0.0069107739 0.26553193
-0.12484209 -0.0069716857 0.26787233
-0.12513468 -0.0070187547 0.26968086
-0.12527244 -0.0070575164 0.2711702
-0.12530628 -0.0070907418 0.27244681
-0.12533489 -0.0071239662 0.27372339
-0.12545529 -0.0071627288 0.27521276
-0.12561789 -0.0072042597 0.2768085
-0.1256298 -0.0072374851 0.27808511
-0.12539728 -0.007256866 0.27882978
-0.12501885 -0.0072679413 0.27925533
-0.12473348 -0.0072845533 0.27989361
-0.12468148 -0.0073150094 0.28106382
-0.12485958 -0.0073593091 0.28276595
-0.12512425 -0.0074091465 0.28468084
-0.12542765 -0.0074617527 0.28670213
-0.1257228 -0.007514359 0.28872341
-0.12591748 -0.0075614271 0.2905319
-0.12610479 -0.0076084961 0.29234043
-0.12619336 -0.0076500271 0.29393616
-0.12632088 -0.0076943268 0.29563829
-0.12657717 -0.007746933 0.29765958
-0.12691526 -0.0078050764 0.29989362
-0.12728903 -0.0078659886 0.30223405
-0.12738574 -0.0079102889 0.30393618
-0.12712052 -0.0079324385 0.30478725
-0.12667522 -0.0079435138 0.30521277
-0.1260085 -0.007940744 0.30510637
-0.075681031 -0.0056648408 0.21765958
-0.075347222 -0.0056731473 0.21797873
-0.075121775 -0.0056897597 0.21861702
-0.074857391 -0.0057036034 0.21914893
-0.074590825 -0.0057174466 0.21968085
-0.074250288 -0.005725753 0.22
-0.073801391 -0.005725753 0.22
-0.073139668 -0.005709141 0.21936171
-0.072445296 -0.0056897597 0.21861702
-0.071824029 -0.0056759161 0.21808511
0.036632858 -0.0077109393 0.2962766
0.037277512 -0.0077192457 0.29659575
0.041293953 -0.0055679348 0.21393616
0.041834239 -0.0055817789 0.21446809
0.042376697 -0.0055956226 0.215
0.042900138 -0.0056066974 0.21542554
0.043339707 -0.0056066974 0.21542554
0.043757651 -0.0056039286 0.21531914
0.044175167 -0.0056011598 0.21521276
0.04459225 -0.0055983909 0.21510638
0.045053437 -0.0056011598 0.21521276
0.045605008 -0.0056150034 0.21574467
0.046272278 -0.0056426912 0.21680851
0.047035571 -0.0056814533 0.21829787
0.047874365 -0.0057285218 0.22010638
0.048697177 -0.0057728216 0.22180851
0.049479797 -0.0058115842 0.22329788
0.050125744 -0.0058337338 0.22414893
0.050679144 -0.0058448086 0.22457446
0.051113155 -0.0058420403 0.22446808
0.051424529 -0.0058254278 0.22382979
0.051634662 -0.0057977401 0.22276595
0.051666323 -0.0057506715 0.22095744
0.051640425 -0.0056980657 0.21893618
0.051834058 -0.0056703785 0.21787234
0.046585549 -0.0031674379 0.12170213
0.046752002 -0.0031619004 0.12148936
0.046835274 -0.0031508254 0.12106383
0.046834063 -0.0031342129 0.12042553
0.046830244 -0.0031176005 0.11978723
0.04690744 -0.0031065256 0.1193617
0.047024924 -0.0030982194 0.11904255
0.047183342 -0.003092682 0.11882979
0.047383353 -0.0030899132 0.11872341
0.047582928 -0.0030871443 0.11861702
0.047824964 -0.0030871443 0.11861702
0.048153214 -0.003092682 0.11882979
0.048655644 -0.0031092945 0.11946809
0.049378391 -0.0031397506 0.1206383
0.050280958 -0.0031812815 0.12223404
0.051321972 -0.0032311189 0.12414894
0.052459192 -0.0032864937 0.1262766
0.053516265 -0.0033363309 0.12819149
0.054358009 -0.0033723244 0.12957446
0.054981172 -0.0033944745 0.13042553
0.055472612 -0.0034083182 0.13095744
0.05587567 -0.0034166244 0.13127659
0.056234535 -0.003422162 0.13148937
0.05668569 -0.0034332371 0.1319149
0.057184514 -0.0034470807 0.13244681
0.057685509 -0.0034609244 0.13297872
0.058095943 -0.0034692306 0.13329788
0.058461096 -0.0034747678 0.13351063
0.14408949 -0.0059555583 0.22882979
0.14455642 -0.0059555583 0.22882979
0.14509076 -0.0059583271 0.22893617
0.1455579 -0.0059583271 0.22893617
0.14602503 -0.0059583271 0.22893617
0.1464241 -0.0059555583 0.22882979
-0.1319889 -0.0050472002 0.21042553
-0.13155954 -0.0050472002 0.21042553
-0.13106388 -0.0050446484 0.21031915
-0.13056865 -0.0050420971 0.21021277
-0.13020557 -0.0050446484 0.21031915
-0.12990771 -0.0050497521 0.21053192
-0.12960899 -0.0050548553 0.21074468
-0.12917897 -0.0050548553 0.21074468
-0.12855397 -0.0050472002 0.21042553
-0.12799506 -0.0050420971 0.21021277
-0.12743701 -0.0050369934 0.20999999
-0.12700851 -0.0050369934 0.20999999
-0.12664413 -0.0050395452 0.21010639
-0.12634324 -0.0050446484 0.21031915
-0.12597777 -0.0050472002 0.21042553
-0.12561189 -0.0050497521 0.21053192
-0.1251823 -0.0050497521 0.21053192
-0.12481575 -0.0050523039 0.2106383
-0.12463724 -0.0050625103 0.21106383
-0.1246448 -0.0050803721 0.21180852
-0.1247117 -0.0051007853 0.21265957
-0.12452646 -0.0051109921 0.2130851
-0.074068591 -0.003072209 0.12808511
-0.07380724 -0.003072209 0.12808511
-0.073545888 -0.003072209 0.12808511
-0.073162802 -0.0030671058 0.12787235
-0.072719924 -0.0030594505 0.12755319
-0.072278358 -0.0030517955 0.12723404
-0.071898311 -0.0030466923 0.12702128
-0.071579121 -0.0030441405 0.12691489
-0.071379945 -0.0030466923 0.12702128
-0.071180329 -0.0030492439 0.12712766
-0.071098976 -0.0030568989 0.12744682
-0.071016312 -0.0030645537 0.12776595
-0.070991263 -0.0030747605 0.12819149
-0.070964478 -0.0030849671 0.12861702
-0.070994437 -0.0030977253 0.12914893
-0.071022235 -0.003110484 0.12968086
-0.07098981 -0.0031206908 0.13010639
-0.07089781 -0.0031283456 0.13042553
-0.070689298 -0.0031308974 0.13053192
-0.12260517 -0.0055345688 0.23074467
-0.12219067 -0.0055371206 0.23085107
-0.12188789 -0.0055447756 0.23117021
-0.12169558 -0.0055575343 0.23170213
-0.12172372 -0.0055804993 0.23265958
-0.12191427 -0.0056111193 0.23393618
-0.12221006 -0.0056468425 0.23542553
-0.12238976 -0.0056774626 0.23670213
-0.12256426 -0.0057080826 0.23797873
-0.12267897 -0.0057361508 0.23914893
-0.12284326 -0.0057667708 0.24042553
-0.1229482 -0.005794839 0.24159575
-0.12299444 -0.0058203558 0.24265957
-0.12292894 -0.005840769 0.24351063
-0.12275299 -0.0058560795 0.24414894
-0.1226277 -0.0058739409 0.24489361
-0.12255242 -0.0058943541 0.24574468
-0.12268502 -0.0059249741 0.24702127
-0.12297027 -0.0059632496 0.24861702
-0.1231966 -0.0059989728 0.25010639
-0.12310375 -0.0060193865 0.25095746
-0.12414421 -0.0061469697 0.25627661
-0.12382655 -0.0061571761 0.25670213
-0.12335386 -0.0061597279 0.25680852
-0.12288073 -0.0061622793 0.25691488
-0.12255917 -0.0061724861 0.25734043
-0.122589 -0.0062005548 0.25851065
-0.1230159 -0.0062490357 0.2605319
-0.12368463 -0.0063102762 0.2630851
-0.12434294 -0.0063715163 0.26563829
-0.12479252 -0.00642255 0.26776597
-0.12503596 -0.0064633768 0.2694681
-0.12522329 -0.0065016514 0.27106383
-0.12530628 -0.0065348232 0.27244681
-0.12543233 -0.0065705469 0.27393618
-0.12564927 -0.0066113733 0.27563831
-0.12581101 -0.0066496483 0.27723405
-0.12582204 -0.0066802679 0.27851063
-0.12554081 -0.0066955783 0.27914894
-0.12520935 -0.0067083365 0.27968085
-0.12497053 -0.0067261979 0.28042552
-0.12501183 -0.0067593702 0.28180853
-0.12509446 -0.006795093 0.28329787
-0.12521777 -0.006833368 0.2848936
-0.12528802 -0.0068690917 0.28638297
-0.1255375 -0.0069150212 0.28829786
-0.12587138 -0.0069660554 0.29042554
-0.12619656 -0.0070170881 0.29255319
-0.12637605 -0.0070604668 0.29436171
-0.12650271 -0.0071012937 0.29606384
-0.12671289 -0.0071472237 0.29797873
-0.12700529 -0.0071982569 0.30010638
-0.12737864 -0.0072543938 0.30244681
-0.12751947 -0.0072977715 0.30425531
-0.12734237 -0.0073232888 0.30531916
-0.12689598 -0.0073334952 0.30574468
-0.12631606 -0.007336047 0.30585107
-0.075570062 -0.0052130586 0.21734042
-0.075273678 -0.0052232654 0.21776596
-0.075085223 -0.0052411272 0.21851064
-0.074857391 -0.0052564372 0.21914893
-0.074663073 -0.0052742991 0.21989362
-0.074358009 -0.0052845054 0.22031915
-0.073944137 -0.0052870573 0.22042553
-0.07342343 -0.0052819541 0.22021277
-0.072868332 -0.0052742991 0.21989362
-0.072314538 -0.0052666436 0.21957447
0.035494354 -0.0076422472 0.31861702
0.03614448 -0.0076422472 0.31861702
0.036527626 -0.0070859836 0.29542553
0.037143804 -0.0070885355 0.29553193
0.041376088 -0.0051416121 0.2143617
0.041854989 -0.0051467153 0.21457447
0.042376697 -0.0051569222 0.215
0.042878948 -0.0051645767 0.21531914
0.043339707 -0.005167129 0.21542554
0.043757651 -0.0051645767 0.21531914
0.044175167 -0.0051620253 0.21521276
0.044614304 -0.0051620253 0.21521276
0.045097981 -0.005167129 0.21542554
0.045649987 -0.0051798872 0.21595745
0.046272278 -0.0052003004 0.21680851
0.046989731 -0.0052309204 0.21808511
0.047804948 -0.0052717472 0.21978724
0.04865047 -0.0053151255 0.22159575
0.04945622 -0.0053534005 0.22319148
0.050125744 -0.0053763655 0.22414893
0.050655138 -0.0053840205 0.22446808
0.051113155 -0.0053840205 0.22446808
0.051448971 -0.0053712623 0.22393617
0.051683981 -0.0053482973 0.22297873
0.051740952 -0.0053074704 0.2212766
0.051765885 -0.0052640922 0.21946809
0.051985919 -0.0052411272 0.21851064
0.046585549 -0.0029191088 0.12170213
0.046752002 -0.0029140054 0.12148936
0.046835274 -0.0029037988 0.12106383
0.046834063 -0.0028884888 0.12042553
0.046871837 -0.0028757304 0.11989362
0.04690744 -0.002862972 0.1193617
0.046982899 -0.0028527654 0.11893617
0.04709886 -0.0028451104 0.11861702
0.047298439 -0.0028425588 0.11851064
0.047497578 -0.002840007 0.11840425
0.047782071 -0.0028425588 0.11851064
0.048110109 -0.0028476622 0.11872341
0.048612315 -0.002862972 0.1193617
0.049291305 -0.0028884888 0.12042553
0.050149679 -0.002924212 0.12191489
0.051102087 -0.0029650389 0.12361702
0.052238218 -0.0030160723 0.12574469
0.053338617 -0.0030645537 0.12776595
0.054268755 -0.003102829 0.1293617
0.054981172 -0.0031283456 0.13042553
0.055517681 -0.0031436556 0.13106383
0.055966236 -0.0031538624 0.13148937
0.056325525 -0.0031589656 0.13170213
0.05668569 -0.003164069 0.1319149
0.057138585 -0.0031742759 0.13234043
0.05763936 -0.003187034 0.13287234
0.058095943 -0.0031972406 0.13329788
0.058461096 -0.0032023438 0.13351063
0.14395553 -0.0054835356 0.22861703
0.14455642 -0.0054886388 0.22882979
0.14515819 -0.0054937424 0.22904256
0.14569317 -0.0054962942 0.22914894
0.1462286 -0.0054988456 0.22925532
-0.13205564 -0.0046201688 0.21053192
-0.13155954 -0.004617834 0.21042553
-0.13099758 -0.0046131648 0.21021277
-0.13043649 -0.0046084956 0.20999999
-0.130008 -0.0046084956 0.20999999
-0.12977643 -0.0046154996 0.21031915
-0.12947814 -0.0046201688 0.21053192
-0.12904856 -0.0046201688 0.21053192
-0.12842399 -0.0046131648 0.21021277
-0.12780073 -0.0046061608 0.20989361
-0.12724334 -0.0046014921 0.20968086
-0.1268155 -0.0046014921 0.20968086
-0.12658001 -0.0046084956 0.20999999
-0.12627932 -0.0046131648 0.21021277
-0.12591408 -0.0046154996 0.21031915
-0.12542146 -0.0046131648 0.21021277
-0.12499253 -0.0046131648 0.21021277
-0.12468968 -0.004617834 0.21042553
-0.12457442 -0.0046295072 0.21095745
-0.12458219 -0.0046458491 0.21170212
-0.12458693 -0.0046621915 0.21244681
-0.12440212 -0.0046715299 0.21287234
-0.074068591 -0.0028108556 0.12808511
-0.07380724 -0.0028108556 0.12808511
-0.073484801 -0.002808521 0.12797873
-0.073101923 -0.0028038516 0.12776595
-0.072659276 -0.0027968481 0.12744682
-0.072217926 -0.0027898443 0.12712766
-0.071777873 -0.0027828403 0.12680851
-0.071459129 -0.0027805057 0.12670213
-0.071260378 -0.0027828403 0.12680851
-0.071120761 -0.0027875097 0.12702128
-0.071039617 -0.0027945132 0.12734042
-0.071016312 -0.0028038516 0.12776595
-0.070932351 -0.0028108556 0.12808511
-0.070964478 -0.0028225284 0.12861702
-0.070935957 -0.002831867 0.12904255
-0.070963964 -0.0028435397 0.12957446
-0.070931755 -0.0028528781 0.13
-0.070839986 -0.0028598821 0.13031915
-0.070631683 -0.0028622167 0.13042553
-0.12271824 -0.0050684116 0.23095745
-0.12230328 -0.0050707459 0.23106383
-0.12194399 -0.0050754151 0.2312766
-0.1216397 -0.0050824187 0.23159574
-0.12155674 -0.0050987611 0.23234043
-0.12163706 -0.005122107 0.23340425
-0.12187873 -0.0051524569 0.23478724
-0.12216974 -0.0051851412 0.2362766
-0.12239989 -0.0052154912 0.23765957
-0.12267897 -0.0052481755 0.23914893
-0.12284326 -0.0052761906 0.24042553
-0.12289406 -0.0052995365 0.24148937
-0.12288661 -0.0053205481 0.24244681
-0.12282153 -0.0053392248 0.24329787
-0.12264601 -0.0053532324 0.24393617
-0.12257443 -0.0053719091 0.24478723
-0.12265854 -0.0053975899 0.24595745
-0.12289637 -0.0054302742 0.24744681
-0.12323336 -0.0054676277 0.24914894
-0.1234062 -0.0054979771 0.25053191
-0.12331248 -0.0055166543 0.25138298
-0.12352709 -0.0055493386 0.25287235
-0.12383913 -0.0055866921 0.25457448
-0.12378347 -0.0056077032 0.25553191
-0.12356997 -0.0056217113 0.25617021
-0.12325165 -0.0056310492 0.25659573
-0.12288073 -0.0056380532 0.25691488
-0.12276182 -0.0056567299 0.25776595
-0.12289168 -0.0056870794 0.25914893
-0.12326707 -0.005729103 0.26106384
-0.12388469 -0.0057827984 0.26351064
-0.12439275 -0.0058318251 0.26574469
-0.12469335 -0.0058715129 0.26755318
-0.12488787 -0.0059065321 0.26914895
-0.12507586 -0.0059415507 0.27074468
-0.12525734 -0.0059765698 0.27234042
-0.12548102 -0.0060139233 0.27404255
-0.12574627 -0.0060536116 0.27585107
-0.12595583 -0.0060909656 0.2775532
-0.12596622 -0.0061189802 0.27882978
-0.12573218 -0.0061353222 0.27957445
-0.12544748 -0.0061493302 0.28021276
-0.1253024 -0.0061703417 0.28117022
-0.12529498 -0.0061983564 0.2824468
-0.12532933 -0.0062287063 0.28382978
-0.12526453 -0.0062543871 0.285
-0.12519494 -0.0062800678 0.28617021
-0.1253522 -0.0063174213 0.28787234
-0.12577917 -0.0063687824 0.29021278
-0.12624246 -0.0064224782 0.29265958
-0.12651308 -0.0064668357 0.29468086
-0.12668452 -0.0065065236 0.29648936
-0.12684861 -0.0065462119 0.29829788
-0.12705033 -0.0065882346 0.30021277
-0.12733383 -0.0066349264 0.30234042
-0.1274749 -0.0066746147 0.30414894
-0.12734237 -0.0067002955 0.30531916
-0.12689598 -0.0067096334 0.30574468
-0.12635998 -0.0067143026 0.30595744
-0.075570062 -0.0047695828 0.21734042
-0.075273678 -0.0047789211 0.21776596
-0.075121775 -0.0047975979 0.21861702
-0.074966408 -0.0048162751 0.21946809
-0.074771442 -0.004832617 0.22021277
-0.074501626 -0.0048442902 0.22074468
-0.074158259 -0.0048512938 0.22106382
-0.073707186 -0.0048512938 0.22106382
-0.073220864 -0.0048489594 0.22095744
-0.072734967 -0.0048466246 0.22085106
0.035458799 -0.0069851158 0.31829786
0.036108274 -0.0069851158 0.31829786
0.03589895 -0.0064785085 0.29521278
0.036501322 -0.0064785085 0.29521278
0.03709032 -0.0064761736 0.29510638
0.041499294 -0.0047182217 0.215
0.041958746 -0.0047205565 0.21510638
0.042418629 -0.0047228909 0.21521276
0.042878948 -0.0047252253 0.21531914
0.043318301 -0.0047252253 0.21531914
0.043736033 -0.0047228909 0.21521276
0.044153333 -0.0047205565 0.21510638
0.044614304 -0.0047228909 0.21521276
0.045097981 -0.0047275601 0.21542554
0.045649987 -0.0047392333 0.21595745
0.046249576 -0.0047555757 0.21670213
0.046943884 -0.004781256 0.21787234
0.047758669 -0.0048186095 0.21957447
0.048627108 -0.0048606321 0.22148935
0.04943265 -0.0048956512 0.22308511
0.050125744 -0.0049189972 0.22414893
0.050655138 -0.0049260007 0.22446808
0.051088933 -0.0049236664 0.2243617
0.051448971 -0.004914328 0.22393617
0.051708639 -0.0048956512 0.22308511
0.051890202 -0.0048699705 0.22191489
0.05199172 -0.0048372862 0.22042553
0.046544828 -0.0026684452 0.12159575
0.046711065 -0.002663776 0.12138298
0.046835274 -0.002656772 0.12106383
0.046875436 -0.0026450991 0.12053192
0.046913426 -0.0026334261 0.12
0.04690744 -0.0026194185 0.1193617
0.046940874 -0.0026077456 0.11882979
0.047056619 -0.0026007418 0.11851064
0.047255978 -0.0025984072 0.11840425
0.047454905 -0.0025960726 0.11829787
0.047739178 -0.0025984072 0.11840425
0.048110109 -0.002605411 0.11872341
0.048612315 -0.0026194185 0.1193617
0.049247764 -0.0026404299 0.12031915
0.050018396 -0.0026684452 0.12159575
0.050926175 -0.0027034641 0.12319149
0.052017238 -0.0027478212 0.12521276
0.05311656 -0.0027921787 0.12723404
0.054134868 -0.002831867 0.12904255
0.054936327 -0.0028598821 0.13031915
0.055517681 -0.0028762245 0.13106383
0.055966236 -0.0028855628 0.13148937
0.056325525 -0.0028902318 0.13170213
0.056639973 -0.0028925664 0.1318085
0.057046719 -0.0028995702 0.13212766
0.057500914 -0.0029089085 0.13255319
0.057956848 -0.0029182469 0.13297872
0.058367934 -0.0029252509 0.13329788
0.14408949 -0.0050217193 0.22882979
0.14469083 -0.0050263889 0.22904256
0.14536044 -0.0050333925 0.2293617
0.14596373 -0.0050380616 0.22957447
0.14650002 -0.0050403965 0.22968085
-0.1319889 -0.0041884677 0.21042553
-0.13149303 -0.0041863504 0.21031915
-0.13086499 -0.0041799974 0.20999999
-0.13030434 -0.0041757626 0.20978723
-0.12987629 -0.0041757626 0.20978723
-0.12964515 -0.0041821152 0.21010639
-0.12934728 -0.0041863504 0.21031915
-0.12898333 -0.0041884677 0.21042553
-0.12842399 -0.0041842326 0.21021277
-0.12780073 -0.00417788 0.20989361
-0.12730789 -0.0041757626 0.20978723
-0.12694417 -0.00417788 0.20989361
-0.12664413 -0.0041821152 0.21010639
-0.12634324 -0.0041863504 0.21031915
-0.12591408 -0.0041863504 0.21031915
-0.12542146 -0.0041842326 0.21021277
-0.12499253 -0.0041842326 0.21021277
-0.12475272 -0.0041905856 0.21053192
-0.12457442 -0.0041990555 0.21095745
-0.12445699 -0.0042096432 0.21148936
-0.12433738 -0.0042202305 0.21202128
-0.12409128 -0.0042265835 0.21234043
-0.073884033 -0.0025431495 0.12776595
-0.073623329 -0.0025431495 0.12776595
-0.073362626 -0.0025431495 0.12776595
-0.073041059 -0.0025410322 0.12765957
-0.072659276 -0.0025367972 0.12744682
-0.072217926 -0.0025304444 0.12712766
-0.071838088 -0.0025262092 0.12691489
-0.071519129 -0.0025240919 0.12680851
-0.071260378 -0.0025240919 0.12680851
-0.071061194 -0.0025262092 0.12691489
-0.070980273 -0.002532562 0.12723404
-0.070957176 -0.0025410322 0.12765957
-0.070932351 -0.0025495021 0.12808511
-0.070905782 -0.0025579722 0.12851064
-0.070935957 -0.00256856 0.12904255
-0.070905708 -0.0025770299 0.12946808
-0.070873715 -0.0025855 0.12989362
-0.070839986 -0.0025939702 0.13031915
-0.070689298 -0.0025982053 0.13053192
-0.12294434 -0.0046056206 0.23138298
-0.12252852 -0.004607738 0.23148936
-0.12216836 -0.0046119732 0.23170213
-0.12180732 -0.0046162084 0.23191489
-0.1216124 -0.0046267956 0.2324468
-0.12158162 -0.0046437359 0.23329787
-0.12176827 -0.0046691461 0.23457447
-0.12211473 -0.0047009094 0.23617022
-0.12245467 -0.0047326721 0.23776595
-0.12273354 -0.0047623175 0.23925532
-0.12289762 -0.0047877282 0.24053192
-0.1229482 -0.0048089032 0.24159575
-0.12288661 -0.0048258435 0.24244681
-0.12271412 -0.0048385486 0.2430851
-0.12259252 -0.0048533711 0.24382979
-0.12257443 -0.0048724287 0.24478723
-0.12271158 -0.0048978394 0.24606383
-0.12305488 -0.0049317195 0.24776596
-0.1233386 -0.0049634827 0.24936171
-0.123511 -0.0049910103 0.25074467
-0.12336467 -0.0050058332 0.25148937
-0.12331922 -0.0050248909 0.2524468
-0.12337337 -0.0050481837 0.25361702
-0.12342273 -0.0050714766 0.25478724
-0.12336471 -0.0050905347 0.2557447
-0.12314945 -0.0051032393 0.25638297
-0.12318602 -0.0051265322 0.25755319
-0.12331914 -0.0051540597 0.25893617
-0.12339617 -0.0051794704 0.26021278
-0.12361868 -0.0052112332 0.26180851
-0.12403474 -0.0052514663 0.2638298
-0.12434294 -0.0052874642 0.26563829
-0.12454462 -0.0053192275 0.26723406
-0.12469041 -0.0053488724 0.2687234
-0.12487929 -0.0053806356 0.27031916
-0.12511055 -0.0054145157 0.27202126
-0.12543233 -0.0054526315 0.27393618
-0.12569776 -0.005488629 0.27574468
-0.12595583 -0.0055246274 0.2775532
-0.12601429 -0.005552155 0.27893618
-0.12587571 -0.0055712126 0.27989361
-0.12563799 -0.0055860355 0.28063831
-0.12553944 -0.0056072106 0.28170213
-0.12553094 -0.0056326208 0.28297871
-0.1255642 -0.0056601488 0.28436169
-0.12535803 -0.0056770891 0.28521276
-0.12519494 -0.0056961467 0.28617021
-0.12525956 -0.0057257926 0.28765959
-0.12568694 -0.0057723778 0.28999999
-0.12624246 -0.0058253161 0.29265958
-0.12665008 -0.0058719013 0.29499999
-0.12682089 -0.0059078997 0.29680851
-0.12689383 -0.0059396625 0.29840425
-0.12700529 -0.0059735426 0.30010638
-0.12715462 -0.006009541 0.3019149
-0.12720737 -0.0060413037 0.30351064
-0.12707615 -0.0060645966 0.30468085
-0.12676352 -0.0060794191 0.30542552
-0.12618425 -0.0060815369 0.30553192
-0.075644046 -0.0043303422 0.2175532
-0.075347222 -0.0043388125 0.21797873
-0.075231448 -0.0043578702 0.21893618
-0.075075425 -0.0043748105 0.21978724
-0.074879803 -0.004389633 0.22053191
-0.074609332 -0.0044002202 0.22106382
-0.074265324 -0.0044065728 0.22138298
-0.073849067 -0.0044086906 0.22148935
-0.07339713 -0.0044086906 0.22148935
-0.072945185 -0.0044086906 0.22148935
0.035482503 -0.006339875 0.31851065
0.036132414 -0.006339875 0.31851065
0.035963632 -0.0058867242 0.29574469
0.036553934 -0.0058846064 0.29563829
0.037130434 -0.0058803717 0.29542553
0.04158143 -0.0042879917 0.21542554
0.042000245 -0.0042858738 0.21531914
0.042439599 -0.0042858738 0.21531914
0.042878948 -0.0042858738 0.21531914
0.043318301 -0.0042858738 0.21531914
0.043714415 -0.0042816391 0.21510638
0.044131495 -0.0042795218 0.215
0.044570196 -0.0042795218 0.215
0.045075707 -0.0042858738 0.21531914
0.045627501 -0.0042964616 0.21585107
0.046272278 -0.0043155192 0.21680851
0.046989731 -0.0043409299 0.21808511
0.047828086 -0.0043769279 0.21989362
0.048673823 -0.0044129258 0.22170213
0.049479797 -0.0044446886 0.22329788
0.050149538 -0.0044637462 0.22425532
0.050679144 -0.0044700988 0.22457446
0.051113155 -0.0044679814 0.22446808
0.051448971 -0.0044573937 0.22393617
0.051733296 -0.0044425707 0.22319148
0.051989704 -0.0044256309 0.22234042
0.052217551 -0.0044065728 0.22138298
0.046752002 -0.0024182154 0.12148936
0.046917584 -0.0024139804 0.12127659
0.046999555 -0.0024055103 0.12085106
0.046996605 -0.0023928052 0.12021276
0.046991054 -0.0023800998 0.11957446
0.046982899 -0.002367395 0.11893617
0.047056619 -0.0023589248 0.11851064
0.047213521 -0.0023546896 0.11829787
0.047454905 -0.0023546896 0.11829787
0.047739178 -0.0023568072 0.11840425
0.048110109 -0.0023631598 0.11872341
0.048612315 -0.0023758649 0.1193617
0.049204215 -0.0023928052 0.12021276
0.049887113 -0.0024139804 0.12127659
0.050750263 -0.0024436258 0.12276596
0.051752076 -0.0024796238 0.12457447
0.05285009 -0.0025198569 0.12659575
0.053911723 -0.0025579722 0.12851064
0.054756943 -0.0025855 0.12989362
0.055427551 -0.0026045577 0.13085106
0.05587567 -0.0026130278 0.13127659
0.056234535 -0.002617263 0.13148937
0.056548547 -0.0026193806 0.13159575
0.056908924 -0.0026236156 0.1318085
0.057362467 -0.0026320855 0.13223404
0.057864118 -0.0026426734 0.13276596
0.058274765 -0.0026490258 0.1330851
0.14435744 -0.0045632701 0.22925532
0.14495964 -0.0045675053 0.22946809
0.14563012 -0.0045738574 0.22978723
0.14630191 -0.0045802104 0.23010638
0.14683929 -0.0045823278 0.23021276
-0.13192217 -0.0037572011 0.21031915
-0.13142651 -0.0037553008 0.21021277
-0.13086499 -0.0037514996 0.20999999
-0.13023826 -0.0037457985 0.20968086
-0.12981042 -0.0037457985 0.20968086
-0.1295795 -0.0037514996 0.20999999
-0.12934728 -0.0037572011 0.21031915
-0.12898333 -0.0037591015 0.21042553
-0.12855397 -0.0037591015 0.21042553
-0.12805983 -0.0037572011 0.21031915
-0.12763068 -0.0037572011 0.21031915
-0.12720153 -0.0037572011 0.21031915
-0.12683651 -0.0037591015 0.21042553
-0.12640715 -0.0037591015 0.21042553
-0.12597777 -0.0037591015 0.21042553
-0.12548494 -0.0037572011 0.21031915
-0.12505579 -0.0037572011 0.21031915
-0.12475272 -0.0037610021 0.21053192
-0.12451159 -0.0037667032 0.21085106
-0.12426917 -0.0037724047 0.21117021
-0.12396307 -0.0037762057 0.21138299
-0.12359391 -0.0037781061 0.21148936
-0.073576443 -0.0022729451 0.12723404
-0.073378123 -0.0022748455 0.12734042
-0.073179379 -0.0022767461 0.12744682
-0.072919331 -0.0022767461 0.12744682
-0.072659276 -0.0022767461 0.12744682
-0.072278358 -0.0022729451 0.12723404
-0.071898311 -0.0022691444 0.12702128
-0.071579121 -0.0022672436 0.12691489
-0.071260378 -0.0022653432 0.12680851
-0.071061194 -0.0022672436 0.12691489
-0.070920929 -0.0022710448 0.12712766
-0.070838921 -0.0022767461 0.12744682
-0.070873439 -0.0022862484 0.12797873
-0.070847094 -0.0022938503 0.12840426
-0.070877485 -0.0023033523 0.12893617
-0.070905708 -0.0023128546 0.12946808
-0.070931755 -0.0023223569 0.13
-0.070955642 -0.0023318594 0.13053192
-0.070804514 -0.0023356602 0.13074468
-0.12328349 -0.004144894 0.23202127
-0.12286638 -0.0041467948 0.23212767
-0.1225049 -0.0041505955 0.23234043
-0.12219846 -0.0041562971 0.23265958
-0.12194635 -0.0041638985 0.23308511
-0.12185883 -0.0041772015 0.23382978
-0.12198917 -0.0041981069 0.235
-0.12227975 -0.004224713 0.23648936
-0.12261905 -0.0042532203 0.23808511
-0.12284268 -0.0042779259 0.23946808
-0.12295197 -0.0042988309 0.2406383
-0.1229482 -0.0043159351 0.24159575
-0.12283269 -0.0043292386 0.24234043
-0.12260672 -0.0043387408 0.24287234
-0.12248556 -0.0043520438 0.24361703
-0.12252116 -0.0043710484 0.24468085
-0.12276463 -0.0043976544 0.24617021
-0.12305488 -0.0044261618 0.24776596
-0.12323336 -0.0044508674 0.24914894
-0.12324899 -0.004469872 0.25021276
-0.12310375 -0.0044831755 0.25095746
-0.12300742 -0.0044983793 0.25180852
-0.12306286 -0.0045192838 0.25297871
-0.1232166 -0.0045439894 0.25436169
-0.12336471 -0.004568696 0.2557447
-0.12345605 -0.0045915013 0.25702128
-0.12374573 -0.0046219085 0.25872341
-0.12382579 -0.0046447138 0.25999999
-0.12369885 -0.0046599177 0.26085106
-0.12371914 -0.0046808226 0.26202127
-0.12398472 -0.0047112298 0.2637234
-0.12419355 -0.0047397367 0.26531914
-0.1243463 -0.0047663432 0.26680851
-0.12449297 -0.0047929497 0.26829788
-0.12468269 -0.0048214565 0.26989362
-0.12486591 -0.0048499629 0.27148935
-0.12509133 -0.0048803706 0.27319148
-0.12535831 -0.0049126782 0.27500001
-0.12561789 -0.0049449857 0.2768085
-0.12577398 -0.0049734931 0.27840427
-0.12578003 -0.0049962983 0.27968085
-0.12573324 -0.0050172033 0.28085107
-0.12572907 -0.0050400086 0.28212765
-0.1257669 -0.0050647147 0.28351063
-0.12565817 -0.0050837193 0.28457448
-0.1254048 -0.0050970223 0.28531915
-0.12510186 -0.0051084254 0.28595746
-0.12512058 -0.0051331311 0.28734043
-0.12554862 -0.0051749409 0.28968084
-0.12615068 -0.0052243532 0.29244682
-0.12655874 -0.005266163 0.29478723
-0.12672998 -0.0052984711 0.29659575
-0.12680337 -0.0053269775 0.29819149
-0.12678018 -0.0053516836 0.29957446
-0.12684098 -0.00538019 0.3011702
-0.12689526 -0.0054086973 0.30276597
-0.12680992 -0.0054315026 0.30404255
-0.12654276 -0.0054467064 0.30489361
-0.1260085 -0.0054505072 0.30510637
-0.075755008 -0.0038921335 0.21787234
-0.075457536 -0.0038997352 0.21829787
-0.075304553 -0.0039149388 0.21914893
-0.075184435 -0.003932043 0.22010638
-0.074952044 -0.0039434456 0.22074468
-0.074645244 -0.0039510475 0.22117022
-0.074265324 -0.0039548483 0.22138298
-0.073849067 -0.0039567486 0.22148935
-0.07339713 -0.0039567486 0.22148935
-0.072910152 -0.0039548483 0.22138298
0.035553608 -0.0057013673 0.31914893
0.036168616 -0.0056956657 0.31882977
0.036196489 -0.0053174752 0.29765958
0.036672316 -0.0052984711 0.29659575
0.037237398 -0.0052927695 0.2962766
0.041560896 -0.0038465224 0.21531914
0.042000245 -0.0038465224 0.21531914
0.042439599 -0.0038465224 0.21531914
0.042878948 -0.0038465224 0.21531914
0.0432969 -0.0038446221 0.21521276
0.043692797 -0.0038408213 0.215
0.044087823 -0.0038370201 0.21478723
0.044526089 -0.0038370201 0.21478723
0.045008898 -0.0038408213 0.215
0.045605008 -0.0038541243 0.21574467
0.046317685 -0.0038769296 0.21702127
0.04710434 -0.0039054367 0.21861702
0.047943782 -0.0039377445 0.22042553
0.048790604 -0.0039700521 0.22223404
0.049526941 -0.0039928574 0.22351064
0.050173327 -0.0040080613 0.2243617
0.050703153 -0.0040137628 0.22468086
0.05113738 -0.004011862 0.22457446
0.051473409 -0.0040023597 0.22404255
0.051757954 -0.0039890567 0.22329788
0.052039459 -0.0039757537 0.22255319
0.052418292 -0.0039700521 0.22223404
0.046915755 -0.0021779223 0.12191489
0.047123365 -0.0021760219 0.12180851
0.04720642 -0.00216842 0.12138298
0.047162965 -0.0021551168 0.1206383
0.047116477 -0.0021418137 0.11989362
0.047066949 -0.0021285105 0.11914894
0.04709886 -0.0021190082 0.11861702
0.047213521 -0.0021133069 0.11829787
0.047454905 -0.0021133069 0.11829787
0.047739178 -0.0021152073 0.11840425
0.048153214 -0.0021228092 0.11882979
0.048612315 -0.0021323112 0.1193617
0.049160674 -0.0021456147 0.12010638
0.049799591 -0.0021627187 0.12106383
0.050618328 -0.0021874246 0.12244681
0.051531103 -0.0022159314 0.12404256
0.052628025 -0.00225204 0.12606382
0.053643953 -0.002284348 0.12787235
0.054532714 -0.0023109543 0.1293617
0.055202238 -0.0023280582 0.13031915
0.05569455 -0.0023375605 0.13085106
0.056052543 -0.0023413617 0.13106383
0.0564114 -0.0023451624 0.13127659
0.056771133 -0.0023489634 0.13148937
0.057224028 -0.0023565653 0.1319149
0.05772502 -0.0023660676 0.13244681
0.058274765 -0.00237747 0.1330851
0.058686722 -0.0023831716 0.13340425
0.1446254 -0.0041030841 0.22968085
0.14522846 -0.0041068848 0.22989361
0.14583239 -0.004110686 0.23010638
0.14643718 -0.0041144867 0.23031914
0.14697501 -0.0041163876 0.23042554
-0.1319889 -0.0033297352 0.21042553
-0.13149303 -0.0033280519 0.21031915
-0.13086499 -0.0033230016 0.20999999
-0.13037042 -0.0033213184 0.20989361
-0.12987629 -0.0033196351 0.20978723
-0.1295795 -0.0033230016 0.20999999
-0.12934728 -0.0033280519 0.21031915
-0.12911376 -0.0033331022 0.2106383
-0.12881394 -0.0033364687 0.21085106
-0.12844849 -0.0033381523 0.21095745
-0.12801804 -0.0033381523 0.21095745
-0.12752323 -0.0033364687 0.21085106
-0.12696476 -0.0033331022 0.2106383
-0.12647106 -0.0033314188 0.21053192
-0.12597777 -0.0033297352 0.21042553
-0.12548494 -0.0033280519 0.21031915
-0.12511905 -0.0033297352 0.21042553
-0.12475272 -0.0033314188 0.21053192
-0.12438595 -0.0033331022 0.2106383
-0.12401876 -0.0033347853 0.21074468
-0.12358874 -0.0033347853 0.21074468
-0.12315872 -0.0033347853 0.21074468
-0.073453404 -0.0020099618 0.12702128
-0.073255524 -0.0020116449 0.12712766
-0.073057204 -0.0020133283 0.12723404
-0.072919331 -0.0020166952 0.12744682
-0.072659276 -0.0020166952 0.12744682
-0.072399229 -0.0020166952 0.12744682
-0.072078951 -0.0020150116 0.12734042
-0.071699128 -0.0020116449 0.12712766
-0.071379945 -0.0020099618 0.12702128
-0.071120761 -0.0020099618 0.12702128
-0.070920929 -0.0020116449 0.12712766
-0.070838921 -0.0020166952 0.12744682
-0.070814528 -0.0020234287 0.12787235
-0.070788391 -0.0020301621 0.12829787
-0.070819005 -0.0020385792 0.12882979
-0.070847444 -0.002046996 0.1293617
-0.07098981 -0.0020587798 0.13010639
-0.071071297 -0.00206888 0.13074468
-0.070977353 -0.0020739303 0.13106383
-0.12345307 -0.0036765125 0.23234043
-0.1230353 -0.0036781959 0.2324468
-0.12272928 -0.0036832462 0.23276596
-0.12247782 -0.0036899797 0.23319149
-0.12228029 -0.0036983965 0.2337234
-0.12219147 -0.0037101803 0.23446809
-0.12232051 -0.0037286973 0.23563829
-0.12249978 -0.0037488982 0.23691489
-0.12272863 -0.0037707824 0.23829788
-0.12289725 -0.0037909828 0.23957446
-0.12295197 -0.0038078167 0.2406383
-0.12283992 -0.0038196002 0.24138297
-0.122617 -0.0038280173 0.2419149
-0.12239189 -0.0038364341 0.24244681
-0.12232509 -0.0038499013 0.24329787
-0.12252116 -0.0038717852 0.24468085
-0.12287074 -0.0038987196 0.24638298
-0.12310771 -0.0039222869 0.24787234
-0.12318075 -0.0039408039 0.24904256
-0.12303939 -0.003952588 0.24978724
-0.12284281 -0.0039626877 0.25042552
-0.12279954 -0.0039778384 0.25138298
-0.12295936 -0.0039997227 0.25276595
-0.12326813 -0.0040266565 0.25446808
-0.12362128 -0.0040552742 0.25627661
-0.12371155 -0.0040754746 0.25755319
-0.1237966 -0.0040956754 0.25882977
-0.12377513 -0.0041125095 0.25989363
-0.12359796 -0.0041242931 0.2606383
-0.1236689 -0.0041444935 0.26191488
-0.12403474 -0.0041747945 0.2638298
-0.12409396 -0.0041949949 0.26510638
-0.12419756 -0.0042168791 0.26648936
-0.12439423 -0.0042421296 0.26808509
-0.12463354 -0.0042690639 0.26978722
-0.12462127 -0.0042875814 0.27095744
-0.12470164 -0.0043094652 0.27234042
-0.12482487 -0.0043330328 0.27382979
-0.12503856 -0.0043599671 0.27553192
-0.12529337 -0.0043885843 0.27734041
-0.12549296 -0.0044155186 0.27904254
-0.1256856 -0.0044424525 0.28074467
-0.1258239 -0.0044677039 0.28234044
-0.12590848 -0.0044912705 0.28382978
-0.12570514 -0.0045047379 0.28468084
-0.12526453 -0.004509788 0.285
-0.12486916 -0.0045165219 0.28542554
-0.12488897 -0.0045384057 0.28680852
-0.12531808 -0.0045754402 0.28914893
-0.12592122 -0.0046192077 0.29191488
-0.12637605 -0.004657926 0.29436171
-0.12659362 -0.0046882271 0.2962766
-0.12662241 -0.0047117947 0.29776597
-0.12660012 -0.0047336784 0.29914895
-0.12666176 -0.0047589289 0.30074468
-0.12671691 -0.0047841799 0.30234042
-0.12672119 -0.0048077474 0.30382979
-0.12641029 -0.004819531 0.30457446
-0.075828992 -0.0034509392 0.21808511
-0.075531088 -0.0034576727 0.21851064
-0.075377665 -0.0034711398 0.21936171
-0.075184435 -0.0034829231 0.22010638
-0.074952044 -0.0034930238 0.22074468
-0.074609332 -0.0034980737 0.22106382
-0.074229635 -0.0035014406 0.2212766
-0.07377813 -0.0035014406 0.2212766
-0.073291369 -0.0034997573 0.22117022
0.036351725 -0.0047303112 0.29893616
0.036777548 -0.0047067441 0.29744682
0.037330993 -0.0047000106 0.29702127
0.041396625 -0.0033937041 0.21446809
0.041854989 -0.0033953874 0.21457447
0.042376697 -0.0034021209 0.215
0.042857766 -0.0034054876 0.21521276
0.0432969 -0.0034054876 0.21521276
0.043692797 -0.0034021209 0.215
0.044065986 -0.0033970708 0.21468085
0.044481982 -0.0033953874 0.21457447
0.044964354 -0.0033987539 0.21478723
0.045605008 -0.0034139045 0.21574467
0.046363097 -0.003437472 0.21723405
0.047218949 -0.0034677729 0.21914893
0.048082612 -0.0034980737 0.22106382
0.048884027 -0.0035233246 0.22265957
0.049597662 -0.0035418419 0.22382979
0.050197117 -0.0035519421 0.22446808
0.050727159 -0.0035569924 0.22478724
0.051161606 -0.003555309 0.22468086
0.051522296 -0.0035485753 0.22425532
0.051807269 -0.0035367915 0.22351064
0.052114084 -0.0035266913 0.22287235
0.052493572 -0.0035216413 0.22255319
0.047161389 -0.0019392594 0.12255319
0.047329143 -0.0019358926 0.12234043
0.047371909 -0.0019274758 0.12180851
0.047329325 -0.001915692 0.12106383
0.047241896 -0.0019022248 0.12021276
0.047150992 -0.0018887578 0.1193617
0.047141101 -0.0018786576 0.11872341
0.047213521 -0.001871924 0.11829787
0.047454905 -0.001871924 0.11829787
0.047739178 -0.0018736074 0.11840425
0.048110109 -0.0018786576 0.11872341
0.04856899 -0.0018870744 0.11925532
0.049073588 -0.0018971747 0.11989362
0.049712073 -0.0019123252 0.12085106
0.05044242 -0.0019308425 0.12202128
0.051354323 -0.0019560934 0.12361702
0.052405968 -0.0019863942 0.12553191
0.053420804 -0.0020150116 0.12734042
0.05435333 -0.0020402626 0.12893617
0.055021986 -0.0020554129 0.12989362
0.05551343 -0.0020638299 0.13042553
0.055825058 -0.0020655133 0.13053192
0.056182832 -0.00206888 0.13074468
0.056587409 -0.0020739303 0.13106383
0.057085581 -0.0020823472 0.13159575
0.057632286 -0.0020924474 0.13223404
0.058228184 -0.0021042312 0.13297872
0.058639925 -0.0021092813 0.13329788
0.1446254 -0.0036344279 0.22968085
0.14522846 -0.0036377946 0.22989361
0.14576498 -0.0036394782 0.23
0.14636955 -0.003642845 0.23021276
0.14683929 -0.003642845 0.23021276
-0.13212237 -0.0029033017 0.2106383
-0.13162605 -0.0029018354 0.21053192
-0.13106388 -0.0028989026 0.21031915
-0.13050258 -0.0028959701 0.21010639
-0.130008 -0.0028945038 0.20999999
-0.12964515 -0.0028959701 0.21010639
-0.12934728 -0.0028989026 0.21031915
-0.12911376 -0.0029033017 0.2106383
-0.12894392 -0.002909167 0.21106383
-0.12870759 -0.0029135661 0.21138299
-0.12827626 -0.0029135661 0.21138299
-0.12771626 -0.0029106333 0.21117021
-0.127093 -0.0029062342 0.21085106
-0.12647106 -0.0029018354 0.21053192
-0.12591408 -0.0028989026 0.21031915
-0.12548494 -0.0028989026 0.21031915
-0.12505579 -0.0028989026 0.21031915
-0.12468968 -0.002900369 0.21042553
-0.12426031 -0.002900369 0.21042553
-0.12376834 -0.0028989026 0.21031915
-0.12327681 -0.0028974365 0.21021277
-0.1227857 -0.0028959701 0.21010639
-0.073576443 -0.0017537115 0.12723404
-0.073316827 -0.0017537115 0.12723404
-0.073118292 -0.0017551777 0.12734042
-0.072919331 -0.0017566442 0.12744682
-0.072719924 -0.0017581105 0.12755319
-0.072399229 -0.0017566442 0.12744682
-0.072139174 -0.0017566442 0.12744682
-0.07175912 -0.0017537115 0.12723404
-0.071439728 -0.0017522452 0.12712766
-0.071120761 -0.001750779 0.12702128
-0.070980273 -0.0017537115 0.12723404
-0.070838921 -0.0017566442 0.12744682
-0.070814528 -0.0017625095 0.12787235
-0.070788391 -0.0017683746 0.12829787
-0.070760518 -0.0017742398 0.1287234
-0.070847444 -0.0017830378 0.1293617
-0.07104785 -0.0017947684 0.13021277
-0.071129121 -0.0018035661 0.13085106
-0.071092576 -0.0018094314 0.13127659
-0.12345307 -0.0032024297 0.23234043
-0.12309162 -0.0032053625 0.2325532
-0.12278537 -0.0032097613 0.23287234
-0.1225337 -0.0032156266 0.23329787
-0.12239161 -0.0032244246 0.23393618
-0.1223578 -0.003236155 0.23478724
-0.12248618 -0.0032522844 0.23595744
-0.12260979 -0.0032684139 0.23712766
-0.12278342 -0.0032860097 0.23840426
-0.12289725 -0.003302139 0.23957446
-0.12284326 -0.0033138695 0.24042553
-0.12256923 -0.0033197347 0.24085106
-0.12223954 -0.0033241338 0.24117021
-0.12196226 -0.003329999 0.24159575
-0.12200417 -0.003344662 0.24265957
-0.12236135 -0.0033681232 0.2443617
-0.1229238 -0.0033974494 0.24648936
-0.12326622 -0.0034209106 0.24819149
-0.12328598 -0.0034355735 0.24925531
-0.12303939 -0.0034429054 0.24978724
-0.12279063 -0.0034502367 0.25031915
-0.12285151 -0.0034663663 0.25148937
-0.12311462 -0.0034883609 0.25308511
-0.1235258 -0.0035147546 0.255
-0.12382655 -0.0035382155 0.25670213
-0.12396704 -0.0035572776 0.2580851
-0.12384749 -0.0035690081 0.25893617
-0.12367379 -0.0035792722 0.25968084
-0.12403474 -0.0036364589 0.2638298
-0.12404416 -0.003652588 0.26499999
-0.1240984 -0.0036701839 0.2662766
-0.12439423 -0.003695111 0.26808509
-0.12463354 -0.0037185722 0.26978722
-0.12457235 -0.0037332356 0.27085108
-0.12440938 -0.0037449661 0.27170214
-0.12438841 -0.0037610952 0.27287233
-0.12460406 -0.0037845562 0.27457446
-0.12490889 -0.0038109499 0.27648935
-0.1252059 -0.0038373438 0.27840427
-0.12559035 -0.00386667 0.28053191
-0.12591872 -0.00389453 0.2825532
-0.12600286 -0.0039150584 0.28404257
-0.12570514 -0.0039238562 0.28468084
-0.12517101 -0.0039253226 0.28478724
-0.12463645 -0.0039267885 0.2848936
-0.12461102 -0.0039443849 0.28617021
-0.12504146 -0.0039766436 0.28851065
-0.12573767 -0.0040177004 0.29148936
-0.12623903 -0.0040528919 0.29404256
-0.12650271 -0.0040807519 0.29606384
-0.12657717 -0.0041027465 0.29765958
-0.12655509 -0.0041218088 0.29904255
-0.12670657 -0.0041467361 0.30085108
-0.12680608 -0.0041701966 0.30255318
-0.12680992 -0.0041907253 0.30404255
-0.12636615 -0.0041965907 0.3044681
-0.075828992 -0.0030059437 0.21808511
-0.075531088 -0.003011809 0.21851064
-0.075377665 -0.0030235394 0.21936171
-0.075184435 -0.0030338035 0.22010638
-0.074952044 -0.0030426015 0.22074468
-0.074609332 -0.0030470004 0.22106382
-0.074193954 -0.0030484668 0.22117022
-0.073742658 -0.0030484668 0.22117022
-0.073256113 -0.0030470004 0.22106382
0.036390536 -0.0041247411 0.29925531
0.036777548 -0.0040998142 0.29744682
0.037330993 -0.0040939488 0.29702127
0.041191284 -0.0029414259 0.21340425
0.041709732 -0.0029472911 0.21382979
0.042292822 -0.0029575552 0.21457447
0.04283658 -0.0029648868 0.21510638
0.0432969 -0.0029663532 0.21521276
0.043692797 -0.0029634207 0.215
0.044065986 -0.0029590216 0.21468085
0.044437874 -0.0029546225 0.2143617
0.044919815 -0.0029575552 0.21457447
0.045560036 -0.0029707521 0.21553192
0.046363097 -0.0029942133 0.21723405
0.04724187 -0.0030220731 0.21925531
0.048105754 -0.0030484668 0.22117022
0.048884027 -0.0030689952 0.22265957
0.049597662 -0.0030851248 0.22382979
0.050220907 -0.0030953886 0.22457446
0.050751165 -0.0030997877 0.22489361
0.051185831 -0.0030983214 0.22478724
0.051571175 -0.0030939225 0.22446808
0.051881246 -0.0030851248 0.22382979
0.052188709 -0.0030763266 0.22319148
0.052568849 -0.0030719279 0.22287235
0.047243267 -0.0016921264 0.12276596
0.047411453 -0.0016891938 0.12255319
0.047454655 -0.0016818622 0.12202128
0.047412507 -0.0016715979 0.12127659
0.047283705 -0.0016584011 0.12031915
0.047150992 -0.0016452043 0.1193617
0.047141101 -0.0016364064 0.11872341
0.047255978 -0.0016320074 0.11840425
0.047454905 -0.0016305412 0.11829787
0.047739178 -0.0016320074 0.11840425
0.048066996 -0.00163494 0.11861702
0.048482336 -0.0016408054 0.11904255
0.048986502 -0.0016496032 0.11968085
0.04958079 -0.0016613337 0.12053192
0.050310485 -0.0016774632 0.12170213
0.051221736 -0.0016994579 0.12329787
0.05222832 -0.0017243852 0.12510638
0.053242289 -0.0017493125 0.12691489
0.054173946 -0.0017713073 0.12851064
0.054841734 -0.001784504 0.12946808
0.055332307 -0.0017918356 0.13
0.055688567 -0.0017947684 0.13021277
0.055999976 -0.0017962346 0.13031915
0.056403682 -0.0018006336 0.1306383
0.056947131 -0.0018094314 0.13127659
0.057585921 -0.0018211619 0.13212766
0.058228184 -0.0018328924 0.13297872
0.058686722 -0.0018387578 0.13340425
0.14435744 -0.0031599067 0.22925532
0.14489244 -0.0031613728 0.2293617
0.14549528 -0.0031643056 0.22957447
0.146099 -0.0031672381 0.22978723
0.14670359 -0.0031701708 0.23
0.1471729 -0.0031701708 0.23
-0.13225581 -0.0024759998 0.21085106
-0.13175908 -0.0024747504 0.21074468
-0.13119647 -0.0024722521 0.21053192
-0.13063473 -0.0024697536 0.21031915
-0.13013972 -0.0024685042 0.21021277
-0.12964515 -0.0024672551 0.21010639
-0.12934728 -0.0024697536 0.21031915
-0.12911376 -0.0024735013 0.2106383
-0.12894392 -0.0024784983 0.21106383
-0.12870759 -0.0024822461 0.21138299
-0.12840538 -0.0024847444 0.21159574
-0.1277806 -0.0024809968 0.21127659
-0.127093 -0.0024759998 0.21085106
-0.12640715 -0.0024710028 0.21042553
-0.12591408 -0.0024697536 0.21031915
-0.12548494 -0.0024697536 0.21031915
-0.12505579 -0.0024697536 0.21031915
-0.1245636 -0.0024685042 0.21021277
-0.12413467 -0.0024685042 0.21021277
-0.12358052 -0.0024660057 0.20999999
-0.12308964 -0.0024647566 0.20989361
-0.12259919 -0.0024635072 0.20978723
-0.073761001 -0.0014978425 0.12755319
-0.073562033 -0.0014990917 0.12765957
-0.073301546 -0.0014990917 0.12765957
-0.073101923 -0.0015003409 0.12776595
-0.072780579 -0.0014990917 0.12765957
-0.072520092 -0.0014990917 0.12765957
-0.072139174 -0.0014965932 0.12744682
-0.071819119 -0.0014953439 0.12734042
-0.071499504 -0.0014940947 0.12723404
-0.071180329 -0.0014928455 0.12712766
-0.070980273 -0.0014940947 0.12723404
-0.070838921 -0.0014965932 0.12744682
-0.070755608 -0.0015003409 0.12776595
-0.070729695 -0.0015053379 0.12819149
-0.070760518 -0.001511584 0.1287234
-0.070905708 -0.0015203288 0.12946808
-0.07104785 -0.0015290736 0.13021277
-0.071186952 -0.0015378181 0.13095744
-0.071150184 -0.0015428151 0.13138297
-0.12334003 -0.0027258485 0.23212767
-0.12292268 -0.0027270976 0.23223405
-0.1226171 -0.0027308455 0.2325532
-0.12242195 -0.0027370916 0.23308511
-0.12228029 -0.0027445869 0.2337234
-0.12230235 -0.0027558301 0.23468085
-0.12237573 -0.0027683226 0.23574468
-0.12255479 -0.0027833136 0.23702128
-0.12278342 -0.0027995538 0.23840426
-0.12278812 -0.002810797 0.2393617
-0.12262584 -0.0028182922 0.23999999
-0.1222444 -0.002820791 0.24021277
-0.12175426 -0.002820791 0.24021277
-0.12147893 -0.0028257878 0.2406383
-0.12157626 -0.0028395294 0.2418085
-0.122095 -0.0028632651 0.24382979
-0.12265854 -0.0028882499 0.24595745
-0.12331905 -0.0029157333 0.24829787
-0.12344383 -0.0029307243 0.24957447
-0.12314419 -0.0029357213 0.25
-0.12299937 -0.0029444657 0.25074467
-0.12311135 -0.002959457 0.25202128
-0.12337337 -0.0029781954 0.25361702
-0.12368041 -0.0029981835 0.25531915
-0.12387787 -0.0030156728 0.25680852
-0.12391596 -0.0030294147 0.25797874
-0.12374573 -0.0030381591 0.25872341
-0.12389478 -0.0031081168 0.26468086
-0.12399925 -0.003124357 0.26606384
-0.12439423 -0.0031480924 0.26808509
-0.12478098 -0.0031718281 0.27010638
-0.12471913 -0.0031843204 0.2711702
-0.1245068 -0.0031930653 0.2719149
-0.12429143 -0.0032018099 0.27265957
-0.12441096 -0.0032192995 0.27414894
-0.12466859 -0.0032405364 0.27595744
-0.12506238 -0.0032655215 0.27808511
-0.12554273 -0.0032930046 0.28042552
-0.12596612 -0.0033192388 0.28265956
-0.12609725 -0.0033379777 0.28425533
-0.12575211 -0.0033442238 0.28478724
-0.12512425 -0.0033429745 0.28468084
-0.12458991 -0.0033442238 0.28478724
-0.12456469 -0.0033592144 0.28606382
-0.12504146 -0.0033879473 0.28851065
-0.12573767 -0.0034229259 0.29148936
-0.1262847 -0.0034541569 0.29414892
-0.12654816 -0.0034778926 0.2961702
-0.12657717 -0.0034953821 0.29765958
-0.12664512 -0.0035141206 0.29925531
-0.12684098 -0.0035366069 0.3011702
-0.12698443 -0.0035578443 0.30297872
-0.12694304 -0.0035740845 0.3043617
-0.12649861 -0.0035790815 0.30478725
-0.075828992 -0.0025609483 0.21808511
-0.075494312 -0.0025646959 0.21840425
-0.075341105 -0.0025746899 0.21925531
-0.075184435 -0.0025846839 0.22010638
-0.074915923 -0.0025909303 0.2206383
-0.074537531 -0.0025934286 0.22085106
-0.07412257 -0.0025946777 0.22095744
-0.073707186 -0.0025959271 0.22106382
-0.073256113 -0.0025959271 0.22106382
0.036248233 -0.0035003789 0.29808509
0.036659162 -0.0034816405 0.29648936
0.037237398 -0.003479142 0.2962766
0.041626729 -0.0025059816 0.21340425
0.042229917 -0.0025159756 0.21425532
0.042794213 -0.0025234711 0.21489362
0.0432969 -0.0025272188 0.21521276
0.043714415 -0.0025259694 0.21510638
0.044087823 -0.0025222218 0.21478723
0.044437874 -0.0025172248 0.2143617
0.044897545 -0.0025184741 0.21446809
0.045515057 -0.0025284679 0.21531914
